# .PCD v0.7 - Point Cloud Data file format
VERSION 0.7
FIELDS x y z intensity
SIZE 4 4 4 4
TYPE F F F F
COUNT 1 1 1 1
WIDTH 1397
HEIGHT 1
VIEWPOINT 0 0 0 1 0 0 0
POINTS 1397
DATA ascii
1.3945115 0.36039636 1.9813027 89
1.7046546 0.44054443 1.9869798 85
1.8740512 0.48955935 1.9832203 71
2.2703657 0.59308445 1.9737986 69
2.7937543 0.72928649 1.9776572 64
3.4949455 0.91232258 1.9765077 53
4.4910936 1.1715198 1.9635568 8
5.988749 1.5610721 1.9079046 79
5.9797893 1.5587366 1.2647083 72
5.985291 1.5590553 0.64712399 81
2.0780911 0.5397588 1.9927584 31
2.5142627 0.65257961 1.9749495 67
3.1231241 0.8106063 1.9809276 54
3.9373527 1.0212049 1.9678308 40
5.3216701 1.379254 2.0014269 29
5.9900875 1.5513765 1.5831132 77
5.983077 1.5484468 0.95309067 84
5.9877133 1.5485314 0.34316069 87
0.030390561 0.007335905 1.9891979 80
0.30353993 0.076771624 1.9909451 104
0.416785 0.10642932 2.0915227 79
0.58722657 0.15036121 1.9838723 84
0.79209536 0.20295221 1.9859076 93
1.0144863 0.26011178 1.9857829 85
1.2572585 0.32235217 1.9788946 84
1.5483676 0.39698535 1.9897208 76
0.12067215 0.029321373 1.9810979 88
0.21328537 0.050664529 1.9983203 91
0.49094233 0.12471272 1.9863992 89
0.68825811 0.17507239 1.9854547 91
0.90061539 0.22941265 1.9846202 74
1.1288242 0.28753731 1.975547 89
1.3957611 0.35552642 1.9813027 89
1.706182 0.43459141 1.9869798 85
1.8757489 0.48301473 1.9832203 71
2.2724221 0.58515579 1.9737986 69
2.7922335 0.71848798 1.9749157 64
3.4981086 0.9001174 1.9765077 53
4.4951563 1.155836 1.9635568 8
5.9895158 1.538964 1.9064953 78
5.9804358 1.5366311 1.2637757 72
5.9858737 1.5369147 0.64667779 82
2.0799623 0.5325017 1.9927584 33
2.5126092 0.64279741 1.9720063 69
3.1259344 0.7996996 1.9809276 55
3.9364965 1.006331 1.9657328 7
5.3264523 1.3606695 2.0014269 27
5.9907565 1.5292555 1.5819409 77
5.9788489 1.5251043 0.951711 86
5.9882417 1.5263871 0.34295917 87
0.030415982 0.0072297771 1.9891979 82
0.30380607 0.075711608 1.9909451 104
0.41715395 0.10497382 2.0915227 79
0.58774781 0.14831048 1.9838723 82
0.792799 0.20018603 1.9859076 93
1.0130652 0.25598207 1.9813942 85
1.2583761 0.31796154 1.9788946 87
1.5497439 0.39157814 1.9897208 74
0.12077377 0.028899968 1.9810979 88
0.21346092 0.049919713 1.9983203 91
0.49259487 0.12330361 1.9912384 88
0.68886507 0.17266884 1.9854547 91
0.9014107 0.2262675 1.9846202 78
1.1298211 0.28359523 1.975547 89
1.3969936 0.35065213 1.9813027 89
1.7076886 0.42863306 1.9869798 85
1.8774233 0.47646421 1.9832203 69
2.2744505 0.57721996 1.9737986 67
2.7947242 0.7087369 1.9749157 66
3.5012295 0.88790131 1.9765077 58
4.4991632 1.1401378 1.9635568 8
5.9855504 1.5156921 1.9036771 77
5.9810014 1.5145402 1.262843 73
5.9863739 1.514789 0.64623159 82
2.0781875 0.52432442 1.9894335 35
2.5148377 0.63402283 1.9720063 69
3.1245267 0.78772926 1.9783952 57
3.9399853 0.99258381 1.9657328 7
5.3265891 1.3409156 1.9997842 26
5.9866309 1.5059631 1.5795963 80
5.9793339 1.5030178 0.95102125 84
5.9838419 1.5030407 0.34255609 87
0.030441033 0.0071235616 1.9891979 80
0.30406851 0.074650668 1.9909451 104
0.41751787 0.10351704 2.0915227 79
0.58826196 0.14625797 1.9838723 80
0.79159707 0.19694579 1.9813049 91
1.0139525 0.25244427 1.9813942 87
1.2594782 0.31356707 1.9788946 84
1.5511013 0.38616613 1.9897208 74
0.12087391 0.028478215 1.9810979 89
0.21363387 0.049174294 1.9983203 91
0.49302229 0.12158338 1.9912384 88
0.68946362 0.1702632 1.9854547 91
0.90219504 0.22311962 1.9846202 78
1.1282724 0.27902362 1.9712811 89
1.3982091 0.34577361 1.9813027 89
1.7058833 0.42185569 1.9833045 83
1.8790751 0.46990788 1.9832203 71
2.2764518 0.56927717 1.9737986 67
2.7971814 0.69897723 1.9749157 66
3.5000091 0.87460023 1.9741896 54
4.5031161 1.1244259 1.9635568 8
5.9861498 1.493628 1.9022678 77
5.9767189 1.491275 1.2609777 74
5.9867926 1.4926786 0.64578539 82
2.0763812 0.51616615 1.9861088 37
2.5170357 0.6252405 1.9720063 69
3.1272571 0.7768178 1.9783952 58
3.9434261 0.97882468 1.9657328 26
5.3312373 1.322314 1.9997842 26
5.9871335 1.4838872 1.5784239 80
5.9797368 1.4809462 0.95033139 84
5.9842019 1.4809438 0.34235457 87
0.030465715 0.007017259 1.9891979 80
0.30432722 0.073588811 1.9909451 104
0.41787666 0.10205901 2.0915227 79
0.5887689 0.14420365 1.9838723 80
0.79227972 0.1941814 1.9813049 93
1.0148276 0.24890335 1.9813942 89
1.2605652 0.30916876 1.9788946 87
1.5524398 0.38074943 1.9897208 74
0.12097258 0.028056111 1.9810979 89
0.21328335 0.048310984 1.993349 91
0.4934437 0.11986167 1.9912384 88
0.6900537 0.1678555 1.9854547 91
0.90296835 0.21996902 1.9846202 80
1.1292396 0.27508351 1.9712811 89
1.3994074 0.34089079 1.9813027 89
1.7073454 0.41589847 1.9833045 83
1.8807038 0.46334583 1.9832203 71
2.278425 0.5613274 1.9737986 67
2.7996042 0.68920898 1.9749157 66
3.5030406 0.86237758 1.9741896 49
4.5115147 1.1098076 1.9654298 8
5.9866681 1.4715782 1.9008586 77
5.977118 1.4692308 1.2600452 74
5.9871306 1.4705838 0.64533913 82
2.0781703 0.50891513 1.9861088 39
2.523129 0.61741143 1.9749495 71
3.1299498 0.76589698 1.9783952 61
3.9468188 0.96505356 1.9657328 57
5.3312335 1.3025758 1.9981416 28
5.9875546 1.4618266 1.5772516 81
5.9752474 1.4577167 0.94895172 84
5.9796276 1.4576796 0.34195149 85
0.030490022 0.0069108712 1.9891979 80
0.30458227 0.072526067 1.9909451 104
0.41823035 0.10059972 2.0915227 79
0.58926862 0.1421476 1.9838723 82
0.79295272 0.19141464 1.9813049 93
1.0156902 0.24535942 1.9813942 89
1.2616366 0.30476665 1.9788946 80
1.5537593 0.37532803 1.9897208 76
0.12106978 0.027633667 1.9810979 89
0.21345067 0.04756619 1.993349 93
0.49385905 0.11813851 1.9912384 88
0.69063544 0.16544574 1.9854547 91
0.90373069 0.21681572 1.9846202 80
1.1301929 0.2711401 1.9712811 89
1.4005889 0.3360039 1.9813027 89
1.7087868 0.40993619 1.9833045 83
1.8823098 0.45677811 1.9832203 69
2.2803707 0.55337077 1.9737986 67
2.8019929 0.67943233 1.9749157 66
3.5060296 0.85014445 1.9741896 43
4.5198674 1.0951445 1.9673029 8
5.9824424 1.4484141 1.8980402 76
5.9774356 1.4472017 1.2591126 76
5.9873877 1.4485049 0.64489299 83
2.0763037 0.50078219 1.9827838 40
2.5252688 0.60860032 1.9749495 71
3.1326044 0.75496674 1.9783952 62
3.9501631 0.95127076 1.9657328 57
5.3311563 1.2828535 1.9964989 29
5.987895 1.4397806 1.5760792 81
5.9754844 1.4356934 0.94826198 84
5.9749632 1.4344653 0.34154844 85
0.030513959 0.0068043992 1.9891979 80
0.30483356 0.07146243 1.9909451 105
0.41857895 0.099139214 2.0915227 79
0.58976126 0.14008979 1.9838723 80
0.793616 0.18864556 1.9813049 93
1.0165405 0.24181253 1.9813942 89
1.2626928 0.30036089 1.9788946 78
1.5550601 0.36990216 1.9897208 76
0.1211655 0.027210886 1.9810979 86
0.21361542 0.046820819 1.993349 93
0.49426848 0.11641389 1.9912384 89
0.69120872 0.16303396 1.9854547 91
0.90236264 0.2131592 1.9801195 81
1.1336706 0.26779282 1.975547 91
1.4017532 0.33111289 1.9813027 89
1.7102073 0.40396893 1.9833045 83
1.8838928 0.45020485 1.9832203 69
2.2822883 0.54540741 1.9737986 69
2.8043475 0.6696474 1.9749157 66
3.5046666 0.83687192 1.9718715 38
4.5281715 1.0804365 1.9691759 8
5.9827967 1.4264101 1.896631 78
5.9728947 1.4240494 1.2572473 77
5.9827185 1.425288 0.64400053 87
2.0780389 0.49353147 1.9827838 40
2.5273778 0.59978175 1.9749495 71
3.1352203 0.74402732 1.9783952 63
3.9578755 0.93852335 1.9678308 56
5.3310075 1.2631477 1.9948562 29
5.9881544 1.4177506 1.5749069 75
5.9756403 1.4136863 0.94757211 89
5.9750724 1.4124507 0.34134689 93
0.030537525 0.0066978442 1.9891979 82
0.30508116 0.070397928 1.9909451 105
0.41892248 0.097677484 2.0915227 81
0.59024674 0.13803029 1.9838723 82
0.79426974 0.18587416 1.9813049 91
1.0173784 0.23826265 1.9813942 91
1.2637336 0.29595143 1.9788946 87
1.5563419 0.36447173 1.9897208 71
0.12125974 0.026787773 1.9810979 88
0.21377756 0.046074875 1.993349 93
0.49344647 0.11440384 1.9863992 88
0.69177359 0.1606202 1.9854547 91
0.90310127 0.21000805 1.9801195 83
1.1345984 0.26383394 1.975547 91
1.4029005 0.32621783 1.9813027 89
1.711607 0.39799669 1.9833045 81
1.8854527 0.44362611 1.9832203 69
2.2841783 0.53743744 1.9737986 69
2.8066678 0.65985429 1.9749157 66
3.5075667 0.8246333 1.9718715 35
4.536428 1.0656836 1.9710488 8
5.983068 1.4044212 1.8952218 79
5.9730463 1.4020689 1.2563148 78
5.9828086 1.4032584 0.64355433 88
2.0797491 0.48627478 1.9827838 40
2.5294561 0.59095585 1.9749495 71
3.1419966 0.73405957 1.9809276 66
3.9611275 0.92470205 1.9678308 56
5.3307843 1.2434585 1.9932135 30
5.9883327 1.3957359 1.5737346 75
5.9757156 1.3916955 0.94688231 89
5.9751005 1.390453 0.34114537 88
0.030560721 0.0065912073 1.9891979 80
0.30532503 0.06933257 1.9909451 105
0.41926086 0.096214592 2.0915227 83
0.59072489 0.1359691 1.9838723 84
0.79491371 0.18310052 1.9813049 91
1.018204 0.2347099 1.9813942 87
1.2647591 0.29153839 1.9788946 84
1.5576046 0.35903686 1.9897208 73
0.12135251 0.026364336 1.9810979 88
0.21393707 0.045328371 1.993349 93
0.49384278 0.1126807 1.9863992 86
0.69233012 0.15820448 1.9854547 91
0.9038288 0.20685437 1.9801195 85
1.1355125 0.25987184 1.975547 91
1.4010925 0.32064641 1.9773132 89
1.7129859 0.39201963 1.9833045 81
1.8869898 0.43704194 1.9832203 67
2.2860403 0.52946091 1.9737986 67
2.808954 0.6500532 1.9749157 64
3.51474 0.8133834 1.9741896 32
4.5220537 1.0456644 1.9635568 9
5.9832602 1.3824478 1.8938125 78
5.9779048 1.3812104 1.2563148 74
5.9876704 1.3823661 0.64355433 87
2.0814338 0.47901213 1.9827838 39
2.5275643 0.58121699 1.9720063 71
3.1445398 0.72308749 1.9809276 66
3.9643314 0.91086954 1.9678308 56
5.3304906 1.2237865 1.9915709 30
5.9931684 1.3748243 1.5737346 81
5.9805374 1.3708279 0.94688231 88
5.979918 1.3695875 0.34114537 88
0.030583542 0.0064844908 1.9891979 78
0.30556518 0.068266362 1.9909451 105
0.41959417 0.094750501 2.0915227 83
0.59119594 0.13390626 1.9838723 84
0.79554802 0.18032464 1.9813049 91
1.0213535 0.23168427 1.9857829 87
1.2657689 0.28712177 1.9788946 87
1.5588484 0.35359761 1.9897208 76
0.1214438 0.025940577 1.9810979 88
0.214094 0.044581313 1.993349 93
0.49423313 0.11095618 1.9863992 86
0.69287813 0.15578684 1.9854547 91
0.90454537 0.20369817 1.9801195 90
1.1364126 0.25590658 1.975547 91
1.4022033 0.31575376 1.9773132 89
1.7143439 0.38603783 1.9833045 85
1.8885039 0.43045247 1.9832203 67
2.2878745 0.52147788 1.9737986 67
2.8112061 0.64024413 1.9749157 64
3.5175576 0.80110973 1.9741896 31
4.512115 1.0267872 1.9579377 7
5.988049 1.361554 1.8938125 77
5.9778996 1.3592461 1.2553821 73
5.9876027 1.3603535 0.64310813 83
2.0830934 0.47174367 1.9827838 39
2.5295775 0.57239062 1.9720063 73
3.1470444 0.71210659 1.9809276 68
3.9674866 0.89702588 1.9678308 56
5.3255167 1.2030908 1.9882855 27
5.9931903 1.3528255 1.5725623 80
5.9804544 1.3488539 0.94619244 85
5.9846621 1.3487053 0.34114537 87
0.03060599 0.0063776942 1.9891979 78
0.3058016 0.06719932 1.9909451 105
0.41992235 0.093285277 2.0915227 83
0.59165978 0.13184178 1.9838723 86
0.79617262 0.17754656 1.9813049 91
1.022156 0.22811766 1.9857829 89
1.2667634 0.28270167 1.9788946 87
1.5600733 0.34815407 1.9897208 76
0.12153361 0.025516499 1.9810979 88
0.21424833 0.043833718 1.993349 93
0.4946174 0.10923031 1.9863992 88
0.69341773 0.1533673 1.9854547 91
0.90525091 0.20053947 1.9801195 92
1.1372991 0.25193819 1.975547 91
1.4032968 0.31085721 1.9773132 89
1.715681 0.38005129 1.9833045 83
1.889995 0.42385772 1.9832203 60
2.289681 0.51348853 1.9737986 67
2.8134236 0.6304273 1.9749157 64
3.5246561 0.78979504 1.9765077 27
4.5021005 1.0079921 1.9523187 6
5.9880838 1.3395962 1.8924034 77
5.9826078 1.338371 1.2553821 73
5.9923148 1.3394445 0.64310813 80
2.0847273 0.4644694 1.9827838 38
2.5315602 0.56355721 1.9720063 73
3.145303 0.70018023 1.9783952 68
3.9705935 0.88317126 1.9678308 56
5.3204637 1.1824448 1.985 26
5.9978752 1.3318971 1.5725623 79
5.9802918 1.3268974 0.9455027 84
5.9893336 1.3278067 0.34114537 87
0.030628067 0.0062708212 1.9891979 80
0.30603433 0.066131473 1.9909451 105
0.42024547 0.091818906 2.0915227 83
0.59211636 0.1297757 1.9838723 86
0.79678744 0.17476632 1.9813049 91
1.0229461 0.22454827 1.9857829 91
1.270491 0.2788814 1.9830275 87
1.5612789 0.34270629 1.9897208 76
0.12162194 0.025092112 1.9810979 88
0.21440002 0.043085583 1.993349 93
0.49499568 0.1075031 1.9863992 91
0.69394881 0.15094587 1.9854547 89
0.90594542 0.19737832 1.9801195 93
1.1381714 0.24796677 1.975547 91
1.4043735 0.3059569 1.9773132 89
1.7203096 0.37478176 1.9869798 83
1.891463 0.41725782 1.9832203 60
2.2914593 0.50549293 1.9737986 67
2.8156073 0.62060279 1.9749157 63
3.5360441 0.77939403 1.9811436 23
4.4920087 0.98927939 1.9466994 10
5.992723 1.3186857 1.8924034 76
5.9824452 1.316424 1.2544495 74
5.9920897 1.3174499 0.64266193 80
2.0863357 0.45718953 1.9827838 38
2.5374606 0.55558157 1.9749495 71
3.147728 0.68919683 1.9783952 68
3.9736521 0.86930597 1.9678308 54
5.3153319 1.1618489 1.9817147 26
5.9977398 1.3099154 1.5713899 80
5.9848876 1.3060143 0.9455027 85
5.9890509 1.3058277 0.34094384 89
0.030649768 0.0061638709 1.9891979 82
0.3062633 0.065062806 1.9909451 105
0.42056337 0.09035141 2.0915227 83
0.59256577 0.12770805 1.9838723 86
0.79739267 0.17198394 1.9813049 91
1.0237236 0.22097616 1.9857829 89
1.2714568 0.27444485 1.9830275 84
1.5624658 0.33725432 1.9897208 78
0.12170879 0.024667419 1.9810979 88
0.21454911 0.042336926 1.993349 91
0.49536791 0.1057746 1.9863992 93
0.69278401 0.14816178 1.980762 89
0.90662891 0.19421478 1.9801195 95
1.1390302 0.2439923 1.975547 89
1.4054328 0.30105284 1.9773132 89
1.7216073 0.36877447 1.9869798 85
1.8929081 0.41065285 1.9832203 62
2.29321 0.49749118 1.9737986 67
2.8177564 0.6107707 1.9749157 64
3.5430727 0.76798469 1.9834617 19
4.5135579 0.97751832 1.9541916 41
5.9926014 1.2967446 1.8909943 75
5.9870038 1.2955333 1.2544495 73
5.9966516 1.2965255 0.64266193 81
2.087919 0.44990408 1.9827838 38
2.5393846 0.5467208 1.9749495 71
3.1501145 0.67820501 1.9783952 68
3.9766624 0.85543007 1.9678308 54
5.3147373 1.1422955 1.980072 25
5.9975228 1.287951 1.5702177 78
5.9845676 1.2840763 0.94481289 85
5.9935727 1.284914 0.34094384 87
0.030671097 0.0060568452 1.9891979 82
0.30648854 0.06399335 1.9909451 106
0.4208762 0.088882819 2.0915227 81
0.59300792 0.12563883 1.9838723 86
0.79798812 0.16919948 1.9813049 91
1.0244888 0.21740136 1.9857829 89
1.2724071 0.27000499 1.9830275 87
1.5636336 0.33179823 1.9897208 76
0.12179416 0.024242427 1.9810979 88
0.21469559 0.041587751 1.993349 93
0.49696517 0.10430308 1.9912384 93
0.69329697 0.14574262 1.980762 85
0.90730131 0.19104888 1.9801195 95
1.1398749 0.24001484 1.975547 91
1.4064752 0.29614514 1.9773132 89
1.7228842 0.36276272 1.9869798 83
1.89433 0.40404284 1.9832203 58
2.2949326 0.48948336 1.9737986 67
2.8198712 0.60093117 1.9749157 64
3.5543978 0.75745916 1.9880978 17
4.5169425 0.96175712 1.9541916 41
5.9923987 1.2748203 1.889585 75
5.9866848 1.2736049 1.2535168 72
5.9962702 1.2745501 0.64221573 83
2.0894766 0.44261312 1.9827838 37
2.5412774 0.5378533 1.9749495 71
3.1524627 0.66720492 1.9783952 68
3.9751844 0.84060478 1.9657328 54
5.3094521 1.1217842 1.9767867 25
5.9972272 1.266004 1.5690454 78
5.9841681 1.2621564 0.94412303 85
5.9931326 1.2629547 0.34074232 87
0.030692052 0.0059497468 1.9891979 82
0.30671006 0.062923118 1.9909451 106
0.42118391 0.087413147 2.0915227 81
0.59344286 0.12356808 1.9838723 84
0.79857391 0.16641295 1.9813049 88
1.0252414 0.21382388 1.9857829 87
1.2733418 0.26556182 1.9830275 87
1.5647821 0.32633808 1.9897208 78
0.12187804 0.023817139 1.9810979 88
0.21483943 0.04083807 1.993349 93
0.4973262 0.10256772 1.9912384 93
0.69380146 0.14332168 1.980762 85
0.90796262 0.18788064 1.9801195 95
1.1381519 0.23550606 1.9712811 91
1.4075004 0.29123381 1.9773132 89
1.7241399 0.35674649 1.9869798 85
1.8957287 0.39742795 1.9832203 56
2.296627 0.48146954 1.9737986 67
2.8219516 0.5910843 1.9749157 56
3.5656922 0.74686372 1.9927338 16
4.5293479 0.94788343 1.9579377 40
5.9921169 1.2529135 1.8881758 75
5.9862862 1.2516943 1.2525842 72
6.0006824 1.2536114 0.64221573 82
2.0910089 0.43531683 1.9827838 36
2.5431395 0.52897936 1.9749495 71
3.1547725 0.65619671 1.9783952 66
3.9780943 0.82672369 1.9657328 56
5.3087115 1.1022838 1.975144 25
6.0016098 1.2450621 1.5690454 78
5.9836879 1.2402549 0.94343323 85
5.9926119 1.2410138 0.34054077 87
0.030712634 0.0058425749 1.9891979 80
0.30692783 0.061852112 1.9909451 106
0.42148644 0.08594241 2.0915227 85
0.59387058 0.12149583 1.9838723 78
0.79914993 0.16362439 1.9813049 88
1.0259815 0.21024382 1.9857829 87
1.2742611 0.2611154 1.9830275 89
1.5659118 0.32087401 1.9897208 76
0.12196043 0.02339156 1.9810979 88
0.21498068 0.04008789 1.993349 95
0.49768123 0.10083111 1.9912384 95
0.69429755 0.14089897 1.980762 89
0.90861297 0.18471012 1.9801195 95
1.138967 0.23153174 1.9712811 91
1.4085084 0.28631899 1.9773132 89
1.7253747 0.35072598 1.9869798 85
1.8971045 0.39080819 1.9832203 46
2.2982938 0.47344989 1.9737986 67
2.8239977 0.58123022 1.9749157 56
3.5769565 0.73619884 1.9973699 15
4.532629 0.93206733 1.9579377 40
5.9964538 1.2319894 1.8881758 75
5.9858069 1.2298019 1.2516516 73
6.0001435 1.2316561 0.64176947 82
2.0961747 0.42876357 1.9861088 36
2.5449705 0.52009892 1.9749495 71
3.1570439 0.64518046 1.9783952 68
3.9809561 0.81283253 1.9657328 56
5.3032722 1.0818583 1.9718586 24
5.9963932 1.2221633 1.5667007 80
5.9831285 1.2183722 0.94274342 85
5.9920125 1.2190922 0.34033924 87
0.030732842 0.0057353321 1.9891979 80
0.30790412 0.060931016 1.9958843 107
0.42178389 0.084470622 2.0915227 85
0.59429109 0.11942209 1.9838723 80
0.79971623 0.16083385 1.9813049 88
1.0267092 0.20666119 1.9857829 89
1.2751647 0.2566658 1.9830275 87
1.5670222 0.31540599 1.9897208 76
0.12204134 0.022965696 1.9810979 88
0.2151193 0.039337225 1.993349 93
0.49803016 0.099093258 1.9912384 95
0.69478518 0.13847455 1.980762 89
0.90925211 0.18153733 1.9801195 95
1.1397684 0.22755459 1.9712811 91
1.4094992 0.28140062 1.9773132 87
1.7265884 0.34470114 1.9869798 83
1.8984571 0.38418368 1.9832203 44
2.2999325 0.46542448 1.9737986 67
2.8260095 0.57136917 1.9749157 64
3.5881889 0.72546428 2.0020061 12
4.5358548 0.91623986 1.9579377 40
5.9960151 1.2101014 1.8867666 76
5.9852481 1.2079284 1.250719 73
5.9995246 1.2097199 0.64132327 83
2.0976584 0.42144394 1.9861088 36
2.5428073 0.51041663 1.9720063 71
3.1592767 0.63415641 1.9783952 69
3.9837689 0.79893136 1.9657328 55
5.3023863 1.0624123 1.970216 23
6.0006227 1.2012246 1.5667007 80
5.9873447 1.1974798 0.94274342 85
5.9913316 1.1971897 0.34013772 88
0.030752677 0.0056280196 1.9891979 80
0.30811495 0.05985586 1.9958843 107
0.42207617 0.082997814 2.0915227 87
0.59470433 0.11734689 1.9838723 84
0.80027276 0.15804133 1.9813049 88
1.0274242 0.20307606 1.9857829 89
1.276053 0.25221309 1.9830275 84
1.5681137 0.30993414 1.9897208 78
0.12212076 0.022539552 1.9810979 86
0.21525531 0.03858608 1.993349 91
0.49837303 0.097354211 1.9912384 95
0.69526434 0.13604847 1.980762 91
0.91201729 0.17878123 1.9846202 95
1.1405557 0.22357468 1.9712811 91
1.4104729 0.27647883 1.9773132 89
1.7277811 0.33867216 1.9869798 83
1.9032845 0.37824965 1.986725 39
2.297725 0.45663455 1.9706609 67
2.8279867 0.56150103 1.9749157 64
3.6037357 0.71552312 2.0089602 12
4.5390258 0.90040118 1.9579377 40
5.9954972 1.1882313 1.8853575 78
5.9846096 1.1860735 1.2497864 71
5.998826 1.187803 0.64087707 83
2.099117 0.41411915 1.9861088 37
2.5445735 0.50153744 1.9720063 71
3.1614711 0.62312466 1.9783952 69
3.9865336 0.78502065 1.9657328 55
5.3014288 1.0429852 1.9685733 22
6.00001 1.1793338 1.5655285 79
5.9866295 1.1756185 0.94205362 85
5.9954748 1.1762687 0.34013772 88
0.030772133 0.0055206385 1.9891979 80
0.30832198 0.05877997 1.9958843 106
0.42236334 0.081523977 2.0915227 87
0.59511036 0.11527027 1.9838723 84
0.80081958 0.1552469 1.9813049 88
1.028127 0.19948843 1.9857829 87
1.2769256 0.24775729 1.9830275 87
1.569186 0.3044585 1.9897208 78
0.12219869 0.022113133 1.9810979 88
0.21538869 0.037834462 1.993349 93
0.4987098 0.095613971 1.9912384 93
0.6974296 0.13394614 1.9854547 91
0.91263574 0.17559661 1.9846202 95
1.1413292 0.21959203 1.9712811 89
1.4114294 0.27155367 1.9773132 89
1.7289528 0.33263898 1.9869798 83
1.9045932 0.37160361 1.986725 38
2.299305 0.44861126 1.9706609 67
2.8299296 0.55162615 1.9749157 64
3.6192565 0.70548218 2.0159142 16
4.5421405 0.88455147 1.9579377 38
5.9948988 1.1663797 1.8839482 77
5.9838915 1.1642381 1.2488538 72
6.0029354 1.1668558 0.64087707 82
2.1005497 0.40678936 1.9861088 37
2.5463085 0.49265221 1.9720063 73
3.159394 0.61126626 1.9758627 69
3.9892495 0.77110028 1.9657328 54
5.3004003 1.023578 1.9669306 21
5.9993181 1.1574619 1.5643561 79
5.9858336 1.1537769 0.94136375 81
5.9946384 1.1543888 0.3399362 88
0.030791216 0.00541319 1.9891979 80
0.30852532 0.057703368 1.9958843 107
0.4226453 0.080049165 2.0915227 85
0.59404176 0.11291341 1.9791006 84
0.80135661 0.15245056 1.9813049 91
1.0288169 0.19589838 1.9857829 87
1.2777824 0.24329849 1.9830275 87
1.5702391 0.29897919 1.9897208 76
0.12227514 0.021686444 1.9810979 89
0.21551944 0.037082385 1.993349 93
0.49904054 0.093872562 1.9912384 95
0.69789284 0.13151084 1.9854547 91
0.91324311 0.17240983 1.9846202 96
1.1420888 0.21560669 1.9712811 89
1.4123688 0.2666252 1.9773132 89
1.7301034 0.3266018 1.9869798 83
1.9093812 0.36562377 1.9902295 38
2.3008568 0.44058242 1.9706609 67
2.8318379 0.54174441 1.9749157 64
3.6347508 0.69534153 2.0228682 15
4.5452008 0.86869109 1.9579377 38
5.9942217 1.1445466 1.882539 77
5.9879193 1.1433433 1.2488538 76
6.0020795 1.1449614 0.64043087 81
2.1019568 0.39945459 1.9861088 38
2.5480127 0.48376092 1.9720063 73
3.1615086 0.60023421 1.9758627 69
3.9919169 0.75717044 1.9657328 54
5.3039408 1.00507 1.9669306 21
5.9985452 1.1356091 1.5631838 80
5.9898248 1.1328753 0.94136375 81
5.9986315 1.1334566 0.3399362 89
0.030809924 0.0053056758 1.9891979 80
0.30872485 0.056626063 1.9958843 107
0.42292216 0.078573361 2.0915227 89
0.59443223 0.11083913 1.9791006 82
0.80188382 0.14965238 1.9813049 91
1.0294945 0.19230597 1.9857829 87
1.2786242 0.23883671 1.9830275 87
1.5712733 0.29349622 1.9897208 76
0.12235009 0.021259494 1.9810979 88
0.21564758 0.036329858 1.993349 91
0.49936515 0.092130013 1.9912384 91
0.69834775 0.12907395 1.9854547 91
0.91383946 0.16922098 1.9846202 96
1.1428343 0.21161875 1.9712811 89
1.4132907 0.26169351 1.9773132 91
1.7312329 0.3205606 1.9869798 83
1.910646 0.35895655 1.9902295 37
2.3023808 0.43254825 1.9706609 67
2.8337116 0.53185624 1.9749157 64
3.6458642 0.68428409 2.0275044 15
4.5436492 0.85196573 1.9560646 39
5.9981804 1.123616 1.882539 78
5.9870453 1.1215301 1.2479211 76
6.0011444 1.1230872 0.63998467 81
2.1033385 0.39211497 1.9861088 38
2.549686 0.47486377 1.9720063 73
3.1635847 0.58919483 1.9758627 69
3.9945357 0.74323148 1.9657328 57
5.3027744 0.98568666 1.9652878 22
5.9976935 1.1137758 1.5620115 78
5.9888735 1.1110566 0.94067395 85
5.9976387 1.1116 0.33973464 89
0.030828256 0.0051980969 1.9891979 80
0.30892062 0.055548068 1.9958843 107
0.42319384 0.077096619 2.0915227 87
0.59481549 0.10876349 1.9791006 80
0.80432308 0.14720403 1.9859076 91
1.0301596 0.18871118 1.9857829 87
1.2794499 0.234372 1.9830275 80
1.5722882 0.28800964 1.9897208 76
0.12242355 0.020832283 1.9810979 88
0.2163 0.035663079 1.9983203 91
0.49968371 0.090386339 1.9912384 89
0.69879401 0.12663546 1.9854547 89
0.91442454 0.16603003 1.9846202 95
1.1435661 0.20762822 1.9712811 89
1.4141957 0.2567586 1.9773132 89
1.7323413 0.31451553 1.9869798 83
1.9118872 0.35228497 1.9902295 36
2.3038764 0.42450881 1.9706609 67
2.8355508 0.52196145 1.9749157 64
3.6613019 0.67395955 2.0344584 15
4.5465951 0.83610028 1.9560646 39
5.9973478 1.1018047 1.8811299 77
5.9909239 1.1006246 1.2479211 75
6.0050287 1.1021324 0.63998467 82
2.1046944 0.38477057 1.9861088 39
2.5513279 0.4659608 1.9720063 73
3.165622 0.57814831 1.9758627 69
3.9971056 0.72928333 1.9657328 55
5.3061824 0.96717054 1.9652878 22
6.0015445 1.0928333 1.5620115 78
5.9878426 1.0892584 0.93998414 86
6.001482 1.0906577 0.33973464 89
0.030846214 0.0050904546 1.9891979 82
0.30911264 0.054469395 1.9958843 107
0.42346039 0.075618915 2.0915227 87
0.59519154 0.10668654 1.9791006 80
0.80483204 0.14439553 1.9859076 90
1.030812 0.1851141 1.9857829 89
1.2802603 0.22990447 1.9830275 80
1.573284 0.28251958 1.9897208 76
0.12249553 0.020404816 1.9810979 88
0.21642315 0.034907833 1.9983203 89
0.49999616 0.088641569 1.9912384 89
0.6992318 0.12419544 1.9854547 89
0.91499853 0.1628371 1.9846202 95
1.1442839 0.20363517 1.9712811 91
1.4150833 0.25182056 1.9773132 89
1.7334286 0.30846658 1.9869798 83
1.9131054 0.3456091 1.9902295 36
2.3091753 0.41715625 1.9737986 69
2.8373556 0.51206034 1.9749157 64
3.6723514 0.66274869 2.0390942 16
4.5494862 0.82022458 1.9560646 40
5.9964361 1.080013 1.8797207 77
5.9898949 1.078835 1.2469885 73
6.0039377 1.0802823 0.63953841 80
2.1060245 0.3774215 1.9861088 40
2.5529387 0.45705217 1.9720063 71
3.1676207 0.56709468 1.9758627 69
3.9996269 0.71532643 1.9657328 56
5.3048778 0.94781208 1.9636453 23
6.0005379 1.0710233 1.5608391 79
5.9916081 1.0683504 0.93998414 84
6.0003347 1.0688258 0.33953312 89
0.030863795 0.0049827499 1.9891979 80
0.3093009 0.05339006 1.9958843 107
0.42372179 0.07414031 2.0915227 91
0.59703141 0.10486661 1.9838723 80
0.80533117 0.14158526 1.9859076 90
1.0290923 0.18109955 1.9813942 87
1.281055 0.22543414 1.9830275 84
1.5774177 0.27758166 1.9935577 71
0.12256601 0.019977104 1.9810979 89
0.2165437 0.034152165 1.9983203 88
0.50030249 0.086895719 1.9912384 91
0.69966108 0.12175391 1.9854547 89
0.91341609 0.15926814 1.9801195 95
1.1424184 0.19919167 1.967015 89
1.4159538 0.24687947 1.9773132 89
1.7344948 0.30241394 1.9869798 81
1.9143001 0.33892897 1.9902295 35
2.3106172 0.4090932 1.9737986 69
2.8432434 0.50288135 1.9776572 66
3.6790049 0.65069735 2.0414124 16
4.5523214 0.80433893 1.9560646 39
5.9954448 1.0582411 1.8783115 79
5.9887867 1.057066 1.2460558 73
6.0076718 1.0593181 0.63953841 80
2.1073291 0.37006775 1.9861088 44
2.5545187 0.448138 1.9720063 71
3.1695809 0.55603421 1.9758627 69
4.0020995 0.70136076 1.9657328 56
5.3081541 0.92928886 1.9636453 24
5.9994526 1.0492337 1.5596669 80
5.9904232 1.0465772 0.93929434 84
6.0040293 1.0478743 0.33953312 89
0.030880999 0.0048749847 1.9891979 80
0.30948538 0.052310072 1.9958843 107
0.423978 0.072660796 2.0915227 93
0.59739381 0.10278194 1.9838723 84
0.80582052 0.13877328 1.9859076 91
1.0297182 0.17750625 1.9813942 89
1.2790611 0.22048306 1.9788946 87
1.5783771 0.27207375 1.9935577 73
0.12263499 0.019549148 1.9810979 89
0.21666159 0.033396076 1.9983203 88
0.50060284 0.085148804 1.9912384 93
0.70008177 0.1193109 1.9854547 91
0.91396648 0.15607874 1.9801195 95
1.1431068 0.19520268 1.967015 91
1.4168069 0.24193536 1.9773132 89
1.7355398 0.29635757 1.9869798 83
1.9154714 0.33224478 1.9902295 35
2.3120313 0.40102515 1.9737986 67
2.8449814 0.49295345 1.9776572 64
3.6899843 0.639364 2.0460486 17
4.5505333 0.78765273 1.9541916 39
5.9991021 1.0373067 1.8783115 75
5.9875998 1.0353178 1.2451233 74
6.0064259 1.0374933 0.63909227 81
2.1049275 0.36207643 1.9827838 52
2.5560675 0.43921831 1.9720063 73
3.1715026 0.54496694 1.9758627 68
4.0045233 0.68738657 1.9657328 55
5.3067107 0.9099561 1.9620026 22
5.9982877 1.0274646 1.5584946 81
5.9940405 1.0256603 0.93929434 85
6.0027261 1.0260682 0.3393316 87
0.030897828 0.0047671604 1.9891979 78
0.30966607 0.051229447 1.9958843 107
0.42422906 0.071180388 2.0915227 93
0.59774899 0.10069603 1.9838723 84
0.80630004 0.1359596 1.9859076 91
1.0303315 0.17391078 1.9813942 89
1.2798229 0.21601696 1.9788946 87
1.5793172 0.26656255 1.9935577 76
0.12270249 0.01912095 1.9810979 88
0.21677685 0.032639582 1.9983203 89
0.50089699 0.08340086 1.9912384 95
0.70049399 0.11686643 1.9854547 91
0.91450566 0.15288746 1.9801195 95
1.1437812 0.19121131 1.967015 91
1.4206156 0.23748526 1.9813027 89
1.7365637 0.2902976 1.9869798 85
1.9166197 0.32555652 1.9902295 37
2.3095789 0.39230031 1.9706609 67
2.8466849 0.48301965 1.9776572 64
3.6965611 0.62722069 2.0483663 17
4.5532546 0.77176362 1.9541916 39
5.9979568 1.0155587 1.8769022 75
5.9814911 1.0127708 1.243258 73
6.0100112 1.0165207 0.63909227 83
2.1061785 0.3547267 1.9827838 56
2.557585 0.43029329 1.9720063 73
3.1733854 0.53389293 1.9758627 69
4.0068984 0.67340404 1.9657328 55
5.309855 0.89142662 1.9620026 22
6.0018377 1.0065205 1.5584946 81
5.9926996 1.0039127 0.93860453 85
6.0013433 1.0042838 0.33913007 87
0.030914281 0.0046592779 1.9891979 80
0.30984303 0.0501482 1.9958843 107
0.42447492 0.069699116 2.0915227 95
0.59809685 0.098608874 1.9838723 84
0.80676967 0.13314424 1.9859076 91
1.0309322 0.17031319 1.9813942 87
1.2805691 0.21154821 1.9788946 87
1.5770751 0.26052555 1.9897208 76
0.12276848 0.018692525 1.9810979 88
0.21688946 0.031882692 1.9983203 91
0.50118506 0.081651889 1.9912384 95
0.70089763 0.11442053 1.9854547 89
0.91503382 0.14969431 1.9801195 95
1.1470156 0.18763864 1.9712811 89
1.421436 0.23252493 1.9813027 89
1.7375665 0.28423411 1.9869798 83
1.9177443 0.31886429 1.9902295 37
2.3109343 0.38423598 1.9706609 58
2.8483536 0.47307992 1.9776572 64
3.7030985 0.61503941 2.0506845 17
4.5559211 0.75586504 1.9541916 39
6.0014644 0.99461573 1.8769022 75
5.9995275 0.9942947 1.2460558 73
6.0135226 0.99553567 0.63909227 80
2.107404 0.34737259 1.9827838 64
2.5590715 0.42136306 1.9720063 71
3.1794841 0.52351296 1.9783952 69
4.0092244 0.65941322 1.9657328 55
5.3129344 0.87288642 1.9620026 25
6.0053144 0.98556399 1.5584946 80
5.9961672 0.98298806 0.93860453 81
5.9998817 0.98252171 0.33892852 87
0.030930355 0.0045513385 1.9891979 80
0.31001619 0.049066342 1.9958843 106
0.42471564 0.068216994 2.0915227 95
0.59843743 0.096520528 1.9838723 86
0.80530083 0.13001592 1.9813049 91
1.0315204 0.16671354 1.9813942 87
1.2812998 0.20707691 1.9788946 84
1.5779749 0.25501898 1.9897208 74
0.12283298 0.018263869 1.9810979 88
0.21699943 0.031125411 1.9983203 91
0.50146705 0.079901934 1.9912384 91
0.70129281 0.11197326 1.9854547 89
0.91555077 0.14649934 1.9801195 95
1.1476635 0.18363366 1.9712811 89
1.4222389 0.2275618 1.9813027 91
1.738548 0.27816713 1.9869798 83
1.9188455 0.31216812 1.9902295 37
2.3122613 0.37616694 1.9706609 54
2.8499877 0.46313441 1.9776572 64
3.7052228 0.60210943 2.0506845 18
4.563108 0.74070019 1.9560646 39
6.0049005 0.97366065 1.8769022 77
6.0078111 0.9741326 1.2469885 67
6.0120449 0.97374231 0.63864601 78
2.108604 0.34001425 1.9827838 66
2.5605268 0.41242766 1.9720063 71
3.1812918 0.5124113 1.9783952 70
4.0159822 0.64613527 1.9678308 56
5.315949 0.85433549 1.9620026 26
6.008718 0.9645955 1.5584946 80
6.0044522 0.96283573 0.93929434 81
6.0032744 0.96157223 0.33892852 87
0.030989327 0.004448941 1.9941976 82
0.31018558 0.047983881 1.9958843 107
0.42495117 0.066734053 2.0915227 95
0.59877068 0.094431005 1.9838723 86
0.80767953 0.12750871 1.9859076 90
1.0320961 0.16311185 1.9813942 85
1.2847942 0.20304231 1.9830275 84
1.5788555 0.24950926 1.9897208 76
0.12289599 0.017834989 1.9810979 88
0.21710674 0.030367753 1.9983203 91
0.50174284 0.078150995 1.9912384 93
0.70167935 0.1095246 1.9854547 91
0.918208 0.14363912 1.9846202 95
1.1482975 0.17962645 1.9712811 91
1.4230245 0.22259587 1.9813027 89
1.7395085 0.27209678 1.9869798 81
1.9199235 0.30546823 1.9902295 36
2.3097157 0.36748171 1.9675231 52
2.8515868 0.45318326 1.9776572 61
3.7073023 0.58917207 2.0506845 20
4.5656657 0.72476745 1.9560646 39
6.0035243 0.95194244 1.875493 75
6.0645423 0.96161771 1.2572473 63
6.0350819 0.95586652 0.64043087 53
2.1097779 0.33265179 1.9827838 67
2.5619509 0.40348721 1.9720063 71
3.1830611 0.50130343 1.9783952 69
4.0182133 0.63211292 1.9678308 55
5.3188987 0.83577412 1.9620026 27
6.007247 0.94286162 1.5573221 80
6.0371299 0.94647241 0.94343323 80
6.0460811 0.94679445 0.34054077 76
0.031004667 0.0043407409 1.9941976 80
0.30958289 0.046784915 1.9909451 108
0.42518151 0.065250285 2.0915227 96
0.59909666 0.092340328 1.9838723 84
0.80811971 0.12468863 1.9859076 91
1.035027 0.15987386 1.9857829 87
1.2854952 0.19855629 1.9830275 87
1.5797168 0.24399649 1.9897208 74
0.1229575 0.017405896 1.9810979 88
0.21668231 0.029538279 1.993349 91
0.50201261 0.07639911 1.9912384 88
0.70205742 0.10707461 1.9854547 91
0.91870385 0.14043309 1.9846202 95
1.1489176 0.17561705 1.9712811 93
1.423793 0.21762723 1.9813027 89
1.7404478 0.2660231 1.9869798 81
1.9209782 0.29876462 1.9902295 36
2.3109846 0.35941708 1.9675231 52
2.8531513 0.44322664 1.9776572 61
3.709336 0.57622761 2.0506845 22
4.5681682 0.70882589 1.9560646 39
6.0068102 0.93098032 1.875493 75
6.0824251 0.94269961 1.2600452 24
6.0629892 0.93860382 0.64266193 52
2.1109262 0.32528526 1.9827838 69
2.5633438 0.39454192 1.9720063 71
3.1847916 0.49018937 1.9783952 69
4.0203953 0.61808288 1.9678308 55
5.3264513 0.81791937 1.9636453 28
6.0105014 0.92188668 1.5573221 78
6.059978 0.92839283 0.94619244 84
6.0691032 0.92870677 0.34134689 75
0.031019632 0.0042324876 1.9941976 80
0.3097443 0.045703985 1.9909451 108
0.42540672 0.063765727 2.0915227 96
0.59793836 0.090026215 1.9791006 82
0.80855 0.121867 1.9859076 89
1.0355787 0.15625997 1.9857829 89
1.2861804 0.19406787 1.9830275 84
1.580559 0.23848076 1.9897208 74
0.1230175 0.016976586 1.9810979 88
0.21678409 0.028781734 1.993349 91
0.50227624 0.074646302 1.9912384 88
0.70242691 0.10462333 1.9854547 93
0.9191885 0.13722536 1.9846202 96
1.1495236 0.17160551 1.9712811 91
1.4215628 0.21221095 1.9773132 89
1.7413657 0.25994617 1.9869798 83
1.9220093 0.29205731 1.9902295 35
2.3122251 0.35134804 1.9675231 50
2.854681 0.43326455 1.9776572 58
3.7113249 0.56327611 2.0506845 24
4.5751977 0.69357049 1.9579377 39
6.0052805 0.90928888 1.874084 75
nan nan nan 0
6.0810008 0.91966832 0.64400053 73
2.1120486 0.31791478 1.9827838 73
2.5647051 0.38559175 1.9720063 69
3.1864834 0.47906938 1.9783952 69
4.0225282 0.60404533 1.9678308 55
5.3292742 0.79932171 1.9636453 28
6.0136828 0.90090048 1.5573221 78
6.0925674 0.91163093 0.95033139 82
6.1068954 0.91268516 0.34275761 80
0.030990887 0.0041190395 1.9891979 82
0.30990195 0.044622496 1.9909451 108
0.4256267 0.062280394 2.0915227 97
0.59824902 0.08793848 1.9791006 78
0.80897045 0.1190439 1.9859076 91
1.0361179 0.15264417 1.9857829 89
1.28685 0.18957709 1.9830275 84
1.5813817 0.23296213 1.9897208 74
0.12307601 0.016547073 1.9810979 88
0.21741286 0.028092593 1.9983203 91
0.50253373 0.072892569 1.9912384 93
0.70278782 0.10217075 1.9854547 91
0.91966188 0.13401596 1.9846202 96
1.1501155 0.16759187 1.9712811 89
1.422295 0.20724748 1.9773132 87
1.7422625 0.25386611 1.9869798 83
1.923017 0.28534648 1.9902295 34
2.3134375 0.34327471 1.9675231 50
2.8561761 0.4232972 1.9776572 58
3.7132685 0.5503177 2.0506845 24
4.5775909 0.67759585 1.9579377 39
6.0084181 0.88832098 1.874084 77
3.1148872 0.46052507 0.68928164 33
6.1137338 0.90280116 0.64667779 77
2.1131454 0.31054044 1.9827838 75
2.5660355 0.37663689 1.9720063 66
3.1838708 0.46731746 1.9758627 69
4.0201225 0.58934218 1.9657328 56
5.3320317 0.78071415 1.9636453 30
6.0167909 0.87990338 1.5573221 80
6.0957127 0.89035839 0.95033139 82
6.1100445 0.89136249 0.34275761 83
0.031005077 0.0040108361 1.9891979 80
0.31082529 0.04364834 1.9958843 110
0.42584151 0.060794301 2.0915227 97
0.60003078 0.086061656 1.9838723 78
0.80938107 0.11621934 1.9859076 91
1.0366445 0.14902651 1.9857829 87
1.287504 0.18508397 1.9830275 84
1.5821854 0.22744067 1.9897208 76
0.12313303 0.016117355 1.9810979 88
0.2175096 0.027333509 1.9983203 91
0.50278515 0.071137957 1.9912384 93
0.7031402 0.099716954 1.9854547 91
0.92012405 0.13080493 1.9846202 95
1.1506935 0.1635762 1.9712811 89
1.4230096 0.20228148 1.9773132 89
1.743138 0.24778293 1.9869798 83
1.9240015 0.27863213 1.9902295 34
2.3146217 0.33519721 1.9675231 56
2.8576365 0.41332471 1.9776572 64
3.7151668 0.53735262 2.0506845 24
4.5799284 0.66161299 1.9579377 39
6.0067339 0.86665726 1.8726747 78
3.1213377 0.45035082 0.69021428 26
6.116848 0.88145471 0.64667779 77
2.1142168 0.30316228 1.9827838 75
2.5673347 0.36767745 1.9720063 54
3.1854825 0.45620084 1.9758627 69
4.0221548 0.5753057 1.9657328 54
5.3347244 0.76209712 1.9636453 29
6.0150137 0.85820889 1.5561498 79
6.0987835 0.86907488 0.95033139 81
6.1131182 0.87002903 0.34275761 83
0.03101889 0.0039025838 1.9891979 78
0.31097576 0.042563092 1.9958843 110
0.42605111 0.059307467 2.0915227 96
0.59884834 0.083759807 1.9791006 82
0.80978185 0.11339335 1.9859076 91
1.0371584 0.14540705 1.9857829 87
1.2881422 0.18058863 1.9830275 87
1.5829697 0.22191642 1.9897208 76
0.12318853 0.015687441 1.9810979 88
0.21760368 0.02657409 1.9983203 89
0.50303036 0.069382474 1.9912384 91
0.703484 0.097261928 1.9854547 91
0.92057502 0.12759228 1.9846202 95
1.1512576 0.15955853 1.9712811 89
1.4237071 0.19731303 1.9773132 91
1.7439923 0.24169673 1.9869798 83
1.9249624 0.27191442 1.9902295 35
2.3196323 0.32766011 1.9706609 56
2.8590617 0.40334719 1.9776572 64
3.71702 0.52438098 2.0506845 24
4.5822096 0.64562201 1.9579377 39
6.004972 0.84501594 1.8712655 77
3.1228909 0.43945253 0.69021428 26
6.1149559 0.85940439 0.64623159 77
2.115262 0.29578042 1.9827838 75
2.5686023 0.35871357 1.9720063 54
3.1870556 0.4450787 1.9758627 69
4.0241385 0.56126225 1.9657328 54
5.3420291 0.74412227 1.9652878 31
6.0179729 0.83720738 1.5561498 79
6.1115899 0.84914392 0.951711 79
6.1111693 0.84799826 0.34255609 83
0.031032322 0.0037942841 1.9891979 80
0.31112242 0.041477323 1.9958843 110
0.42625552 0.057819907 2.0915227 97
0.60061699 0.081870586 1.9838723 82
0.80823696 0.11030187 1.9813049 91
1.0376595 0.14178582 1.9857829 87
1.2887647 0.17609109 1.9830275 87
1.5837346 0.21638949 1.9897208 76
0.12324254 0.015257339 1.9810979 88
0.21769512 0.025814351 1.9983203 91
0.50326949 0.067626148 1.9912384 91
0.70210904 0.094575398 1.980762 89
0.92101485 0.12437811 1.9846202 95
1.154392 0.1558879 1.975547 89
1.4273741 0.19274548 1.9813027 89
1.7448254 0.23560758 1.9869798 83
1.9258997 0.2651934 1.9902295 35
2.3207619 0.31956109 1.9706609 66
2.8604522 0.39336476 1.9776572 61
3.718828 0.51140302 2.0506845 24
4.5844355 0.62962312 1.9579377 38
6.0078855 0.82404959 1.8712655 77
3.1341393 0.42988396 0.69207948 29
6.1179185 0.838054 0.64623159 76
2.1125817 0.28789076 1.979459 77
2.569839 0.34974527 1.9720063 56
3.1885896 0.43395108 1.9758627 69
4.026073 0.547212 1.9657328 56
5.3445945 0.7254706 1.9652878 33
6.0160418 0.81554264 1.5549775 79
6.1145167 0.82780528 0.951711 79
6.1091413 0.82599175 0.34235457 84
0.031045377 0.0036859377 1.9891979 80
0.31126532 0.040391047 1.9958843 109
0.42645478 0.056331649 2.0915227 97
0.6008991 0.079773545 1.9838723 86
0.81055373 0.1077373 1.9859076 90
1.038148 0.13816282 1.9857829 87
1.2893715 0.17159137 1.9830275 84
1.5844803 0.21085989 1.9897208 74
0.12329505 0.014827049 1.9810979 88
0.21725339 0.024993947 1.993349 93
0.50350249 0.065869004 1.9912384 93
0.7024349 0.092124008 1.980762 89
0.9214434 0.12116241 1.9846202 95
1.1549292 0.15185736 1.975547 89
1.4280384 0.18776183 1.9813027 89
1.7456371 0.22951557 1.9869798 83
1.9303485 0.25894326 1.9937341 37
2.3218632 0.31145817 1.9706609 67
2.8618078 0.38337749 1.9776572 56
3.7161989 0.49783048 2.0483663 26
4.5866055 0.61361665 1.9579377 38
6.00597 0.8024379 1.8698562 78
3.1307516 0.41829064 0.69114685 39
6.1208062 0.81669337 0.64623159 76
2.1135738 0.28051478 1.979459 75
2.5750513 0.34130386 1.9749495 54
3.1900849 0.42281818 1.9758627 68
4.0279589 0.53315508 1.9657328 56
5.3470936 0.70681006 1.9652878 33
6.0140333 0.79390168 1.5538052 79
6.1222792 0.80710387 0.9524008 69
6.1119871 0.80466187 0.34235457 84
0.031058056 0.0035775467 1.9891979 80
0.31140441 0.039304286 1.9958843 109
0.4266488 0.054842699 2.0915227 97
0.60117382 0.077675529 1.9838723 84
0.81092489 0.10490728 1.9859076 89
1.0386242 0.13453817 1.9857829 89
1.2899625 0.16708958 1.9830275 84
1.5852066 0.20532773 1.9897208 74
0.12334606 0.014396578 1.9810979 88
0.21733931 0.024235439 1.993349 93
0.50372934 0.064111046 1.9912384 91
0.70275217 0.089671493 1.980762 89
0.92186075 0.11794523 1.9846202 95
1.1554523 0.147825 1.975547 91
1.4286849 0.18277591 1.9813027 91
1.7464277 0.22342075 1.9869798 83
1.9312406 0.25220355 1.9937341 37
2.3229361 0.30335146 1.9706609 67
2.8631287 0.37338561 1.9776572 42
3.7179139 0.4848555 2.0483663 27
4.5887198 0.59760267 1.9579377 39
6.0087347 0.78146821 1.8698562 79
3.1321929 0.40735969 0.69114685 73
6.118681 0.79468137 0.64578539 75
2.1145399 0.2731353 1.979459 77
2.5802357 0.33283025 1.9778926 39
3.1958172 0.41223165 1.9783952 68
4.034296 0.51967138 1.9678308 57
5.3495288 0.68814087 1.9652878 35
6.0119472 0.77228475 1.5526329 79
nan nan nan 0
6.1098037 0.78268737 0.34215304 82
0.031070355 0.0034691119 1.9891979 80
0.31153971 0.038217038 1.9958843 109
0.42683765 0.053353082 2.0915227 97
0.59995943 0.075390406 1.9791006 84
0.81128615 0.10207599 1.9859076 89
1.0390874 0.13091189 1.9857829 89
1.290538 0.16258575 1.9830275 78
1.5859137 0.1997931 1.9897208 78
0.12339555 0.013965933 1.9810979 89
0.21742259 0.023476636 1.993349 91
0.50395006 0.062352311 1.9912384 91
0.70306093 0.087217882 1.980762 89
0.92226684 0.11472662 1.9846202 96
1.1559612 0.14379081 1.975547 91
1.4293144 0.17778774 1.9813027 89
1.7471969 0.21732323 1.9869798 83
1.9356469 0.24591012 1.9972385 37
2.323981 0.29524103 1.9706609 67
2.8685627 0.36391538 1.9803987 42
3.719584 0.47187459 2.0483663 27
4.5861783 0.58099878 1.9560646 39
6.0066667 0.75988698 1.8684472 78
3.1335955 0.39642385 0.69114685 82
6.121418 0.77331835 0.64578539 76
2.1154807 0.26575249 1.979459 75
2.5853922 0.32432458 1.9808358 34
3.1972368 0.40107366 1.9783952 68
4.0360856 0.50558585 1.9678308 56
5.3518982 0.6694634 1.9652878 36
6.014606 0.75129437 1.5526329 79
3.1596444 0.39411756 0.53575212 21
6.1124988 0.7613554 0.34215304 82
0.031082273 0.0033606351 1.9891979 78
0.31167123 0.037129331 1.9958843 110
0.42702129 0.051862817 2.0915227 97
0.60021895 0.073295705 1.9791006 86
0.81163746 0.099243447 1.9859076 93
1.039538 0.12728399 1.9857829 89
1.2910978 0.15807994 1.9830275 78
1.5866016 0.19425601 1.9897208 78
0.12344356 0.013535117 1.9810979 88
0.21750322 0.022717547 1.993349 91
0.5041647 0.060592819 1.9912384 91
0.70336109 0.084763207 1.980762 89
0.92266172 0.1115066 1.9846202 96
1.153867 0.13944201 1.9712811 91
1.4299262 0.17279743 1.9813027 87
1.747945 0.21122305 1.9869798 83
1.9364935 0.23915197 1.9972385 37
2.328861 0.28760418 1.9737986 69
2.8698156 0.35390002 1.9803987 45
3.7212083 0.45888796 2.0483663 28
4.5881786 0.56498653 1.9560646 38
6.0092826 0.73891521 1.8684472 78
3.1349602 0.38548315 0.69114685 82
6.1191368 0.75133902 0.64533913 76
2.1163952 0.2583665 1.979459 75
2.5905211 0.31578705 1.9837791 34
3.1986175 0.38991079 1.9783952 68
4.0378261 0.49149424 1.9678308 56
5.3495145 0.65020794 1.9636453 36
6.022017 0.7308805 1.5538052 77
3.1462522 0.38129854 0.53368264 79
6.1101589 0.73941392 0.34195149 84
0.031093815 0.0032521172 1.9891979 78
0.31179893 0.03604117 1.9958843 110
0.42719972 0.050371923 2.0915227 98
0.60047108 0.071200095 1.9791006 86
0.81197894 0.096409701 1.9859076 90
1.039976 0.12365456 1.9857829 89
1.2888473 0.15324001 1.9788946 84
1.5872698 0.18871655 1.9897208 71
0.12349005 0.013104137 1.9810979 88
0.2175812 0.02195818 1.993349 93
0.50437307 0.058832586 1.9912384 91
0.70365268 0.082307503 1.980762 89
0.92304528 0.10828523 1.9846202 96
1.1543466 0.13541342 1.9712811 89
1.4305208 0.167805 1.9813027 89
1.7486715 0.2051203 1.9869798 83
1.9408575 0.23281564 2.0007432 37
2.3298507 0.27947319 1.9737986 69
2.875185 0.34437761 1.9831401 37
3.7227874 0.44589573 2.0483663 28
4.5901227 0.5489673 1.9560646 38
6.0118251 0.71793443 1.8684472 78
3.1362867 0.37453774 0.69114685 82
6.1217227 0.72997463 0.64533913 76
2.1172843 0.25097731 1.979459 75
2.5916076 0.30674249 1.9837791 35
3.199959 0.37874314 1.9783952 69
4.0395169 0.47739664 1.9678308 55
5.3517518 0.6315307 1.9636453 36
6.0100498 0.70814896 1.5502883 23
3.1377277 0.36915654 0.53230304 95
6.1127024 0.71808106 0.34195149 86
0.031104427 0.0031489888 1.9891979 80
0.31191674 0.035007011 1.9958843 110
0.42736441 0.048954997 2.0915227 98
0.60070395 0.069208473 1.9791006 84
0.81229424 0.093716547 1.9859076 90
1.0380002 0.11993023 1.9813942 85
1.2893484 0.14896518 1.9788946 84
1.5878869 0.18345194 1.9897208 73
0.12353061 0.012716116 1.9810979 88
0.21764909 0.02127452 1.993349 91
0.50455546 0.057247762 1.9912384 91
0.70562232 0.080291554 1.9854547 91
0.92339921 0.10522372 1.9846202 95
1.1547893 0.13158472 1.9712811 89
1.4310693 0.16306031 1.9813027 89
1.7493073 0.19962569 1.9869798 80
1.9416188 0.22637825 2.0007432 37
2.3307645 0.27174559 1.9737986 69
2.8763113 0.33484125 1.9831401 20
3.7242455 0.43354806 2.0483663 28
4.5918245 0.53454429 1.9560646 38
6.0092859 0.69849032 1.8670379 75
3.1375115 0.36413541 0.69114685 84
6.1191626 0.70909709 0.64489299 76
2.1181049 0.24395476 1.979459 75
2.5926104 0.29814672 1.9837791 35
3.201133 0.36868832 1.9783952 69
4.0409966 0.46470374 1.9678308 55
5.3537097 0.61471456 1.9636453 36
3.1438224 0.36041981 0.85393173 2
3.1437917 0.35986039 0.53299284 95
6.1099648 0.69830656 0.34174997 84
0.031115232 0.0030403947 1.9891979 78
0.31203702 0.033918004 1.9958843 111
0.4275327 0.047462918 2.0915227 98
0.60094184 0.067111202 1.9791006 84
0.81261641 0.090880543 1.9859076 90
1.0384126 0.11630621 1.9813942 87
1.2898606 0.14446363 1.9788946 84
1.5885177 0.17790806 1.9897208 76
0.12357639 0.012263269 1.9810979 88
0.21825725 0.020525973 1.9983203 93
0.50476187 0.055398092 1.9912384 93
0.70591187 0.077704787 1.9854547 91
0.92376089 0.1019998 1.9846202 95
1.1578337 0.12783913 1.975547 89
1.4316297 0.15806393 1.9813027 91
1.7500272 0.19321279 1.9869798 83
1.9459407 0.21999995 2.0042477 34
2.3316989 0.26360804 1.9737986 69
2.8816175 0.325268 1.9858816 20
3.7257364 0.42054537 2.0483663 28
4.5937529 0.51771086 1.9560646 38
6.0118055 0.67646044 1.8670379 75
3.1436448 0.3537305 0.69207948 84
6.1216006 0.68773288 0.64489299 76
2.1189437 0.2365597 1.979459 75
2.5936353 0.28909501 1.9837791 35
3.2024629 0.35695311 1.9783952 69
4.0426726 0.4498896 1.9678308 56
5.3559265 0.59508812 1.9636453 36
3.1499529 0.34943059 0.85510403 29
3.1450894 0.34833539 0.53299284 95
6.1124835 0.67590773 0.34174997 83
0.031125654 0.0029317639 1.9891979 78
0.31215352 0.032828584 1.9958843 111
0.42769575 0.045970261 2.0915227 98
0.60117251 0.065013111 1.9791006 84
0.81292874 0.088043429 1.9859076 91
1.0388123 0.11268076 1.9813942 89
1.2903569 0.13996029 1.9788946 87
1.589129 0.17236201 1.9897208 76
0.12361844 0.011831832 1.9810979 88
0.21832757 0.019763988 1.9983203 93
0.50495219 0.053635806 1.9912384 95
0.70617878 0.075240217 1.9854547 91
0.92411137 0.098774664 1.9846202 95
1.158273 0.12379677 1.975547 89
1.4321727 0.15306567 1.9813027 91
1.7506911 0.1871029 1.9869798 81
1.950242 0.21359426 2.0077524 32
2.3326051 0.2554673 1.9737986 69
2.8827355 0.3152073 1.9858816 21
3.7271817 0.40753758 2.0483663 29
4.5955319 0.50167251 1.9560646 38
6.0093613 0.65495139 1.8656287 79
3.1448605 0.34275496 0.69207948 82
6.1239643 0.66636032 0.64489299 76
2.1197565 0.22916175 1.979459 77
2.5946286 0.28003976 1.9837791 35
3.2036893 0.34577224 1.9783952 69
4.044219 0.43577531 1.9678308 56
5.3579712 0.57638878 1.9636453 36
3.1559865 0.33895212 0.85627633 24
3.1512103 0.33788282 0.53368264 96
6.1148057 0.65456706 0.34174997 82
0.031135701 0.0028230972 1.9891979 82
0.31226623 0.031738766 1.9958843 111
0.42785364 0.044477046 2.0915227 99
0.60288119 0.063069575 1.9838723 84
0.81323111 0.085205242 1.9859076 91
1.0391992 0.10905394 1.9813942 87
1.2908376 0.13545525 1.9788946 87
1.589721 0.16681387 1.9897208 76
0.12365898 0.011400252 1.9810979 88
0.21786325 0.018956156 1.993349 93
0.50513631 0.051872872 1.9912384 95
0.70643717 0.072774738 1.9854547 91
0.92445058 0.095548302 1.9846202 95
1.1586981 0.11975288 1.975547 89
1.4326984 0.14806551 1.9813027 89
1.7513335 0.18099071 1.9869798 80
1.9545221 0.20716122 2.0112567 32
2.3334825 0.24732341 1.9737986 69
2.8838181 0.30514276 1.9858816 21
3.7285814 0.39452478 2.0483663 28
4.5972557 0.4856281 1.9560646 38
6.0116105 0.63397092 1.8656287 79
3.150923 0.33229047 0.69301212 51
6.1213002 0.64445823 0.64444673 75
2.1205435 0.22176103 1.979459 75
2.5955906 0.27098113 1.9837791 35
3.2048769 0.33458722 1.9783952 69
4.0457149 0.42165574 1.9678308 55
5.3599505 0.55768245 1.9636453 37
3.1571505 0.32793358 0.85627633 24
3.1523705 0.32688099 0.53368264 96
6.1120834 0.63270396 0.34154844 82
0.031145364 0.002714396 1.9891979 80
0.3123751 0.030648559 1.9958843 111
0.42800626 0.042983286 2.0915227 100
