# .PCD v0.7 - Point Cloud Data file format
VERSION 0.7
FIELDS x y z intensity
SIZE 4 4 4 4
TYPE F F F F
COUNT 1 1 1 1
WIDTH 1351
HEIGHT 1
VIEWPOINT 0 0 0 1 0 0 0
POINTS 1351
DATA ascii
4.0612469 -0.22776741 1.9678308 13
5.3945212 -0.30348694 1.9685733 38
6.046865 -0.34124577 1.5514605 81
6.1307697 -0.3470543 0.94757211 81
6.1448379 -0.34892657 0.34195149 84
0.031180296 -0.0022783158 1.9891979 80
0.31327057 -0.019469943 1.9958843 107
0.42837438 -0.025639165 2.0866275 93
0.6051119 -0.035821103 1.9838723 84
0.81626123 -0.048190892 1.9859076 91
1.0454913 -0.061551414 1.9857829 87
1.2984905 -0.07645198 1.9830275 87
1.5988857 -0.094143488 1.9935577 74
0.12386669 -0.0088630971 1.9810979 88
0.21857789 -0.016770439 1.9983203 91
0.50559187 -0.030894989 1.9863992 93
0.70886749 -0.043087225 1.9854547 91
0.92985582 -0.056205403 1.9891212 96
1.1627473 -0.070289046 1.975547 91
1.4377042 -0.086916029 1.9813027 89
1.7574519 -0.10625117 1.9869798 81
1.9657518 -0.11368104 2.0147614 33
2.3465245 -0.13570553 1.9769365 69
2.899225 -0.16817851 1.988623 19
3.7209899 -0.21585156 2.0367765 25
4.6381688 -0.26986924 1.9654298 42
6.0442576 -0.352741 1.8684472 77
6.1445904 -0.35859641 1.2600452 67
6.1446137 -0.35967389 0.64444673 77
2.1321046 -0.12629175 1.9827838 79
2.609139 -0.15500626 1.9867221 35
3.2123194 -0.19084436 1.9758627 69
4.0740194 -0.24275231 1.974125 25
5.3934288 -0.32231551 1.9685733 38
6.0456371 -0.36235121 1.5514605 82
6.1295209 -0.36845258 0.94757211 81
6.1435819 -0.37037393 0.34195149 80
0.03117257 -0.002381701 1.9891979 80
0.31320432 -0.020508677 1.9958843 107
0.42828697 -0.027059566 2.0866275 93
0.60498977 -0.037827533 1.9838723 84
0.81609684 -0.050897446 1.9859076 91
1.0452813 -0.06501805 1.9857829 89
1.2982298 -0.080757506 1.9830275 87
1.5985647 -0.09944506 1.9935577 76
0.12383823 -0.0092521906 1.9810979 88
0.21852413 -0.017457036 1.9983203 93
0.50674754 -0.032563932 1.9912384 95
0.70872861 -0.04531398 1.9854547 91
0.92966431 -0.059288602 1.9891212 96
1.1625078 -0.074144468 1.975547 91
1.4374081 -0.091683157 1.9813027 89
1.7604926 -0.11198705 1.9906548 81
1.9618045 -0.11998136 2.0112567 34
2.3460617 -0.14348613 1.9769365 69
2.8986514 -0.17779176 1.988623 19
3.7202537 -0.22818962 2.0367765 28
4.6372981 -0.28443912 1.9654298 43
6.0431194 -0.37172782 1.8684472 77
6.1433673 -0.37897065 1.2600452 67
6.1483574 -0.38035569 0.64489299 76
2.1316741 -0.1333614 1.9827838 77
2.6086106 -0.16365762 1.9867221 34
3.207401 -0.20066601 1.9733303 66
4.0958848 -0.25697091 1.9846153 30
5.3923898 -0.33925787 1.9685733 38
6.0444689 -0.38134232 1.5514605 80
6.1283331 -0.3877072 0.94757211 81
6.1423879 -0.3896727 0.34195149 81
0.031163629 -0.002495938 1.9891979 80
0.31312704 -0.021656493 1.9958843 106
0.42818493 -0.028629133 2.0866275 93
0.60484701 -0.040044677 1.9838723 84
0.81590486 -0.053888254 1.9859076 91
1.0450361 -0.068848759 1.9857829 89
1.2979251 -0.085515216 1.9830275 87
1.5981895 -0.10530342 1.9935577 74
0.1238018 -0.0097276261 1.9810979 89
0.21845549 -0.018295979 1.9983203 91
0.5066188 -0.034509458 1.9912384 95
0.70854938 -0.048034966 1.9854547 91
0.92942983 -0.062857814 1.9891212 96
1.1622146 -0.078607619 1.975547 89
1.4370455 -0.09720172 1.9813027 89
1.760029 -0.1190532 1.9906548 81
1.9577928 -0.12694018 2.0077524 34
2.3455203 -0.15208392 1.9769365 69
2.8938074 -0.18814334 1.9858816 19
3.7193925 -0.24182349 2.0367765 29
4.631546 -0.30194134 1.9635568 43
6.0464344 -0.39524186 1.8698562 77
6.1418667 -0.40255663 1.2600452 67
6.146852 -0.40396082 0.64489299 75
2.1311464 -0.14154541 1.9827838 77
2.60393 -0.17340416 1.9837791 34
3.2065697 -0.21353969 1.9733303 40
4.09482 -0.27341074 1.9846153 35
5.3909841 -0.36090147 1.9685733 37
6.047739 -0.40592879 1.5526329 80
6.1317406 -0.41156706 0.94826198 80
6.1458316 -0.41359031 0.34215304 83
0.031155184 -0.0025992668 1.9891979 80
0.31305349 -0.02269474 1.9958843 106
0.42808765 -0.030048886 2.0866275 91
0.60471094 -0.042050201 1.9838723 86
0.81572169 -0.056593593 1.9859076 91
1.0448021 -0.072313845 1.9857829 87
1.2976344 -0.089818828 1.9830275 87
1.5978316 -0.11060264 1.9935577 76
0.12377062 -0.010116512 1.9810979 89
0.21839693 -0.018982187 1.9983203 93
0.50650787 -0.036100876 1.9912384 95
0.708395 -0.050260697 1.9854547 91
0.92922777 -0.065777384 1.9891212 95
1.1619619 -0.082258418 1.975547 89
1.4367331 -0.10171584 1.9813027 89
1.7596679 -0.12427478 1.9906548 83
1.9538029 -0.1331892 2.0042477 36
2.3450029 -0.15986112 1.9769365 69
2.8931677 -0.19773854 1.9858816 19
3.7229893 -0.25445819 2.0390942 30
4.6305747 -0.31649026 1.9635568 42
6.0451627 -0.41423526 1.8698562 77
6.1405721 -0.42184985 1.2600452 67
6.1505203 -0.42361185 0.64533913 75
2.1306911 -0.14823991 1.9827838 77
2.6033726 -0.18158379 1.9837791 33
3.2059221 -0.22305281 1.9733303 27
4.0985179 -0.2858749 1.9867133 50
5.3946013 -0.37722468 1.970216 37
6.0465083 -0.42387092 1.5526329 81
6.1304173 -0.43082839 0.94826198 80
6.1445017 -0.43289596 0.34215304 86
0.031145921 -0.0027080029 1.9891979 82
0.31297237 -0.023787361 1.9958843 107
0.42798012 -0.031543013 2.0866275 87
0.60456043 -0.04416078 1.9838723 84
0.81551915 -0.059440646 1.9859076 90
1.0445431 -0.07596045 1.9857829 87
1.297313 -0.094347864 1.9830275 87
1.5974356 -0.11617944 1.9935577 76
0.12373271 -0.010570087 1.9810979 88
0.2183259 -0.019782523 1.9983203 93
0.50637215 -0.037957076 1.9912384 95
0.70820606 -0.052856755 1.9854547 91
0.92899251 -0.069020599 1.9891212 96
1.1642686 -0.086507209 1.979813 91
1.4363693 -0.10673036 1.9813027 89
1.7558199 -0.13047221 1.9869798 81
1.9533262 -0.14000842 2.0042477 36
2.3444307 -0.16804571 1.9769365 69
2.8882892 -0.20753668 1.9831401 26
3.7220786 -0.2674523 2.0390942 30
4.6293836 -0.33346003 1.9635568 41
6.0483885 -0.43673459 1.8712655 78
6.1390619 -0.44328186 1.2600452 67
6.1490045 -0.44507861 0.64533913 75
2.1301606 -0.15567651 1.9827838 75
2.6027229 -0.19067015 1.9837791 33
3.209383 -0.23511662 1.9758627 27
4.0974422 -0.30089477 1.9867133 61
5.3931823 -0.39699435 1.970216 38
6.0497613 -0.44638735 1.5538052 80
6.1337357 -0.45365986 0.94895172 82
6.1478558 -0.45578313 0.34235457 86
0.031135786 -0.0028221402 1.9891979 80
0.31210855 -0.024872394 1.9909451 107
0.42786166 -0.033111423 2.0866275 87
0.60439456 -0.04637631 1.9838723 82
0.81529588 -0.062429275 1.9859076 91
1.0442578 -0.079788379 1.9857829 87
1.2969584 -0.099102117 1.9830275 87
1.5969992 -0.12203354 1.9935577 76
0.12369314 -0.01102352 1.9810979 89
0.21825193 -0.020582594 1.9983203 91
0.50622964 -0.039812766 1.9912384 95
0.70800751 -0.055452105 1.9854547 91
0.92654949 -0.072417431 1.9846202 96
1.1639278 -0.090977028 1.979813 93
1.4359487 -0.11224481 1.9813027 89
1.7553059 -0.1372131 1.9869798 81
1.9492439 -0.14689876 2.0007432 37
2.3437989 -0.17663734 1.9769365 67
2.8833394 -0.2178064 1.9803987 38
3.7254908 -0.28142631 2.0414124 31
4.6281295 -0.35042533 1.9635568 41
6.0515308 -0.45926321 1.8726747 76
6.1422119 -0.46722344 1.2609777 67
6.1472497 -0.46868572 0.64533913 75
2.1295471 -0.16385455 1.9827838 75
2.5979412 -0.20035164 1.9808358 33
3.2084563 -0.247438 1.9758627 38
4.0962572 -0.3166256 1.9867133 60
5.3916183 -0.41769969 1.970216 37
6.0480027 -0.46961337 1.5538052 80
6.1369696 -0.47652146 0.94964159 81
6.1461439 -0.47831303 0.34235457 90
0.031126255 -0.0029253745 1.9891979 80
0.31202433 -0.025907246 1.9909451 106
0.42876443 -0.034612097 2.0915227 87
0.60274863 -0.048261039 1.9791006 80
0.81508434 -0.065132551 1.9859076 91
1.0463756 -0.083441287 1.9901714 87
1.2966228 -0.10340245 1.9830275 87
1.5965856 -0.12732872 1.9935577 76
0.1236579 -0.011412057 1.9810979 89
0.21765484 -0.021215677 1.993349 93
0.50610209 -0.041402936 1.9912384 95
0.70782983 -0.057676099 1.9854547 91
0.92631739 -0.075327903 1.9846202 96
1.1636362 -0.094633162 1.979813 93
1.4355891 -0.11675542 1.9813027 89
1.754891 -0.14242059 1.9869798 83
1.948746 -0.15336189 2.0007432 38
2.3432002 -0.18440869 1.9769365 67
2.8826013 -0.22736672 1.9803987 38
3.7289538 -0.29412732 2.0437305 31
4.6270061 -0.36496326 1.9635568 41
6.0500579 -0.47827232 1.8726747 76
6.1407142 -0.4865174 1.2609777 67
6.1457472 -0.48799556 0.64533913 75
2.1290219 -0.17054392 1.9827838 75
2.5972991 -0.20851231 1.9808358 33
3.2077081 -0.25695658 1.9758627 65
4.0952992 -0.328778 1.9867133 59
5.3903551 -0.43369508 1.970216 37
6.0514278 -0.48794675 1.5549775 80
6.1354418 -0.49579892 0.94964159 81
6.149591 -0.49802268 0.34255609 91
0.031115856 -0.0030340077 1.9891979 80
0.311932 -0.026996257 1.9909451 106
0.42864099 -0.036108553 2.0915227 85
0.60257649 -0.050364725 1.9791006 80
0.814852 -0.067977332 1.9859076 91
1.0460778 -0.087093309 1.9901714 89
1.2962538 -0.10792787 1.9830275 87
1.5961314 -0.13290106 1.9935577 74
0.12361524 -0.01186521 1.9810979 89
0.21757562 -0.022013281 1.993349 95
0.50594687 -0.043257613 1.9912384 95
0.70761365 -0.060270038 1.9854547 91
0.92604876 -0.078560904 1.9846202 96
1.1632988 -0.098694436 1.979813 91
1.4351728 -0.12176585 1.9813027 89
1.7543572 -0.14885165 1.9869798 83
1.9446445 -0.15987112 1.9972385 38
2.3425424 -0.19258687 1.9769365 69
2.8776231 -0.23708415 1.9776572 35
3.7279046 -0.30714202 2.0437305 26
4.6256375 -0.38191968 1.9635568 43
6.0530457 -0.50083929 1.874084 77
6.1438742 -0.5083546 1.2619104 68
6.1440063 -0.50944525 0.64533913 78
2.1284137 -0.17797455 1.9827838 75
2.5965552 -0.21757729 1.9808358 38
3.211041 -0.26907167 1.9783952 68
4.0940671 -0.34378582 1.9867133 58
5.3887296 -0.4534488 1.970216 37
6.0495987 -0.51012307 1.5549775 81
6.1434531 -0.51911706 0.95102125 83
6.1477242 -0.52055866 0.34255609 87
0.031105075 -0.0031426037 1.9891979 82
0.31183586 -0.028084939 1.9909451 106
0.42851233 -0.037604567 2.0915227 83
0.60239702 -0.052467804 1.9791006 84
0.81460977 -0.070821285 1.9859076 91
1.0457675 -0.090744272 1.9901714 87
1.2958692 -0.11245199 1.9830275 87
1.5956578 -0.13847178 1.9935577 74
0.12357307 -0.012296634 1.9810979 89
0.21749745 -0.022772627 1.993349 93
0.50579286 -0.045023434 1.9912384 95
0.70739901 -0.062739708 1.9854547 91
0.92576897 -0.081792936 1.9846202 95
1.1603494 -0.10252492 1.975547 91
1.434739 -0.1267748 1.9813027 89
1.7572039 -0.15527298 1.9906548 81
1.9440745 -0.16665822 1.9972385 38
2.3418558 -0.20076269 1.9769365 69
2.8767779 -0.24712749 1.9776572 35
3.7312236 -0.32053214 2.0460486 26
4.619657 -0.39766619 1.9616836 43
6.0512605 -0.52196532 1.874084 77
6.1371679 -0.52937549 1.2609777 52
6.1372294 -0.53045988 0.64489299 78
2.1277795 -0.185403 1.9827838 77
2.5917535 -0.22628807 1.9778926 48
3.2100823 -0.28027865 1.9783952 66
4.0928421 -0.35807469 1.9867133 58
5.3871136 -0.47225624 1.970216 37
6.0526228 -0.53166229 1.5561498 81
6.1070714 -0.53751922 0.94619244 79
6.1209865 -0.53982055 0.34154844 56
0.031093916 -0.0032511614 1.9891979 82
0.31173593 -0.029173277 1.9909451 106
0.42837846 -0.039100125 2.0915227 86
0.60221016 -0.054570239 1.9791006 84
0.81435758 -0.07366436 1.9859076 93
1.0454444 -0.094394125 1.9901714 87
1.2954687 -0.11697473 1.9830275 87
1.5951648 -0.14404084 1.9935577 74
0.12381738 -0.012758077 1.9860895 89
0.21741664 -0.023531694 1.993349 93
0.50438011 -0.046672743 1.9863992 93
0.70717567 -0.065208606 1.9854547 87
0.92547774 -0.085023969 1.9846202 95
1.1599844 -0.10657468 1.975547 91
1.4342878 -0.13178219 1.9813027 89
1.7566513 -0.16140582 1.9906548 81
1.943481 -0.1734433 1.9972385 37
2.3411405 -0.20893608 1.9769365 67
2.8758976 -0.25716782 1.9776572 43
3.7300823 -0.3335546 2.0460486 27
4.6182404 -0.41378939 1.9616836 40
6.0494018 -0.54308498 1.874084 75
6.135283 -0.55079496 1.2609777 52
6.1105399 -0.54964876 0.64266193 81
2.1271193 -0.19282922 1.9827838 77
2.5909479 -0.23533361 1.9778926 39
3.2090845 -0.29148224 1.9783952 66
4.091567 -0.37235919 1.9867133 55
5.3901348 -0.4914867 1.9718586 36
6.0507302 -0.55278665 1.5561498 81
6.090363 -0.55747932 0.94412303 65
6.1041393 -0.55981475 0.34094384 56
0.031081792 -0.0033651046 1.9891979 82
0.31162694 -0.030315651 1.9909451 107
0.42823228 -0.040669948 2.0915227 85
0.60200614 -0.056777086 1.9791006 84
0.81408209 -0.076648645 1.9859076 91
1.0450914 -0.098225236 1.9901714 89
1.2950314 -0.12172207 1.9830275 87
1.5946262 -0.14988644 1.9935577 74
0.12377208 -0.013190201 1.9860895 89
0.21733317 -0.024290478 1.993349 93
0.50421411 -0.048433069 1.9863992 93
0.70694381 -0.067676708 1.9854547 87
0.92515999 -0.088415444 1.9846202 95
1.1595861 -0.11082552 1.975547 91
1.4337952 -0.13703825 1.9813027 91
1.7560772 -0.16753671 1.9906548 81
1.9428322 -0.18056534 1.9972385 37
2.3403592 -0.21751538 1.9769365 67
2.8749359 -0.26770678 1.9776572 64
3.7288344 -0.34722379 2.0460486 27
4.6167679 -0.42990753 1.9616836 39
6.0474691 -0.56419796 1.874084 75
6.0940948 -0.56962091 1.2535168 67
6.0936093 -0.57064831 0.64132327 77
2.1263981 -0.2006242 1.9827838 77
2.5860438 -0.24444795 1.9749495 37
3.2080472 -0.30268225 1.9783952 68
4.0857244 -0.38621211 1.9846153 55
5.3883862 -0.51029879 1.9718586 36
6.0487638 -0.57390428 1.5561498 82
6.0686603 -0.57686079 0.94136375 65
6.0872283 -0.57969785 0.34033924 67
0.03107046 -0.003468157 1.9891979 82
0.31152469 -0.031348877 1.9909451 107
0.42809507 -0.042089794 2.0915227 85
0.60181457 -0.058773097 1.9791006 86
0.81382346 -0.079347812 1.9859076 91
1.0447599 -0.10169034 1.9901714 89
1.2946205 -0.12601587 1.9830275 87
1.5941203 -0.15517358 1.9935577 74
0.12372767 -0.013600572 1.9860895 89
0.21725142 -0.025011048 1.993349 93
0.50405073 -0.050104842 1.9863992 93
0.7067154 -0.070020646 1.9854547 87
0.92486167 -0.091482908 1.9846202 96
1.159212 -0.11467024 1.975547 93
1.4333328 -0.14179213 1.9813027 91
1.7555119 -0.17335914 1.9906548 81
1.9422227 -0.18700702 1.9972385 37
2.3396251 -0.2252751 1.9769365 66
2.8740323 -0.27723894 1.9776572 66
3.7320719 -0.36001247 2.0483663 26
4.6153173 -0.4452149 1.9616836 42
6.0503397 -0.58471048 1.875493 76
6.0628371 -0.5869863 1.2479211 69
6.0668998 -0.58844846 0.63909227 79
2.1294382 -0.20803763 1.9861088 75
2.5852189 -0.25302222 1.9749495 37
3.207026 -0.31331885 1.9783952 68
4.0844216 -0.3997587 1.9846153 55
5.3866644 -0.52816451 1.9718586 36
6.0468278 -0.59395957 1.5561498 83
6.0470004 -0.59504211 0.93860453 83
6.0753293 -0.59890038 0.3399362 84
0.031058166 -0.0035765918 1.9891979 82
0.31141338 -0.03243611 1.9909451 107
0.42794552 -0.043583866 2.0915227 85
0.60160571 -0.060873464 1.9791006 86
0.81354147 -0.082188107 1.9859076 91
1.0443985 -0.10533661 1.9901714 87
1.2941728 -0.13053417 1.9830275 80
1.5935689 -0.16073716 1.9935577 74
0.12367699 -0.014053967 1.9860895 88
0.21768841 -0.025870828 1.9983203 93
0.50511491 -0.052081019 1.9912384 95
0.7064541 -0.072610423 1.9854547 87
0.92453676 -0.094710715 1.9846202 95
1.1588048 -0.11871595 1.975547 93
1.4328291 -0.14679453 1.9813027 89
1.7548647 -0.17979226 1.9906548 83
1.9380096 -0.19343132 1.9937341 37
2.3388245 -0.23344055 1.9769365 60
2.8730471 -0.2872695 1.9776572 66
3.7307925 -0.37303764 2.0483663 25
4.6136546 -0.46212789 1.9616836 42
6.0481558 -0.60688215 1.875493 77
6.0412002 -0.60618424 1.2441907 77
6.049943 -0.60812801 0.63775361 81
2.1286988 -0.21546948 1.9861088 73
2.5843198 -0.26204479 1.9749495 44
3.2058561 -0.3250711 1.9783952 68
4.0829287 -0.41472617 1.9846153 58
5.3846927 -0.54790407 1.9718586 35
6.0446095 -0.61611831 1.5561498 83
6.0398521 -0.61669844 0.93791467 86
6.0581827 -0.61963856 0.3393316 85
0.031045493 -0.0036849836 1.9891979 82
0.31129822 -0.033522949 1.9909451 107
0.42779076 -0.045077413 2.0915227 85
0.60287505 -0.063128695 1.9838723 86
0.81324971 -0.085027397 1.9859076 90
1.0440245 -0.10898161 1.9901714 87
1.2965081 -0.13534309 1.9871606 80
1.5929981 -0.16629878 1.9935577 73
0.12362718 -0.014485594 1.9860895 88
0.21759677 -0.026630543 1.9983203 95
0.50493002 -0.053843882 1.9912384 95
0.70619631 -0.075075962 1.9854547 89
0.92420048 -0.097937368 1.9846202 96
1.1583833 -0.12276021 1.975547 91
1.432308 -0.15179513 1.9813027 89
1.7542264 -0.18591678 1.9906548 81
1.9373225 -0.20019504 1.9937341 37
2.3379953 -0.24160314 1.9769365 39
2.8720267 -0.29729655 1.9776572 66
3.7338746 -0.38651448 2.0506845 25
4.6120133 -0.47822976 1.9616836 41
6.0460005 -0.62799048 1.875493 73
6.0341616 -0.62676078 1.243258 69
6.0477834 -0.62924254 0.63775361 81
2.127934 -0.22289872 1.9861088 73
2.5833895 -0.27106416 1.9749495 66
3.2047017 -0.33625963 1.9783952 68
4.0769424 -0.42850134 1.9825172 58
5.3827472 -0.56669682 1.9718586 35
6.0424218 -0.63721418 1.5561498 79
6.0327382 -0.63725752 0.93722486 83
6.0510144 -0.64025605 0.33913007 87
0.031032439 -0.0037933299 1.9891979 82
0.31117934 -0.034609374 1.9909451 106
0.42763084 -0.046570405 2.0915227 83
0.602651 -0.065232731 1.9838723 84
0.81294793 -0.087865651 1.9859076 88
1.0436376 -0.11262527 1.9901714 89
1.2960278 -0.13986793 1.9871606 87
1.5924079 -0.17185836 1.9935577 71
0.12328845 -0.014881857 1.9810979 89
0.21750247 -0.027389936 1.9983203 95
0.50473899 -0.055606086 1.9912384 95
0.70592993 -0.077540591 1.9854547 91
0.92385298 -0.10116284 1.9846202 96
1.1579477 -0.12680297 1.975547 89
1.4317694 -0.15679389 1.9813027 89
1.7535669 -0.19203903 1.9906548 81
1.9366119 -0.20695636 1.9937341 38
2.3371377 -0.24976279 1.9769365 32
2.8668134 -0.30687487 1.9749157 66
3.7369077 -0.40001732 2.0530026 24
4.6103158 -0.49432579 1.9616836 41
6.048542 -0.64960343 1.8769022 73
6.0270529 -0.64729553 1.2423254 69
6.0455499 -0.6503495 0.63775361 81
2.1271427 -0.23032524 1.9861088 71
2.5824275 -0.2800802 1.9749495 71
3.2035084 -0.34744409 1.9783952 68
4.0754218 -0.44272992 1.9825172 57
5.3807364 -0.58548266 1.9718586 36
6.0449934 -0.65882897 1.5573221 79
6.035399 -0.65884918 0.93791467 83
6.0437765 -0.66083109 0.33892852 86
0.031018328 -0.003907044 1.9891979 80
0.31105039 -0.035749674 1.9909451 106
0.42745727 -0.048137438 2.0915227 83
0.60240781 -0.067441128 1.9838723 84
0.8126204 -0.090844661 1.9859076 88
1.0432179 -0.11644964 1.9901714 87
1.2955065 -0.14461716 1.9871606 87
1.5917673 -0.17769367 1.9935577 71
0.12323307 -0.015333631 1.9810979 89
0.21740064 -0.028186938 1.9983203 93
0.5045318 -0.057455674 1.9912384 93
0.70564097 -0.080127433 1.9854547 91
0.92345774 -0.10470942 1.9846202 95
1.1600437 -0.1315421 1.979813 89
1.4311569 -0.16229033 1.9813027 89
1.7528164 -0.19877081 1.9906548 81
1.9358405 -0.21405299 1.9937341 38
2.3362064 -0.25832716 1.9769365 32
2.8656695 -0.31738025 1.9749157 67
3.7354167 -0.4137111 2.0530026 23
4.6084728 -0.51122004 1.9616836 42
6.0461202 -0.67176807 1.8769022 77
6.0294051 -0.67097622 1.243258 75
6.0430088 -0.67355782 0.63775361 84
2.1262426 -0.23849116 1.9861088 62
2.5813329 -0.28999394 1.9749495 71
3.2021506 -0.35974208 1.9783952 68
4.0736918 -0.45837507 1.9825172 55
5.3784485 -0.60613883 1.9718586 36
6.0424194 -0.68203515 1.5573221 82
6.0329442 -0.68096566 0.93791467 89
6.0363498 -0.68241704 0.338727 86
0.0310045 -0.0040152944 1.9891979 78
0.3109237 -0.036835223 1.9909451 106
0.42728662 -0.049629249 2.0915227 83
0.6021688 -0.069543503 1.9838723 84
0.81229842 -0.093680687 1.9859076 88
1.0428051 -0.12009043 1.9901714 87
1.2949938 -0.14913844 1.9871606 89
1.5911374 -0.18324889 1.9935577 73
0.1231788 -0.015763702 1.9810979 88
0.21730092 -0.028945636 1.9983203 93
0.50432819 -0.05921647 1.9912384 93
0.70535702 -0.082590088 1.9854547 91
0.92310542 -0.10777114 1.9846202 95
1.1596012 -0.13538823 1.979813 89
1.4306107 -0.16703533 1.9813027 89
1.7521477 -0.20458226 1.9906548 81
1.9350815 -0.22080903 1.9937341 37
2.3352907 -0.26648048 1.9769365 38
2.8645444 -0.32738134 1.9749157 67
3.7383513 -0.42725065 2.0553207 22
4.6066604 -0.52730352 1.9616836 42
6.0485048 -0.69341522 1.8783115 76
6.0271473 -0.69096673 1.243258 76
6.0456896 -0.69416159 0.63819981 83
2.1254401 -0.24554072 1.9861088 54
2.5803571 -0.29855233 1.9749495 73
3.2009401 -0.37035882 1.9783952 68
4.0721493 -0.47188142 1.9825172 54
5.3764091 -0.62397105 1.9718586 36
6.0449524 -0.70262992 1.5584946 81
6.035449 -0.70259303 0.93860453 88
6.0339308 -0.7034837 0.338727 87
0.030991014 -0.0041180868 1.9891979 78
0.31079984 -0.037866082 1.9909451 106
0.42711967 -0.051045913 2.0915227 83
0.60193485 -0.071539983 1.9838723 86
0.81198329 -0.096373841 1.9859076 88
1.0424012 -0.12354784 1.9901714 89
1.294492 -0.15343197 1.9871606 87
1.5905211 -0.18852429 1.9935577 74
0.12312867 -0.016150599 1.9810979 88
0.21720892 -0.029628163 1.9983203 93
0.50413966 -0.060800567 1.9912384 95
0.70509404 -0.084805623 1.9854547 91
0.92274296 -0.11083168 1.9846202 95
1.1591458 -0.13923286 1.979813 89
1.4300489 -0.17177847 1.9813027 89
1.7481303 -0.20968203 1.9869798 81
1.9343387 -0.2272248 1.9937341 35
2.3343942 -0.27422309 1.9769365 50
2.8634429 -0.33687872 1.9749157 64
3.7369139 -0.43964511 2.0553207 20
4.6049809 -0.5417732 1.9616836 43
6.0510607 -0.71297514 1.8797207 76
6.0297008 -0.71152538 1.2441907 75
6.0433545 -0.71420598 0.63819981 83
2.1246145 -0.25258759 1.9861088 38
2.5793529 -0.30710748 1.9749495 73
3.1997609 -0.38041303 1.9783952 68
4.0706468 -0.4846721 1.9825172 54
5.3744221 -0.64085841 1.9718586 34
6.0523677 -0.72276992 1.5608391 79
6.0381298 -0.72213858 0.93929434 88
6.0316906 -0.72243637 0.338727 90
0.03097645 -0.0042262408 1.9891979 80
0.31143671 -0.039047591 1.9958843 104
0.42693892 -0.052536525 2.0915227 81
0.60168147 -0.073640697 1.9838723 86
0.81164187 -0.099207602 1.9859076 91
1.0419636 -0.12718575 1.9901714 89
1.2911553 -0.15760866 1.9830275 87
1.5898532 -0.19407509 1.9935577 74
0.12306865 -0.01660178 1.9810979 89
0.21709886 -0.030424077 1.9983203 93
0.5039134 -0.062647924 1.9912384 95
0.70477849 -0.08738935 1.9854547 91
0.92235053 -0.11405198 1.9846202 95
1.1586528 -0.14327818 1.979813 89
1.4294407 -0.17676924 1.9813027 89
1.7473502 -0.21608785 1.9869798 81
1.9335335 -0.2339755 1.9937341 35
2.3334227 -0.28236997 1.9769365 67
2.8622494 -0.34687197 1.9749157 66
3.7353566 -0.4526867 2.0553207 18
4.6029649 -0.55864763 1.9616836 43
6.0531693 -0.73572737 1.8811299 76
6.0320573 -0.73316133 1.2451233 75
6.0457678 -0.73589867 0.63864601 81
2.1237197 -0.26000232 1.9861088 38
2.5782654 -0.31610924 1.9749495 73
3.1983452 -0.39213818 1.9783952 68
4.0688429 -0.49958852 1.9825172 54
5.3720374 -0.66055238 1.9718586 33
6.0545015 -0.74554211 1.5620115 78
6.0354424 -0.74426454 0.93929434 88
6.0339608 -0.74515098 0.33892852 88
0.03096151 -0.0043343431 1.9891979 80
0.31129852 -0.040134467 1.9958843 104
0.42675295 -0.054026499 2.0915227 83
0.60142076 -0.075740509 1.9838723 86
0.81129062 -0.10204016 1.9859076 90
1.0415132 -0.13082211 1.9901714 87
1.2905972 -0.16211468 1.9830275 87
1.5891662 -0.19962354 1.9935577 74
0.12300994 -0.017031269 1.9810979 88
0.21699135 -0.031181708 1.9983203 93
0.50369167 -0.064406529 1.9912384 93
0.70446914 -0.089848958 1.9854547 91
0.9219467 -0.11727089 1.9846202 96
1.1581455 -0.14732176 1.979813 89
1.4288149 -0.18175784 1.9813027 89
1.7465851 -0.22218591 1.9869798 81
1.9327052 -0.24072337 1.9937341 36
2.3324227 -0.29051343 1.9769365 66
2.8610213 -0.35686094 1.9749157 67
3.7293572 -0.46517444 2.0530026 18
4.6009865 -0.57471156 1.9616836 43
6.0553246 -0.75744784 1.882539 76
6.0294609 -0.75421268 1.2451233 76
6.0431628 -0.75699782 0.63864601 80
2.1227992 -0.26741391 1.9861088 40
2.5771461 -0.3251071 1.9749495 71
3.1969569 -0.40330011 1.9783952 68
4.0625715 -0.51321959 1.9804192 58
5.3696985 -0.67930025 1.9718586 31
6.056685 -0.76728266 1.5631838 78
6.0377197 -0.76595086 0.93998414 87
6.0313225 -0.76620889 0.33892852 85
0.030946191 -0.0044423924 1.9891979 78
0.31115651 -0.041220859 1.9958843 104
0.42656174 -0.055515818 2.0915227 79
0.60115272 -0.077839397 1.9838723 82
0.81092948 -0.10487147 1.9859076 90
1.0410502 -0.13445686 1.9901714 87
1.2900234 -0.1666187 1.9830275 87
1.5884596 -0.20516953 1.9935577 74
0.12294975 -0.017460551 1.9810979 88
0.21635306 -0.031860501 1.993349 93
0.5034638 -0.066164352 1.9912384 91
0.70415127 -0.092307471 1.9854547 89
0.9215318 -0.12048836 1.9846202 96
1.1576242 -0.15136354 1.979813 89
1.4281716 -0.18674421 1.9813027 89
1.7457989 -0.22828127 1.9869798 83
1.9318531 -0.24746829 1.9937341 35
2.3313944 -0.2986533 1.9769365 66
2.8597581 -0.36684561 1.9749157 66
3.7277107 -0.4781895 2.0530026 18
4.5989523 -0.59076846 1.9616836 43
6.0574017 -0.77919233 1.8839482 77
6.0316634 -0.77588147 1.2460558 74
6.0454226 -0.77872401 0.63909227 80
2.1218529 -0.27482224 1.9861088 46
2.5759957 -0.33410105 1.9749495 71
3.1955295 -0.41445711 1.9783952 68
4.0607553 -0.52739745 1.9804192 58
5.3672953 -0.69803989 1.9718586 31
6.0587897 -0.78904754 1.5643561 80
6.0350094 -0.7870217 0.93998414 86
6.033566 -0.78790432 0.33913007 85
0.030930497 -0.0045503881 1.9891979 80
0.31024083 -0.042201832 1.9909451 104
0.42636538 -0.057004455 2.0915227 79
0.60087734 -0.079937339 1.9838723 80
0.8105585 -0.1077015 1.9859076 90
1.0405744 -0.13808998 1.9901714 87
1.289434 -0.1711207 1.9830275 87
1.5877337 -0.21071304 1.9935577 73
0.12288805 -0.017889619 1.9810979 88
0.21624053 -0.03261552 1.993349 93
0.50322974 -0.067921355 1.9912384 91
0.7038247 -0.094764844 1.9854547 89
0.92110556 -0.12370438 1.9846202 96
1.1570889 -0.15540349 1.979813 89
1.4275112 -0.19172834 1.9813027 89
1.7449915 -0.23437388 1.9869798 83
1.9309776 -0.2542102 1.9937341 35
2.3303378 -0.30678958 1.9769365 69
2.8584602 -0.37682581 1.9749157 56
3.7216268 -0.49061966 2.0506845 17
4.6014585 -0.60742497 1.9635568 43
6.059401 -0.8009606 1.8853575 77
6.0337882 -0.797575 1.2469885 73
6.0476041 -0.80047512 0.63953841 80
2.1208806 -0.28222725 1.9861088 54
2.5748138 -0.34309092 1.9749495 73
3.1940632 -0.42560908 1.9783952 66
4.0588894 -0.54156893 1.9804192 58
5.3648257 -0.71677101 1.9718586 29
6.0559988 -0.81019181 1.5643561 80
6.0371337 -0.80874062 0.94067395 85
6.0357304 -0.80962491 0.3393316 87
0.030914426 -0.0046583274 1.9891979 80
0.31009164 -0.043284517 1.9909451 104
0.42616379 -0.058492403 2.0915227 81
0.60059464 -0.082034297 1.9838723 77
0.81017756 -0.11053022 1.9859076 91
1.0400862 -0.14172143 1.9901714 87
1.2888288 -0.17562065 1.9830275 87
1.5869884 -0.216254 1.9935577 74
0.12282486 -0.018318469 1.9810979 88
0.21612535 -0.033370141 1.993349 93
0.50298959 -0.069677547 1.9912384 93
0.70348966 -0.097221076 1.9854547 89
0.92066813 -0.12691888 1.9846202 95
1.1565393 -0.15944155 1.979813 89
1.4268332 -0.19671012 1.9813027 89
1.747521 -0.24092662 1.9906548 81
1.9300784 -0.26094902 1.9937341 35
2.3292527 -0.31492212 1.9769365 69
2.8571274 -0.38680136 1.9749157 56
3.7155011 -0.50301313 2.0483663 16
4.5993104 -0.62348342 1.9635568 43
6.0613217 -0.82275218 1.8867666 76
6.0358348 -0.81929266 1.2479211 74
6.0447731 -0.82158041 0.63953841 80
2.1198823 -0.28962871 1.9861088 52
2.5736005 -0.35207662 1.9749495 73
3.1925583 -0.43675581 1.9783952 66
4.0569749 -0.5557338 1.9804192 57
5.3622909 -0.73549336 1.9718586 29
6.0579491 -0.83198762 1.5655285 80
6.0342741 -0.82980919 0.94067395 85
6.0378165 -0.83137012 0.33953312 87
0.030897975 -0.0047662104 1.9891979 80
0.30993867 -0.044366673 1.9909451 104
0.42595702 -0.059979632 2.0915227 81
0.6003046 -0.084130265 1.9838723 78
0.80978686 -0.1133576 1.9859076 91
1.0395851 -0.14535114 1.9901714 87
1.288208 -0.18011843 1.9830275 87
1.5862241 -0.22179228 1.9935577 74
0.12276016 -0.018747095 1.9810979 89
0.21600755 -0.034124356 1.993349 93
0.5027433 -0.071432881 1.9912384 95
0.70314598 -0.099676125 1.9854547 89
0.92021948 -0.13013186 1.9846202 95
1.1559757 -0.16347764 1.979813 91
1.4291221 -0.20211156 1.9852921 89
1.7466694 -0.24702515 1.9906548 73
1.9291556 -0.2676847 1.9937341 35
2.3281393 -0.32305083 1.9769365 67
2.8557599 -0.39677227 1.9749157 67
3.7049468 -0.51476032 2.0437305 14
4.5971055 -0.63953418 1.9635568 43
6.0631642 -0.84456706 1.8881758 76
6.0378036 -0.84103441 1.2488538 74
6.0468006 -0.84336352 0.63998467 82
2.1188586 -0.29702675 1.9861088 48
2.5723557 -0.36105803 1.9749495 73
3.1910143 -0.44789729 1.9783952 69
4.0550098 -0.56989187 1.9804192 54
5.3596907 -0.75420678 1.9718586 29
6.0598207 -0.85380673 1.5667007 79
6.0362449 -0.85155946 0.94136375 85
6.0299306 -0.85174215 0.3393316 64
0.030881148 -0.0048740357 1.9891979 82
0.30978191 -0.045448292 1.9909451 105
0.42574504 -0.061466139 2.0915227 81
0.6000073 -0.086225212 1.9838723 86
0.80938619 -0.11618359 1.9859076 91
1.0390713 -0.1489791 1.9901714 87
1.2875713 -0.184614 1.9830275 87
1.58544 -0.2273279 1.9935577 74
0.12269398 -0.019175494 1.9810979 88
0.21588711 -0.034878153 1.993349 93
0.50249088 -0.073187344 1.9912384 95
0.70279378 -0.10212995 1.9854547 91
0.91975963 -0.13334322 1.9846202 95
1.155398 -0.16751176 1.979813 91
1.4284078 -0.20709889 1.9852921 89
1.7457966 -0.25312066 1.9906548 61
1.9282097 -0.27441704 1.9937341 35
2.3269975 -0.33117557 1.9769365 67
2.8543575 -0.40673831 1.9749157 67
3.6987412 -0.52706486 2.0414124 14
4.5948453 -0.65557718 1.9635568 43
6.0601792 -0.86572629 1.8881758 76
6.0396934 -0.86279976 1.2497864 74
6.0487499 -0.86517084 0.64043087 82
2.1178088 -0.30442116 1.9861088 46
2.5710797 -0.37003499 1.9749495 73
3.1894314 -0.45903325 1.9783952 68
4.0485039 -0.58339572 1.9783211 53
5.3616996 -0.77358538 1.9735013 29
6.061614 -0.87564927 1.567873 79
6.0332355 -0.87262475 0.94136375 85
5.839035 -0.8455767 0.33167341 4
0.030906921 -0.0049893558 1.9941976 80
0.30962139 -0.04652936 1.9909451 104
0.4255279 -0.062951885 2.0915227 81
0.59970266 -0.0883191 1.9838723 84
0.80897576 -0.11900817 1.9859076 91
1.0385451 -0.15260522 1.9901714 87
1.2869192 -0.18910736 1.9830275 87
1.584637 -0.23286073 1.9935577 74
0.12262629 -0.01960366 1.9810979 88
0.21576406 -0.03563153 1.993349 93
0.50223237 -0.07494092 1.9912384 95
0.70243299 -0.10458254 1.9854547 89
0.91928864 -0.13655294 1.9846202 95
1.1548064 -0.17154382 1.979813 89
1.4276762 -0.21208368 1.9852921 89
1.7482558 -0.25971124 1.99433 38
1.9272399 -0.28114608 1.9937341 35
2.3258271 -0.33929628 1.9769365 67
2.8529203 -0.41669938 1.9749157 66
3.6924951 -0.53933239 2.0390942 15
4.5925288 -0.6716122 1.9635568 42
6.0618672 -0.8875699 1.889585 76
6.0366454 -0.88387692 1.2497864 75
6.050621 -0.88700199 0.64087707 82
2.1167333 -0.3118118 1.9861088 44
2.5697725 -0.37900752 1.9749495 73
3.1878095 -0.47016367 1.9783952 68
4.0464425 -0.59752411 1.9783211 54
5.3589668 -0.79229647 1.9735013 28
6.0585208 -0.8968029 1.567873 81
6.0350513 -0.89440542 0.94205362 86
5.8607569 -0.86961991 0.33268109 4
0.030889317 -0.0050972104 1.9941976 80
0.30945709 -0.047609858 1.9909451 103
0.42530558 -0.064436875 2.0915227 81
0.59939069 -0.090411916 1.9838723 82
0.80855542 -0.12183129 1.9859076 91
1.0380061 -0.15622948 1.9901714 87
1.289034 -0.19401723 1.9871606 87
1.5838145 -0.23839071 1.9935577 74
0.12255712 -0.020031586 1.9810979 88
0.21563837 -0.036384471 1.993349 93
0.50196773 -0.07669358 1.9912384 95
0.70206362 -0.10703384 1.9854547 89
0.91880631 -0.13976105 1.9846202 95
1.1542004 -0.17557381 1.979813 91
1.4269272 -0.21706592 1.9852921 89
1.7506901 -0.26632208 1.9980052 26
1.9262468 -0.28787169 1.9937341 37
2.3246288 -0.34741285 1.9769365 67
2.8514483 -0.42665538 1.9749157 66
3.6818273 -0.55090714 2.0344584 15
4.5901566 -0.68763906 1.9635568 42
6.0634761 -0.90943593 1.8909943 76
6.0383811 -0.90567201 1.250719 75
6.052412 -0.90885663 0.64132327 84
2.1156321 -0.3191987 1.9861088 42
2.5684338 -0.38797539 1.9749495 73
3.1861491 -0.48128834 1.9783952 68
4.0443325 -0.61164516 1.9783211 55
5.3561687 -0.81099796 1.9735013 28
6.0601597 -0.91867417 1.5690454 82
6.0367889 -0.91620922 0.94274342 86
5.9021392 -0.89682716 0.33449486 8
0.030871337 -0.0052050035 1.9941976 80
0.30928901 -0.048689771 1.9909451 104
0.42507803 -0.065921076 2.0915227 81
0.59907144 -0.09250363 1.9838723 82
0.8081252 -0.12465294 1.9859076 91
1.0374544 -0.15985186 1.9901714 87
1.2883488 -0.19851562 1.9871606 87
1.5829728 -0.24391784 1.9935577 74
0.12248644 -0.020459268 1.9810979 88
0.21551004 -0.037136961 1.993349 93
0.50169694 -0.078445308 1.9912384 95
0.70168579 -0.10948386 1.9854547 91
0.91831291 -0.14296743 1.9846202 95
1.1535805 -0.17960165 1.979813 89
1.4261608 -0.22204551 1.9852921 91
1.7564493 -0.27347466 2.0053556 26
1.9252301 -0.29459381 1.9937341 37
2.3234017 -0.35552523 1.9769365 67
2.8499417 -0.4366062 1.9749157 67
3.6755028 -0.56308484 2.0321403 14
4.5877285 -0.70365745 1.9635568 46
6.0602646 -0.93059587 1.8909943 76
6.0400381 -0.92749 1.2516516 75
6.0492029 -0.92997801 0.64132327 83
2.1145048 -0.32658169 1.9861088 39
2.567064 -0.3969385 1.9749495 73
3.1844497 -0.49240711 1.9783952 68
4.0466576 -0.6264531 1.9804192 55
5.3579717 -0.83041281 1.975144 28
6.0569158 -0.93982249 1.5690454 81
6.0384474 -0.93803614 0.94343323 86
nan nan nan 0
0.030852981 -0.0053127324 1.9941976 80
0.30911717 -0.049769096 1.9909451 104
0.42484534 -0.067404471 2.0915227 79
0.59874493 -0.094594218 1.9838723 86
0.8076852 -0.12747306 1.9859076 91
1.0345236 -0.16309915 1.9857829 87
1.2876481 -0.20301159 1.9871606 80
1.5852785 -0.24994126 1.9973947 71
0.12241428 -0.020886702 1.9810979 88
0.2153791 -0.037889007 1.993349 91
0.50142008 -0.08019609 1.9912384 95
0.70129937 -0.11193253 1.9854547 91
0.91780829 -0.14617208 1.9846202 95
1.150371 -0.18321708 1.975547 91
1.4253771 -0.22702239 1.9852921 89
1.7621799 -0.28067064 2.0127058 32
1.9277133 -0.30186403 1.9972385 37
2.3221467 -0.36363325 1.9769365 67
2.8484004 -0.44655171 1.9749157 69
3.6603847 -0.57385284 2.0251863 14
4.5852442 -0.71966738 1.9635568 44
6.061718 -0.9524892 1.8924034 76
6.0416164 -0.94933057 1.2525842 77
6.0508394 -0.95186186 0.64176947 83
2.1133521 -0.33396068 1.9861088 39
2.5656626 -0.40589681 1.9749495 73
3.1827114 -0.50351989 1.9783952 68
4.0444469 -0.64057475 1.9804192 57
5.3550406 -0.84911054 1.975144 28
6.0583982 -0.96172136 1.5702177 81
6.0400267 -0.95988584 0.94412303 86
5.1704535 -0.82261735 0.3048698 79
0.030834246 -0.005420397 1.9941976 80
0.30894154 -0.05084781 1.9909451 104
0.42460746 -0.068887047 2.0915227 78
0.59841108 -0.096683651 1.9838723 84
0.8072353 -0.13029163 1.9859076 90
1.0339481 -0.16670933 1.9857829 85
1.2869315 -0.20750509 1.9871606 78
1.5843965 -0.25547341 1.9973947 62
0.12234063 -0.02131388 1.9810979 88
0.21577093 -0.038735598 1.9983203 93
0.50113708 -0.081945881 1.9912384 95
0.69920123 -0.11410187 1.980762 89
0.91729236 -0.14937492 1.9846202 95
1.1497245 -0.1872315 1.975547 89
1.4245758 -0.23199649 1.9852921 89
1.7712277 -0.28845495 2.0237315 37
1.9266479 -0.30859116 1.9972385 37
2.3208632 -0.37173682 1.9769365 67
2.8468239 -0.45649177 1.9749157 67
3.64961 -0.58522356 2.0205503 13
4.5872808 -0.73640323 1.9654298 46
6.0630932 -0.97440386 1.8938125 77
6.0431161 -0.97119331 1.2535168 75
6.042563 -0.97218639 0.64132327 80
2.1121733 -0.34133565 1.9861088 38
2.5642302 -0.41485018 1.9749495 73
3.1809344 -0.51462656 1.9783952 68
4.0421858 -0.65468866 1.9804192 57
5.3567057 -0.86855388 1.9767867 30
6.0550046 -0.98286331 1.5702177 81
6.0415282 -0.98175794 0.94481289 85
5.1675506 -0.84066063 0.3048698 79
0.030772302 -0.0055196928 1.9891979 80
0.30876219 -0.051925909 1.9909451 103
0.42436442 -0.070368789 2.0915227 79
0.59806991 -0.098771907 1.9838723 84
0.80677557 -0.13310863 1.9859076 91
1.0333599 -0.17031747 1.9857829 85
1.2861993 -0.21199605 1.9871606 87
1.583495 -0.26100242 1.9973947 40
0.12226548 -0.0217408 1.9810979 88
0.21563441 -0.039488543 1.9983203 93
0.500848 -0.083694674 1.9912384 93
0.69879866 -0.11654183 1.980762 87
0.91676539 -0.15257597 1.9846202 93
1.1490639 -0.19124365 1.975547 89
1.4237573 -0.23696779 1.9852921 91
1.7802426 -0.29630578 2.0347569 68
1.9290785 -0.31589088 2.0007432 36
2.3195515 -0.37983593 1.9769365 67
2.8452134 -0.46642625 1.9749157 67
3.6344299 -0.59580946 2.0135961 13
4.5846829 -0.75241131 1.9654298 46
6.0643888 -0.99633986 1.8952218 77
6.0445361 -0.99307817 1.2544495 74
nan nan nan 0
2.1109691 -0.34870642 1.9861088 38
2.5627666 -0.4237985 1.9749495 73
3.1791186 -0.52572697 1.9783952 68
4.039876 -0.66879451 1.9804192 57
5.3582997 -0.88801897 1.9784293 29
6.0563316 -1.0047888 1.5713899 81
6.0429487 -1.0036522 0.9455027 85
5.1645846 -0.85869366 0.3048698 84
0.030752849 -0.0056270743 1.9891979 80
0.30857903 -0.053003374 1.9909451 103
0.42411622 -0.071849674 2.0915227 77
0.59772146 -0.10085896 1.9838723 84
0.806306 -0.13592398 1.9859076 91
1.032759 -0.17392352 1.9857829 87
1.2854514 -0.21648443 1.9871606 87
1.5825742 -0.26652825 1.9973947 31
0.12218885 -0.022167452 1.9810979 88
0.21549526 -0.040241007 1.9983203 89
0.50055277 -0.085442446 1.9912384 93
0.69838762 -0.11898039 1.980762 87
0.91622728 -0.15577514 1.9846202 93
1.1483893 -0.19525345 1.975547 89
1.4229215 -0.24193616 1.9852921 89
1.789224 -0.30422306 2.0457823 93
1.9279641 -0.32262272 2.0007432 37
2.3182113 -0.38793033 1.9769365 69
2.8435681 -0.47635505 1.9749157 66
3.61922 -0.60629648 2.0066421 13
4.5820289 -0.76841027 1.9654298 39
6.060874 -1.0175025 1.8952218 78
6.0458775 -1.014985 1.2553821 76
5.2743969 -0.88641453 0.57216078 58
2.1097388 -0.35607293 1.9861088 38
2.5612714 -0.43274161 1.9749495 73
3.181515 -0.53753918 1.9809276 68
4.0330415 -0.68213534 1.9783211 55
5.3598237 -0.90750587 1.980072 31
6.0575805 -1.0267355 1.5725623 84
6.0394092 -1.0247399 0.9455027 89
5.1615558 -0.8767162 0.3048698 84
0.030734017 -0.0057290238 1.9891979 78
0.30840158 -0.054026365 1.9909451 103
0.42387563 -0.073255695 2.0915227 78
0.59738374 -0.10284052 1.9838723 84
0.80585086 -0.13859704 1.9859076 91
1.0345377 -0.17775303 1.9901714 87
1.2819531 -0.2202694 1.9830275 87
1.578522 -0.27123186 1.9935577 18
0.12211861 -0.022551211 1.9810979 88
0.21536778 -0.040917806 1.9983203 89
0.49904266 -0.086798951 1.9863992 93
0.69971055 -0.12146905 1.9854547 89
0.91570568 -0.1588126 1.9846202 92
1.1477356 -0.19906056 1.975547 89
1.4221115 -0.24665341 1.9852921 89
1.7982805 -0.3115789 2.0568078 96
1.9268836 -0.3290143 2.0007432 35
2.3169122 -0.39561567 1.9769365 69
2.8419726 -0.48578206 1.9749157 66
3.6084559 -0.61680204 2.0020061 13
4.5841618 -0.78358251 1.9673029 28
6.0529184 -1.0357291 1.8938125 81
6.0521617 -1.0366868 1.2572473 74
5.261611 -0.90221673 0.57126832 79
2.1085467 -0.36306715 1.9861088 38
2.5598226 -0.44123274 1.9749495 73
3.1798105 -0.5475316 1.9809276 68
4.030879 -0.69480217 1.9783211 55
5.3615999 -0.92514288 1.9817147 31
6.0543246 -1.0457609 1.5725623 86
6.0410395 -1.0445518 0.94619244 89
5.1636987 -0.89377946 0.30507135 83
0.030713834 -0.0058362703 1.9891979 77
0.30821112 -0.055102561 1.9909451 103
0.4236173 -0.074734852 2.0915227 77
0.59555012 -0.10466657 1.9791006 86
0.80536211 -0.14140914 1.9859076 91
1.0339108 -0.18136314 1.9901714 87
1.2811764 -0.22474289 1.9830275 87
1.5775656 -0.27674025 1.9935577 18
0.12203512 -0.022998646 1.9810979 88
0.21521634 -0.041706897 1.9983203 89
0.49872118 -0.08862745 1.9863992 93
0.69926071 -0.12403281 1.9854547 89
0.9151457 -0.16200805 1.9846202 90
1.1470337 -0.20306571 1.975547 89
1.4212418 -0.251616 1.9852921 87
1.8038027 -0.31934988 2.0641582 95
1.9292365 -0.33635089 2.0042477 34
2.3155172 -0.40370077 1.9769365 67
2.8402596 -0.49569941 1.9749157 67
3.5975525 -0.6278708 1.9973699 14
4.5812588 -0.80037904 1.9673029 27
6.0538077 -1.0587337 1.8952218 40
6.0533452 -1.0586528 1.2581799 6
5.2535238 -0.91971892 0.57082212 78
2.1072664 -0.37042513 1.9861088 37
2.5582666 -0.45016548 1.9749495 71
3.1777823 -0.55918247 1.9809276 68
4.0283055 -0.70957136 1.9783211 57
5.362824 -0.94560796 1.9833575 33
6.0121579 -1.061185 1.5631838 33
6.042047 -1.067548 0.94688231 100
5.1603889 -0.91269928 0.30507135 82
0.030692236 -0.0059488034 1.9891979 80
0.30800709 -0.056231838 1.9909451 102
0.42334056 -0.076286979 2.0915227 79
0.59516245 -0.10684866 1.9791006 82
0.80483848 -0.14435998 1.9859076 90
1.0332391 -0.1851514 1.9901714 87
1.2803441 -0.22943714 1.9830275 87
1.5860077 -0.28421703 2.0050688 25
0.12195002 -0.023445772 1.9810979 88
0.21506205 -0.042495422 1.9983203 89
0.498393 -0.090454757 1.9863992 93
0.69880134 -0.12659489 1.9854547 91
0.91454571 -0.16536114 1.9846202 86
1.1488481 -0.20773253 1.979813 91
1.4232759 -0.25735974 1.9892817 76
1.8126285 -0.32776877 2.0751836 97
1.9279909 -0.34341964 2.0042477 34
2.3140221 -0.41218486 1.9769365 67
2.8384237 -0.5061062 1.9749157 67
3.586504 -0.63949686 1.9927338 14
4.5828581 -0.8179794 1.9691759 7
5.9696035 -1.0665709 1.8712655 27
6.0542598 -1.0816963 1.2591126 5
5.2550197 -0.93984455 0.57126832 78
2.1058943 -0.37814617 1.9861088 37
2.5565994 -0.459539 1.9749495 71
3.1757114 -0.57082587 1.9809276 66
4.0256777 -0.72433102 1.9783211 55
5.3639698 -0.96609437 1.985 36
5.9890938 -1.0797639 1.5584946 29
6.0429668 -1.0905657 0.94757211 100
5.1619244 -0.932495 0.30527285 82
0.030671284 -0.0060559027 1.9891979 78
0.30780891 -0.057306647 1.9909451 103
0.42307171 -0.07776425 2.0915227 77
0.59478593 -0.10892551 1.9791006 82
0.80432963 -0.14716852 1.9859076 90
1.0325865 -0.18875694 1.9901714 89
1.2795354 -0.23390497 1.9830275 87
1.610235 -0.29436371 2.0357642 31
0.12186743 -0.023871314 1.9810979 88
0.2149124 -0.043245867 1.9983203 91
0.4980742 -0.092193916 1.9863992 91
0.6983552 -0.12903339 1.9854547 89
0.91396296 -0.16855249 1.9846202 85
1.148116 -0.21174148 1.979813 91
1.4223689 -0.26232636 1.9892817 63
1.8181411 -0.33532381 2.0825341 101
1.9267803 -0.35014749 2.0042477 34
2.3125691 -0.42025977 1.9769365 67
2.8366396 -0.51601106 1.9749157 67
3.5755327 -0.65042645 1.9880978 15
4.5799751 -0.83397156 1.9691759 4
5.923368 -1.0796599 1.8585827 27
6.0504475 -1.1028229 1.2591126 5
5.2566071 -0.95907623 0.57171458 75
2.1045618 -0.38549477 1.9861088 37
2.5549798 -0.46846038 1.9749495 73
3.1736996 -0.58190769 1.9809276 66
4.0231247 -0.73837894 1.9783211 55
5.3652096 -0.98566556 1.9866428 36
5.8896794 -1.083081 1.5350481 31
6.0439944 -1.1125494 0.94826198 100
5.1586385 -0.95050788 0.30527285 83
0.030649958 -0.0061629284 1.9891979 77
0.307607 -0.058380749 1.9909451 103
0.42279765 -0.079240575 2.0915227 75
0.59440207 -0.11100104 1.9791006 82
0.80381095 -0.14997526 1.9859076 90
1.0319214 -0.19236021 1.9901714 89
1.2787111 -0.23836999 1.9830275 87
1.631259 -0.30409545 2.0626228 39
0.12178336 -0.024296565 1.9810979 88
0.21476012 -0.04399579 1.9983203 93
0.49898538 -0.09416528 1.9912384 91
0.69790053 -0.13147031 1.9854547 89
0.913369 -0.17174178 1.9846202 83
1.14737 -0.21574785 1.979813 89
1.4244066 -0.26784673 1.9932711 38
1.8236231 -0.34292135 2.0898843 100
1.9255463 -0.35687107 2.0042477 34
2.3110878 -0.42832965 1.9769365 69
2.8348215 -0.5259096 1.9749157 69
3.5688846 -0.66209531 1.9857798 17
4.581594 -0.85079986 1.9710488 4
5.8488159 -1.0871792 1.8374448 39
6.0465612 -1.1239362 1.2591126 10
5.2581234 -0.97833037 0.57216078 74
2.1032033 -0.39283872 1.9861088 37
2.553329 -0.47737607 1.9749495 73
3.171649 -0.59298247 1.9809276 66
4.0205226 -0.75241774 1.9783211 55
5.3663783 -1.0052572 1.9882855 33
5.8237567 -1.0919881 1.5198081 99
6.0449405 -1.1345536 0.94895172 101
5.1601992 -0.96943152 0.3054744 83
0.030629354 -0.0062645338 1.9891979 78
0.30741173 -0.059400488 1.9909451 103
0.42253256 -0.080642186 2.0915227 78
0.59403074 -0.11297154 1.9791006 86
0.80330926 -0.15263996 1.9859076 90
1.0312779 -0.19578113 1.9901714 87
1.2779137 -0.24260901 1.9830275 87
1.6522892 -0.31368905 2.0894814 80
0.12170643 -0.024679039 1.9810979 88
0.21462086 -0.044670261 1.9983203 93
0.49868709 -0.095732428 1.9912384 91
0.69748408 -0.13366219 1.9854547 89
0.91279453 -0.17476968 1.9846202 81
1.1466482 -0.21955149 1.979813 89
1.4264708 -0.2731356 1.9972607 15
1.8325262 -0.35055971 2.1009099 99
1.9243524 -0.36325443 2.0042477 35
2.309655 -0.43599111 1.9769365 67
2.8330617 -0.53530735 1.9749157 63
3.5579627 -0.67228138 1.9811436 20
4.5834537 -0.86604995 1.972922 4
5.8265166 -1.1019825 1.8318081 99
6.0476274 -1.144895 1.2600452 14
5.2597427 -0.99668866 0.57260698 75
2.1018891 -0.39981106 1.9861088 37
2.5517321 -0.48584062 1.9749495 73
3.1697705 -0.60294348 1.9809276 62
4.0181389 -0.76504487 1.9783211 55
5.3631935 -1.0221111 1.9882855 33
5.8298464 -1.1121 1.5221527 100
6.0462108 -1.1544676 0.94964159 103
5.1571283 -0.98563802 0.3054744 84
0.030607298 -0.0063714115 1.9891979 80
0.30720249 -0.060473192 1.9909451 103
0.42224851 -0.082116604 2.0915227 75
0.59509897 -0.11532862 1.9838723 80
0.80277151 -0.1554431 1.9859076 90
1.0305882 -0.19937976 1.9901714 87
1.2798219 -0.24760282 1.9871606 87
1.6732171 -0.3237175 2.1163399 66
0.12161516 -0.025124948 1.9810979 88
0.2139335 -0.045345213 1.993349 93
0.49833283 -0.097559564 1.9912384 91
0.69698948 -0.1362177 1.9854547 89
0.91217881 -0.17795488 1.9846202 81
1.1458747 -0.22355272 1.979813 91
1.4255086 -0.27811328 1.9972607 15
1.831229 -0.35727391 2.1009099 98
1.9230726 -0.36996946 2.0042477 35
2.3081191 -0.44405064 1.9769365 67
2.8311758 -0.54519325 1.9749157 63
3.5512445 -0.68385923 1.9788257 23
4.5848007 -0.88372076 1.974795 4
5.8224387 -1.1233304 1.8318081 98
6.0435939 -1.1659981 1.2600452 89
5.2611213 -1.0159868 0.57305318 76
2.1004806 -0.40714556 1.9861088 38
2.5500205 -0.49474484 1.9749495 73
3.1675394 -0.61455727 1.9809276 62
4.0153084 -0.77976692 1.9783211 53
5.3640471 -1.0426625 1.9899282 32
5.8257308 -1.1334599 1.5221527 99
6.0467997 -1.1775668 0.95033139 101
5.1583843 -1.0054889 0.30567592 84
0.030584872 -0.0064782128 1.9891979 80
0.30698955 -0.06154516 1.9909451 103
0.42195928 -0.083590031 2.0915227 75
0.59469283 -0.11740521 1.9838723 80
0.8022241 -0.15824436 1.9859076 90
1.0298859 -0.20297597 1.9901714 87
1.2789496 -0.25206873 1.9871606 87
1.6689312 -0.32893619 2.1125031 64
0.12152672 -0.025549313 1.9810979 89
0.21377391 -0.046091702 1.993349 93
0.49798927 -0.099298477 1.9912384 89
0.69650978 -0.13864981 1.9854547 89
0.91155219 -0.18113789 1.9846202 80
1.1450875 -0.22755119 1.979813 91
1.421573 -0.28250006 1.9932711 21
1.8166703 -0.36102068 2.0862093 100
1.9217694 -0.37667999 2.0042477 36
2.306555 -0.45210475 1.9769365 67
2.8292553 -0.55507261 1.9749157 67
3.5444882 -0.69539827 1.9765077 28
4.5816879 -0.89971936 1.974795 5
5.8231893 -1.1445727 1.8332173 94
6.0443068 -1.1880344 1.2609777 88
5.2575431 -1.0343453 0.57305318 76
2.0990467 -0.41447514 1.9861088 38
2.5482781 -0.5036431 1.9749495 71
3.1653748 -0.62561029 1.9809276 58
4.0125613 -0.79377824 1.9783211 53
5.3650074 -1.0622973 1.9915709 30
5.8265076 -1.1547337 1.523325 99
6.0475101 -1.1996306 0.95102125 100
5.1597438 -1.0244621 0.30587748 84
0.030562073 -0.0065849344 1.9891979 80
0.30677283 -0.062616378 1.9909451 103
0.42166492 -0.085062437 2.0915227 77
0.59427935 -0.11948036 1.9838723 86
0.79975134 -0.16065887 1.9813049 91
1.0291711 -0.2065697 1.9901714 87
1.2780621 -0.25653154 1.9871606 84
1.6646297 -0.33412892 2.1086662 71
0.1214368 -0.025973365 1.9810979 88
0.21361172 -0.046837635 1.993349 93
0.49763963 -0.10103618 1.9912384 91
0.69602156 -0.14108025 1.9854547 89
0.9109143 -0.18431869 1.9846202 80
1.1442862 -0.23154692 1.979813 89
1.4205781 -0.28746054 1.9932711 37
1.8021078 -0.36467025 2.0715086 88
1.9204428 -0.38338593 2.0042477 37
2.3049626 -0.4601534 1.9769365 67
2.8273008 -0.56494516 1.9749157 67
3.5420394 -0.70776671 1.9765077 29
4.5785198 -0.91570687 1.974795 6
5.8238616 -1.165834 1.8346263 94
6.0449395 -1.2100899 1.2619104 88
5.2587829 -1.0536697 0.57349938 76
2.0975871 -0.42179969 1.9861088 39
2.5465045 -0.51253515 1.9749495 71
3.1631718 -0.63665569 1.9809276 55
4.0097666 -0.80777979 1.9783211 54
5.3705249 -1.0828851 1.9948562 30
5.8272057 -1.1760266 1.5244973 99
6.04814 -1.2217135 0.951711 100
5.156136 -1.0424666 0.30587748 81
0.030538902 -0.0066915755 1.9891979 80
0.30655238 -0.063686833 1.9909451 103
0.42136544 -0.0865338 2.0915227 75
0.59385866 -0.12155405 1.9838723 84
0.79918575 -0.16344953 1.9813049 91
1.0284438 -0.21016093 1.9901714 87
1.2771587 -0.26099125 1.9871606 76
1.6540302 -0.3380118 2.0971551 45
0.12134539 -0.0263971 1.9810979 88
0.21344693 -0.047582995 1.993349 93
0.49728391 -0.10277265 1.9912384 89
0.69552481 -0.14350894 1.9854547 89
0.91239834 -0.18793663 1.9891212 78
1.143471 -0.23553979 1.979813 89
1.4166141 -0.29180941 1.9892817 46
1.787542 -0.3682225 2.0568078 85
1.9190929 -0.39008722 2.0042477 38
2.3033423 -0.46819642 1.9769365 67
2.8212142 -0.57397723 1.9721743 67
3.5395472 -0.72012633 1.9765077 36
4.5752954 -0.93168336 1.974795 7
5.8291588 -1.1880722 1.8374448 94
6.0503058 -1.2331456 1.2637757 89
5.2550735 -1.0720198 0.57349938 74
2.0997603 -0.42986798 1.9894335 39
2.5446999 -0.52142096 1.9749495 69
3.1609302 -0.64769334 1.9809276 54
4.0069222 -0.82177162 1.9783211 57
5.3713379 -1.1025747 1.9964989 32
5.827826 -1.1973383 1.5256697 99
6.0438385 -1.242818 0.951711 100
5.1573591 -1.0614656 0.306079 81
0.030515356 -0.0067981356 1.9891979 80
0.30632821 -0.064756513 1.9909451 103
