# .PCD v0.7 - Point Cloud Data file format
VERSION 0.7
FIELDS x y z intensity
SIZE 4 4 4 4
TYPE F F F F
COUNT 1 1 1 1
WIDTH 1379
HEIGHT 1
VIEWPOINT 0 0 0 1 0 0 0
POINTS 1379
DATA ascii
-7.8330545 1.5055698 2.0145259 22
-10.01767 1.9272826 1.513221 78
-9.6494627 1.8581902 0.49007672 40
-0.030599492 0.006408799 1.9891979 71
-0.30636624 0.060697258 1.9860058 93
-0.3731856 0.073044136 1.8516566 37
-0.42344755 0.082593091 1.4255807 44
-0.80449855 0.15679748 1.99051 91
-1.0279922 0.20018071 1.9857829 81
-1.2960912 0.25239357 2.0119584 24
-1.5752696 0.3067641 1.9973947 76
-0.12215119 0.025392327 1.9910811 103
-0.21439999 0.045718543 1.9983203 80
-0.372338 0.073358454 1.4976394 36
-0.69682258 0.13706908 1.9854547 67
-0.91409779 0.17948875 1.9891212 92
-1.2121387 0.23801866 2.0907271 34
-1.4192528 0.27869299 1.9892817 84
-1.7409723 0.34187278 2.0016804 45
-1.9086143 0.36960644 1.9902295 73
-2.3381495 0.45279104 2.0020387 31
-2.9536586 0.57252288 2.0571599 15
-3.6286924 0.70337194 2.0205503 40
-4.6565351 0.90344894 2.0047636 40
-6.3955998 1.2420171 2.0037298 32
-9.9915171 1.940341 2.0238609 50
-9.7768984 1.9004332 0.98535109 5
-2.1073122 0.41114157 1.9927584 75
-2.5811508 0.50405741 1.9984947 71
-3.217562 0.62834227 2.0113168 65
-4.0678024 0.79511946 2.0034976 14
-5.4230185 1.0610025 2.0112832 36
-7.8277512 1.5329031 2.0145259 21
-10.020601 1.9641441 1.5146008 79
-9.6429176 1.8918619 0.49007672 34
-0.030576935 0.0065155718 1.9891979 71
-0.30615249 0.061766308 1.9860058 95
-0.37392694 0.07454551 1.8565518 37
-0.42462155 0.084361814 1.4303524 50
-0.80394632 0.15960474 1.99051 91
-1.0272872 0.20376784 1.9857829 81
-1.2979625 0.25746378 2.0160913 22
-1.5741892 0.31226096 1.9973947 76
-0.1220618 0.02581856 1.9910811 103
-0.21423911 0.046466663 1.9983203 86
-0.37331289 0.074905239 1.5024786 36
-0.69633991 0.13950059 1.9854547 69
-0.91346568 0.18267845 1.9891212 90
-1.2113005 0.24224839 2.0907271 34
-1.4182714 0.28364542 1.9892817 84
-1.7397684 0.34794781 2.0016804 42
-1.9073125 0.37626645 1.9902295 73
-2.3327353 0.46019647 1.9989008 31
-2.9557445 0.5836395 2.0599012 15
-3.6262155 0.71603417 2.0205503 40
-4.6533527 0.91969782 2.0047636 42
-6.3959312 1.2652653 2.0051391 32
-9.989501 1.9761595 2.0247936 49
-9.7995157 1.9403529 0.98802829 3
-2.105864 0.41849494 1.9927584 75
-2.5793755 0.51306427 1.9984947 71
-3.215349 0.63956982 2.0113168 65
-4.0783563 0.81197256 2.0097921 38
-5.4146504 1.0790029 2.0096405 38
-7.8223524 1.5602176 2.0145259 21
-10.01854 2.0000801 1.5152906 83
-9.6166592 1.9215947 0.4892706 34
-0.030554006 0.006622266 1.9891979 71
-0.30593503 0.062834598 1.9860058 95
-0.37366444 0.075850308 1.8565518 37
-0.42432448 0.085843503 1.4303524 50
-0.8033843 0.16241007 1.99051 93
-1.0265697 0.2073525 1.9857829 81
-1.2998142 0.26255012 2.0202241 20
-1.5730897 0.317754 1.9973947 76
-0.12197094 0.026244478 1.9910811 103
-0.2140756 0.047214214 1.9983203 86
-0.37304914 0.076207899 1.5024786 36
-0.69415784 0.14158551 1.980762 71
-0.91282243 0.18586592 1.9891212 90
-1.2078921 0.24595474 2.0864613 33
-1.4172726 0.28859437 1.9892817 87
-1.7385433 0.35401863 2.0016804 38
-1.9059875 0.38292193 1.9902295 73
-2.3311148 0.4683364 1.9989008 33
-2.9536893 0.59395343 2.0599012 15
-3.6193511 0.72781438 2.0182323 58
-4.6501141 0.9359355 2.0047636 32
-6.4008818 1.2894784 2.0079575 32
-9.987359 2.0119874 2.0257263 49
-9.9293737 2.0021098 1.0005223 13
-2.1043904 0.42584324 1.9927584 75
-2.5775688 0.52206486 1.9984947 69
-3.2130969 0.65078962 2.0113168 65
-4.0710487 0.82530195 2.007694 57
-5.4154797 1.0988361 2.0112832 36
-7.8216224 1.5884807 2.0156984 19
-10.021202 2.0370119 1.5166701 87
-9.6098928 1.9551516 0.4892706 34
-0.030488227 0.0067188926 1.984198 69
-0.30647436 0.064061292 1.9909451 93
-0.37339741 0.077154182 1.8565518 37
-0.42402226 0.087324157 1.4303524 50
-0.80281246 0.16521342 1.99051 95
-1.0258397 0.21093464 1.9857829 81
-1.3016462 0.26765254 2.0243571 18
-1.5719709 0.32324317 1.9973947 76
-0.12187859 0.026670076 1.9910811 103
-0.21390948 0.04796119 1.9983203 88
-0.37278086 0.077509612 1.5024786 36
-0.69365937 0.14400771 1.980762 71
-0.91216809 0.18905114 1.9891212 92
-1.207026 0.25016958 2.0864613 33
-1.4162565 0.29353982 1.9892817 87
-1.7372969 0.3600851 2.0016804 37
-1.9046392 0.38957277 1.9902295 73
-2.3294656 0.47647068 1.9989008 34
-2.9556942 0.60509878 2.0626428 15
-3.6167884 0.74044383 2.0182323 58
-4.65136 0.95309222 2.0066366 32
-6.401041 1.3127778 2.0093668 32
-9.9850864 2.0478244 2.026659 45
-9.902812 2.0327518 0.99873739 31
-2.1028912 0.43318635 1.9927584 75
-2.575731 0.53105903 1.9984947 69
-3.2108059 0.66200137 2.0113168 65
-4.0725884 0.84042484 2.0097921 57
-5.4116111 1.117733 2.0112832 36
-7.8160295 1.6157737 2.0156984 18
-10.018881 2.0729835 1.51736 87
-9.6079016 1.9896973 0.48947209 35
-0.030464586 0.0068252753 1.984198 71
-0.30624887 0.065130696 1.9909451 93
-0.37312579 0.07845711 1.8565518 37
-0.42371488 0.088803731 1.4303524 52
-0.80414313 0.16841526 1.9951125 95
-1.027442 0.21500492 1.9901714 83
-1.3034583 0.27277091 2.0284901 17
-1.5708328 0.32872838 1.9973947 76
-0.12178475 0.02709535 1.9910811 103
-0.21426119 0.04882687 2.0032918 86
-0.37250802 0.078810386 1.5024786 36
-0.69315255 0.14642815 1.980762 73
-0.9115026 0.19223404 1.9891212 90
-1.2035935 0.2538431 2.0821953 33
-1.4122742 0.2978597 1.9852921 84
-1.7393465 0.36684683 2.0053556 37
-1.9032677 0.39621881 1.9902295 73
-2.3277884 0.48459914 1.9989008 36
-2.9535639 0.61541241 2.0626428 15
-3.6141815 0.75306422 2.0182323 49
-4.648005 0.96932274 2.0066366 39
-6.4011149 1.3360935 2.0107758 32
-9.982686 2.0836701 2.0275917 45
-9.9395285 2.0764723 1.0027533 30
-2.1013663 0.44052413 1.9927584 75
-2.5738614 0.54004675 1.9984947 69
-3.2084754 0.6732052 2.0113168 65
-4.0696301 0.85463572 2.0097921 57
-5.4122977 1.1375875 2.0129259 35
-7.8150988 1.6440474 2.0168707 18
-10.021276 2.1099842 1.5187396 87
-9.6155634 2.0263135 0.49007672 36
-0.030440576 0.006931575 1.984198 71
-0.30601963 0.06619931 1.9909451 93
-0.37384528 0.07997217 1.861447 37
-0.42340231 0.090282232 1.4303524 54
-0.80355036 0.17122123 1.9951125 93
-1.0266851 0.21859005 1.9901714 81
-1.3080028 0.27849123 2.0367558 15
-1.5696759 0.33420962 1.9973947 76
-0.12168942 0.027520293 1.9910811 103
-0.21408945 0.049574483 2.0032918 86
-0.37346032 0.080374949 1.5073178 36
-0.69094992 0.14848419 1.9760692 77
-0.91082603 0.19541462 1.9891212 90
-1.2001503 0.25749576 2.0779295 32
-1.4112259 0.3027876 1.9852921 82
-1.7380553 0.37291607 2.0053556 36
-1.901873 0.40286002 1.9902295 75
-2.3260825 0.49272165 1.9989008 37
-2.9513979 0.62571847 2.0626428 15
-3.611531 0.76567549 2.0182323 49
-4.6445928 0.98554134 2.0066366 40
-6.3964124 1.3584296 2.0107758 32
-9.9801569 2.119524 2.0285242 42
-9.7519855 2.072845 0.98624349 14
-2.1034679 0.44863552 1.9960833 73
-2.5719607 0.54902792 1.9984947 69
-3.2061059 0.6844008 2.0113168 65
-4.0666218 0.86883622 2.0097921 57
nan nan nan 0
-7.8093119 1.6713172 2.0168707 17
-10.018692 2.1459892 1.5194294 87
-9.5840073 2.0546296 0.48906907 31
-0.030458566 0.0070482204 1.9891979 71
-0.30578673 0.067267112 1.9909451 93
-0.37356389 0.081276648 1.861447 37
-0.42162499 0.091442987 1.4255807 50
-0.80294776 0.1740251 1.9951125 93
-1.0259159 0.22217253 1.9901714 81
-1.3097731 0.28365096 2.040889 15
-1.571633 0.34036535 2.0012317 76
-0.12159262 0.0279449 1.9910811 104
-0.21391509 0.050321493 2.0032918 86
-0.37317747 0.081678078 1.5073178 37
-0.69042748 0.15089515 1.9760692 77
-0.91013837 0.1985928 1.9891212 92
-1.1966959 0.26112747 2.0736635 32
-1.4101604 0.30771187 1.9852921 82
-1.7334309 0.37825796 2.0016804 36
-1.9039415 0.41024756 1.9937341 75
-2.3243484 0.50083822 1.9989008 39
-2.9491956 0.63601702 2.0626428 15
-3.6045055 0.77734351 2.0159142 48
-4.6411247 1.001748 2.0066366 40
-6.3916321 1.380749 2.0107758 33
-9.9726982 2.1543484 2.0285242 40
-9.6814108 2.0931919 0.98044276 8
-2.1018889 0.45597523 1.9960833 73
-2.5700285 0.55800241 1.9984947 69
-3.2036974 0.69558799 2.0113168 67
-4.0635648 0.88302606 2.0097921 58
-4.7166514 1.0258067 1.7681657 2
-7.8081799 1.6996005 2.018043 16
-10.015979 2.1820018 1.5201193 84
-9.552371 2.0827501 0.4880614 28
-0.030433778 0.0071544982 1.9891979 71
-0.30555004 0.068334095 1.9909451 95
-0.3732779 0.082580134 1.861447 37
-0.42130321 0.092914179 1.4255807 50
-0.80233538 0.17682685 1.9951125 93
-1.0251342 0.22575228 1.9901714 81
-1.3115232 0.28882641 2.0450218 16
-1.5704353 0.34584931 2.0012317 71
-0.12121245 0.028302848 1.9860895 104
-0.21373814 0.051067889 2.0032918 84
-0.37289011 0.082980208 1.5073178 36
-0.68989652 0.15330428 1.9760692 79
-0.90943956 0.20176858 1.9891212 92
-1.1906849 0.26417327 2.0651317 32
-1.4090776 0.31263238 1.9852921 82
-1.7321 0.38430646 2.0016804 36
-1.902498 0.4168911 1.9937341 75
-2.3187838 0.50811541 1.9957631 42
-2.9469576 0.64630777 2.0626428 15
-3.6017702 0.78992081 2.0159142 31
-4.6375999 1.0179424 2.0066366 41
-6.3867736 1.4030514 2.0107758 33
-9.9699154 2.1902006 2.0294569 37
-9.5038099 2.0895448 0.96482545 37
-2.1002843 0.46330944 1.9960833 75
-2.5680649 0.56697011 1.9984947 71
-3.2012498 0.70676678 2.0113168 65
-4.0604572 0.89720517 2.0097921 58
-4.7407084 1.0483829 1.7780219 2
-7.8069458 1.7278962 2.0192153 16
-10.01797 2.2190926 1.5214988 84
-9.5157766 2.1095936 0.48685223 38
-0.030408619 0.0072606876 1.9891979 71
-0.30530965 0.069400243 1.9909451 95
-0.37298736 0.083882608 1.861447 37
-0.42097631 0.094384238 1.4255807 52
-0.80171329 0.17962645 1.9951125 95
-1.0243398 0.2293293 1.9901714 81
-1.3105071 0.29340273 2.0450218 16
-1.5692185 0.35132906 2.0012317 71
-0.12111293 0.028725786 1.9860895 104
-0.21355858 0.051813662 2.0032918 84
-0.37259817 0.084281333 1.5073178 36
-0.68935722 0.15571153 1.9760692 79
-0.90872979 0.20494187 1.9891212 92
-1.1872115 0.26775414 2.0608659 31
-1.4079777 0.31754908 1.9852921 82
-1.7307479 0.39035028 2.0016804 36
-1.9010311 0.42352948 1.9937341 75
-2.3169959 0.51620638 1.9957631 54
-2.9446838 0.65659058 2.0626428 14
-3.594667 0.80152428 2.0135961 18
-4.6340184 1.0341246 2.0066366 42
-6.3818364 1.425337 2.0107758 34
-9.9622097 2.2249885 2.0294569 35
-9.4964581 2.1227067 0.96482545 39
-2.0986543 0.47063798 1.9960833 73
-2.5660703 0.57593089 1.9984947 71
-3.1987631 0.71793687 2.0113168 65
-4.0573006 0.91137338 2.0097921 58
nan nan nan 0
-7.8008671 1.755137 2.0192153 16
-10.014995 2.2551365 1.5221887 88
-9.4888592 2.1384034 0.48604608 57
-0.030381802 0.0073720925 1.9891979 69
-0.30505326 0.070518799 1.9909451 95
-0.37366998 0.085476264 1.8663422 37
-0.42062756 0.09592656 1.4255807 52
-0.80104959 0.18256368 1.9951125 95
-1.0234925 0.23308215 1.9901714 81
-1.3121666 0.2988289 2.0491548 16
-1.5679203 0.35707816 2.0012317 74
-0.12100682 0.029169496 1.9860895 104
-0.21284899 0.052467603 1.9983203 84
-0.37228674 0.085646406 1.5073178 37
-0.68878186 0.1582371 1.9760692 87
-0.90793616 0.20842962 1.9891212 93
-1.1810907 0.27114356 2.0523338 31
-1.4067481 0.32295299 1.9852921 82
-1.7292364 0.39699298 2.0016804 36
-1.895988 0.42970598 1.9902295 73
-2.3150885 0.52469516 1.9957631 56
-2.9463353 0.66830403 2.0653841 14
-3.5917048 0.81469405 2.0135961 18
-4.6301966 1.051102 2.0066366 51
-6.3765702 1.448718 2.0107758 32
-9.9583836 2.2643135 2.0303895 33
-9.5028057 2.1624696 0.96616405 38
-2.0968318 0.47869274 1.9960833 73
-2.5638399 0.58577955 1.9984947 69
-3.2001858 0.73117417 2.0138493 64
-4.0493469 0.92593372 2.007694 59
-4.4106545 1.0093616 1.663034 2
-7.7940702 1.7850772 2.0192153 14
-10.016315 2.2940392 1.5235683 90
-9.4906979 2.1754 0.48644915 63
-0.030355884 0.0074781002 1.9891979 71
-0.30480522 0.071583204 1.9909451 95
-0.37336934 0.086780094 1.8663422 37
-0.42029017 0.097394243 1.4255807 54
-0.79850411 0.18491793 1.99051 95
-1.0226727 0.23665339 1.9901714 83
-1.3111155 0.30340737 2.0491548 16
-1.5635409 0.36182624 1.9973947 74
-0.12090427 0.029591708 1.9860895 104
-0.21266456 0.053210262 1.9983203 84
-0.37321031 0.087231778 1.512157 37
-0.68822527 0.16064045 1.9760692 89
-0.90723991 0.21143931 1.9891212 90
-1.1751051 0.2738747 2.0438018 31
-1.4056693 0.32761616 1.9852921 84
-1.7279103 0.40272516 2.0016804 37
-1.8944764 0.43632159 1.9902295 71
-2.3132427 0.53277314 1.9957631 62
-2.9439845 0.67858458 2.0653841 14
-3.5888393 0.82722652 2.0135961 38
-4.6264997 1.0672581 2.0066366 54
-6.3714743 1.4709675 2.0107758 32
-9.950819 2.2973242 2.0303895 31
-9.4955826 2.1939702 0.96616405 39
-2.095233 0.48564348 1.9960833 75
-2.5618832 0.5942784 1.9984947 71
-3.1977434 0.74178243 2.0138493 64
-4.0462537 0.93935674 2.007694 60
-4.4026833 1.0229135 1.6613913 2
-7.7833734 1.8098125 2.018043 13
-10.017895 2.3312335 1.524948 89
-9.502511 2.2130485 0.48725528 72
-0.030329596 0.0075840158 1.9891979 73
-0.30455348 0.072646737 1.9909451 92
-0.37306413 0.088082865 1.8663422 37
-0.41994762 0.098860733 1.4255807 52
-0.79785371 0.1877041 1.99051 93
-1.0218403 0.24022174 1.9901714 81
-1.3100485 0.30798218 2.0491548 16
-1.5622685 0.36728182 1.9973947 74
-0.12080023 0.030013563 1.9860895 104
-0.21247752 0.053952277 1.9983203 84
-0.37290353 0.08853399 1.512157 37
-0.68933952 0.16344 1.980762 89
-0.90649635 0.21460488 1.9891212 90
-1.1665285 0.27617234 2.0310042 31
-1.4045173 0.33252084 1.9852921 87
-1.7264941 0.40875423 2.0016804 37
-1.8929418 0.44293189 1.9902295 71
-2.3113689 0.54084456 1.9957631 62
-2.9415979 0.68885684 2.0653841 14
-3.5859296 0.8397488 2.0135961 60
-4.6227455 1.0834011 2.0066366 54
-6.3663006 1.4931992 2.0107758 34
-9.9427395 2.3320451 2.0303895 28
-9.4878654 2.2271028 0.96616405 38
-2.0935247 0.49295422 1.9960833 75
-2.5597932 0.60321742 1.9984947 69
-3.1951346 0.75294012 2.0138493 65
-4.0385327 0.95243335 2.0055959 47
-4.4818163 1.0578017 1.6909595 3
-7.7770085 1.8369706 2.018043 13
-10.024154 2.369606 1.5270175 90
-9.5093117 2.2496552 0.48785985 81
-0.030260798 0.0076785171 1.984198 71
-0.30429807 0.073709391 1.9909451 93
-0.37374452 0.089622088 1.8712374 37
-0.41959998 0.10032602 1.4255807 52
-0.79719365 0.19048797 1.99051 93
-1.0209955 0.24378715 1.9901714 83
-1.3089653 0.31255323 2.0491548 16
-1.5609767 0.37273291 1.9973947 76
-0.12069473 0.030435054 1.9860895 104
-0.21228789 0.054693632 1.9983203 86
-0.37381497 0.090130039 1.5169963 37
-0.68876475 0.16584525 1.980762 89
-0.90574169 0.21776782 1.9891212 93
-1.1604857 0.27902314 2.0224724 32
-1.403348 0.33742148 1.9852921 84
-1.7250566 0.41477832 2.0016804 38
-1.8948539 0.45036146 1.9937341 75
-2.3094671 0.54890949 1.9957631 62
-2.9391756 0.69912076 2.0653841 14
-3.5829768 0.85226095 2.0135961 61
-4.6189361 1.0995309 2.0066366 51
-6.3610492 1.5154127 2.0107758 34
-9.92976 2.3655989 2.0294569 27
-9.4751883 2.2590528 0.96571779 35
-2.0917914 0.50025898 1.9960833 75
-2.557672 0.61214906 1.9984947 71
-3.1924872 0.76408857 2.0138493 65
-4.0351839 0.9665246 2.0055959 37
-4.712307 1.1295823 1.7747364 7
-7.7705488 1.8641062 2.018043 10
-10.025451 2.4068944 1.528397 95
-9.515975 2.2863367 0.48846447 83
-0.03023381 0.0077841002 1.984198 71
-0.30403891 0.074771136 1.9909451 95
-0.37342942 0.090926148 1.8712374 37
-0.41924721 0.10179009 1.4255807 52
-0.79652387 0.19326954 1.99051 93
-1.0201384 0.24734962 1.9901714 85
-1.3078665 0.31712049 2.0491548 17
-1.5596663 0.37817949 1.9973947 76
-0.12058777 0.03085617 1.9860895 104
-0.21209568 0.05543432 1.9983203 88
-0.37349808 0.091434345 1.5169963 37
-0.6881817 0.16824846 1.980762 89
-0.90497607 0.22092813 1.9891212 92
-1.1544377 0.28183517 2.0139403 32
-1.4021616 0.34231803 1.9852921 84
-1.720305 0.41999328 1.9980052 39
-1.8932703 0.45697299 1.9937341 75
-2.3037524 0.55605429 1.9926252 64
-2.9367173 0.70937616 2.0653841 14
-3.5756731 0.86372238 2.0112782 61
-4.6150694 1.1156473 2.0066366 51
-6.355721 1.5376076 2.0107758 34
-9.921442 2.4002459 2.0294569 26
-9.472086 2.2932856 0.96616405 35
-2.0900323 0.50755769 1.9960833 75
-2.5555198 0.62107325 1.9984947 71
-3.1898005 0.77522779 2.0138493 65
-4.031785 0.98060411 2.0055959 37
-5.0387068 1.226438 1.8930098 8
-7.7639947 1.891219 2.018043 9
-10.026612 2.4442213 1.5297767 94
-9.517643 2.3219078 0.48886752 72
-0.030206453 0.0078895884 1.984198 71
-0.30377606 0.075831972 1.9909451 95
-0.37409815 0.092473537 1.8761326 37
-0.41888934 0.10325291 1.4255807 50
-0.79584438 0.19604875 1.99051 93
-1.0192688 0.25090906 1.9901714 81
-1.3094839 0.32235649 2.0532877 16
-1.5583366 0.38362142 1.9973947 78
-0.12047932 0.031276911 1.9860895 104
-0.2119009 0.056174338 1.9983203 88
-0.37317666 0.092737541 1.5169963 37
-0.68759024 0.17064965 1.980762 89
-0.90631312 0.22460963 1.9936218 92
-1.1483839 0.28460839 2.0054085 32
-1.4009582 0.34721044 1.9852921 84
-1.7188284 0.42599574 1.9980052 45
-1.8916636 0.46357897 1.9937341 75
-2.3017976 0.56409246 1.9926252 64
-2.930162 0.7186268 2.0626428 12
-3.5726364 0.87619853 2.0112782 61
-4.6111474 1.1317501 2.0066366 44
-6.3456569 1.5586395 2.0093668 35
-9.913003 2.4348636 2.0294569 25
-9.4543524 2.3239579 0.96527165 33
-2.0846224 0.51395625 1.9927584 75
-2.5533361 0.62998992 1.9984947 67
-3.1870749 0.78635758 2.0138493 63
-4.028338 0.99467176 2.0055959 58
-5.0939941 1.2587463 1.9143647 7
-7.7573457 1.918309 2.018043 12
-10.03244 2.4827745 1.5318462 94
-9.5288773 2.3599205 0.48967364 72
-0.030178729 0.0079949806 1.984198 71
-0.3035095 0.076891884 1.9909451 95
-0.37377307 0.093778826 1.8761326 37
-0.41852638 0.10471448 1.4255807 44
-0.79515517 0.19882558 1.99051 95
-1.0183867 0.25446543 1.9901714 81
-1.3083507 0.32692549 2.0532877 16
-1.5569881 0.38905871 1.9973947 78
-0.1203694 0.031697273 1.9860895 105
-0.21170351 0.056913666 1.9983203 86
-0.37407029 0.094347313 1.5218356 37
-0.68699032 0.17304873 1.980762 89
-0.90552354 0.22777186 1.9936218 92
-1.1448541 0.28797901 2.0011425 31
-1.3997376 0.35209855 1.9852921 84
-1.7173309 0.43199295 1.9980052 55
-1.886573 0.4693183 1.9902295 73
-2.2998145 0.57212377 1.9926252 64
-2.9276354 0.7288506 2.0626428 12
-3.5695562 0.88866401 2.0112782 61
-4.6071687 1.1478391 2.0066366 44
-6.3401771 1.5807806 2.0093668 34
-9.8996763 2.4682634 2.0285242 23
-9.4510136 2.3581507 0.96571779 30
-2.0828156 0.5212298 1.9927584 75
-2.5511215 0.63889885 1.9984947 69
-3.1843107 0.79747772 2.0138493 40
-4.0292435 1.0098305 2.007694 58
-5.1766 1.2983482 1.9455757 5
-7.7506022 1.9453754 2.018043 12
-10.033319 2.5201921 1.5332257 95
-9.5254259 2.3943858 0.48987517 71
-0.030192617 0.0081121856 1.9891979 73
-0.30323926 0.077950865 1.9909451 95
-0.37443018 0.095334284 1.8810278 37
-0.41815829 0.10617477 1.4255807 44
-0.7944563 0.20159997 1.99051 95
-1.0174922 0.25801873 1.9901714 83
-1.3099291 0.3321822 2.0574207 17
-1.5556206 0.39449123 1.9973947 78
-0.12025803 0.032117244 1.9860895 105
-0.21150355 0.057652302 1.9983203 88
-0.37373865 0.095652491 1.5218356 37
-0.68638211 0.17544574 1.980762 89
-0.90472293 0.23093136 1.9936218 93
-1.143842 0.29197353 2.0011425 28
-1.3985 0.35698241 1.9852921 89
-1.7158124 0.43798491 1.9980052 66
-1.8849232 0.4759008 1.9902295 73
-2.2978034 0.58014816 1.9926252 64
-2.9250736 0.73906553 2.0626428 12
-3.5664322 0.90111864 2.0112782 53
-4.6031337 1.1639141 2.0066366 43
-6.3346205 1.6029022 2.0093668 34
-9.8910007 2.5028045 2.0285242 23
-9.4572086 2.3947947 0.96705645 28
-2.0809836 0.52849704 1.9927584 75
-2.548876 0.64780009 1.9984947 71
-3.1815076 0.80858815 2.0138493 20
-4.0256939 1.0238892 2.007694 58
-5.1949196 1.3222344 1.9537891 4
-7.7437649 1.9724182 2.018043 13
-10.038857 2.5588691 1.5352951 95
-9.5266933 2.4300909 0.49027824 59
-0.030164115 0.0082175285 1.9891979 71
-0.30221349 0.078812636 1.9860058 93
-0.37409511 0.096640706 1.8810278 37
-0.41778511 0.10763377 1.4255807 50
-0.79374778 0.20437191 1.99051 93
-1.0165854 0.26156887 1.9901714 83
-1.3114868 0.33745393 2.0615535 17
-1.554234 0.39991897 1.9973947 78
-0.12042457 0.032612998 1.9910811 105
-0.21130103 0.058390237 1.9983203 86
-0.37340248 0.096956499 1.5218356 37
-0.6857655 0.17784059 1.980762 91
-0.90391129 0.234088 1.9936218 92
-1.1402912 0.29531065 1.9968767 28
-1.3972454 0.36186188 1.9852921 89
-1.7142732 0.44397151 1.9980052 71
-1.8832506 0.48247752 1.9902295 75
-2.2995353 0.58913159 1.9957631 66
-2.9265265 0.75030994 2.0653841 12
-3.5632653 0.91356236 2.0112782 53
-4.5990429 1.1799749 2.0066366 43
-6.3289866 1.6250044 2.0093668 36
-9.8774462 2.5360937 2.0275917 23
-9.6224327 2.4724078 0.98312008 13
-2.0791261 0.53575784 1.9927584 75
-2.5465989 0.65669334 1.9984947 71
-3.1786656 0.8196888 2.0138493 20
-4.0264902 1.0390693 2.0097921 58
-5.2908664 1.3663377 1.9899282 5
-7.7321258 1.9982206 2.0168707 13
-10.039452 2.5963755 1.5366749 94
nan nan nan 0
-0.030135248 0.0083227707 1.9891979 71
-0.30193654 0.07986708 1.9860058 93
-0.37375548 0.097945951 1.8810278 37
-0.41740686 0.10909146 1.4255807 48
-0.79302955 0.20714137 1.99051 95
-1.0156662 0.2651158 1.9901714 81
-1.3103009 0.34202978 2.0615535 17
-1.5528286 0.40534177 1.9973947 78
-0.12030999 0.033033155 1.9910811 105
-0.21109593 0.059127461 1.9983203 88
-0.37306178 0.098259322 1.5218356 37
-0.68514055 0.18023328 1.980762 93
-0.90308869 0.23724183 1.9936218 90
-1.1392534 0.29928923 1.9968767 28
-1.3959738 0.36673701 1.9852921 84
-1.712713 0.44995278 1.9980052 74
-1.881555 0.48904836 1.9902295 75
-2.2974651 0.59715492 1.9957631 66
-2.9238896 0.76052094 2.0653841 12
-3.5600543 0.92599493 2.0112782 61
-4.5948958 1.1960213 2.0066366 39
-6.323276 1.6470869 2.0093668 36
-9.8685331 2.5705571 2.0275917 22
-9.6089249 2.504725 0.98267382 7
-2.0772433 0.54301208 1.9927584 73
-2.5442913 0.66557866 1.9984947 71
-3.1757851 0.83077943 2.0138493 32
-4.0228386 1.0531181 2.0097921 58
-5.3545885 1.4027494 2.0145686 5
-7.7204022 2.0239661 2.0156984 14
-10.039908 2.6339171 1.5380545 94
-10.031372 2.6335492 0.5120436 92
-0.030106012 0.0084279114 1.9891979 71
-0.30165592 0.080920547 1.9860058 93
-0.37439531 0.099511653 1.8859231 37
-0.41702354 0.11054782 1.4255807 48
-0.79230165 0.20990829 1.99051 95
-1.0147346 0.26865953 1.9901714 81
-1.3118194 0.34732181 2.0656867 17
-1.5514042 0.41075972 1.9973947 78
-0.12019394 0.033452917 1.9910811 106
-0.21088824 0.059863966 1.9983203 86
-0.37271652 0.099560946 1.5218356 37
-0.68450725 0.18262376 1.980762 93
-0.90225506 0.24039276 1.9936218 93
-1.1356815 0.30259264 1.9926107 29
-1.3946853 0.37160763 1.9852921 84
-1.7111319 0.45592853 1.9980052 76
-1.8798364 0.49561319 1.9902295 73
-2.2953665 0.60517085 1.9957631 66
-2.9252598 0.77178913 2.0681257 12
-3.5568006 0.93841618 2.0112782 62
-4.5906935 1.2120533 2.0066366 39
-6.3174882 1.6691492 2.0093668 35
-9.8594999 2.6049891 2.0275917 22
nan nan nan 0
-2.0753353 0.55025965 1.9927584 73
-2.5419524 0.67445582 1.9984947 69
-3.1686985 0.84075415 2.0113168 57
-4.0191383 1.0671539 2.0097921 58
-5.3496599 1.4214319 2.0145686 5
-7.7085924 2.049654 2.0145259 14
-10.045011 2.6727669 1.5401238 95
-10.06074 2.6788328 0.51365584 98
-0.030076411 0.0085329488 1.9891979 69
-0.3013716 0.081973031 1.9860058 93
-0.3740457 0.10081793 1.8859231 37
-0.41663513 0.11200282 1.4255807 50
-0.79156405 0.21267267 1.99051 95
-1.011477 0.27157873 1.9857829 81
-1.3105991 0.35189882 2.0656867 17
-1.549961 0.41617262 1.9973947 76
-0.12007645 0.033872269 1.9910811 106
-0.210678 0.060599733 1.9983203 86
-0.37236673 0.10086136 1.5218356 37
-0.68386561 0.18501203 1.980762 91
-0.8993082 0.24297272 1.9891212 93
-1.1346184 0.30655506 1.9926107 30
-1.3933796 0.37647372 1.9852921 87
-1.70953 0.46189871 1.9980052 80
-1.8780949 0.50217205 1.9902295 73
-2.2894793 0.61217397 1.9926252 64
-2.9265876 0.78307635 2.0708671 13
-3.5492237 0.94968098 2.0089602 62
nan nan nan 0
-6.3116231 1.6911912 2.0093668 34
-9.845602 2.6381178 2.026659 20
-10.038547 2.6916947 1.0241714 74
-2.077008 0.55847013 1.9960833 75
-2.5395827 0.68332481 1.9984947 69
-3.1657445 0.85180998 2.0113168 65
-4.015389 1.081177 2.0097921 58
-5.3401055 1.4388685 2.0129259 6
-7.6920047 2.0740187 2.0121813 14
-10.045181 2.7103944 1.5415035 94
-10.046504 2.7126327 0.51345432 89
-0.030046441 0.0086378837 1.9891979 71
-0.30183262 0.083231248 1.9909451 93
-0.3736915 0.10212298 1.8859231 37
-0.41624162 0.11345647 1.4255807 50
-0.7908169 0.21543443 1.99051 95
-1.0105227 0.2751078 1.9857829 81
-1.3120779 0.35721076 2.0698195 16
-1.5484987 0.42158046 1.9973947 74
-0.11995747 0.034291204 1.9910811 107
-0.21046518 0.06133477 1.9983203 82
-0.37201238 0.10216056 1.5218356 37
-0.68321562 0.18739803 1.980762 91
-0.89845455 0.24611041 1.9891212 92
-1.1335415 0.31051373 1.9926107 30
-1.3920568 0.38133523 1.9852921 84
-1.7079072 0.46786329 1.9980052 80
-1.8763305 0.50872481 1.9902295 75
-2.2873285 0.62016201 1.9926252 66
-2.9238362 0.79328734 2.0708671 13
-3.5416114 0.96090418 2.0066421 62
-3.7812824 1.0266402 1.6713637 2
-6.3056817 1.7132126 2.0093668 34
-9.8363333 2.6724694 2.026659 19
-10.0387 2.7293327 1.0250638 71
-2.0750458 0.56571692 1.9960833 75
-2.5371819 0.69218546 1.9984947 71
-3.1627519 0.86285532 2.0113168 64
-4.0072117 1.0939912 2.007694 49
-5.3396058 1.4587446 2.0145686 6
-7.6847181 2.1008563 2.0121813 14
-10.045213 2.7480557 1.5428832 94
-10.036975 2.747685 0.51345432 87
-0.030016106 0.0087427124 1.9891979 71
-0.30154026 0.084284328 1.9909451 93
-0.37431398 0.10369872 1.8908184 37
-0.41584301 0.11490873 1.4255807 48
-0.7900601 0.21819359 1.99051 95
-1.0095563 0.27863351 1.9857829 81
-1.3108228 0.36178854 2.0698195 16
-1.5470178 0.42698315 1.9973947 76
-0.11983705 0.034709726 1.9910811 107
-0.2102498 0.062069055 1.9983203 82
-0.3728652 0.10379591 1.5266747 37
-0.68255734 0.18978177 1.980762 91
-0.89759004 0.24924512 1.9891212 90
-1.1324506 0.31446868 1.9926107 31
-1.3907174 0.38619208 1.9852921 84
-1.7062638 0.47382215 1.9980052 80
-1.8779823 0.51621658 1.9937341 75
-2.2851498 0.62814248 1.9926252 64
-2.9250808 0.80459762 2.0736086 15
-3.5339639 0.97208595 2.004324 45
-3.7776761 1.0398331 1.6713637 2
-6.2996626 1.7352129 2.0093668 23
-9.8269453 2.7067881 2.026659 20
-10.048317 2.7696512 1.0268487 73
-2.0730584 0.57295668 1.9960833 75
-2.5347502 0.70103765 1.9984947 69
-3.1597207 0.8738901 2.0113168 64
-3.9508798 1.0934454 1.9825172 21
-5.2389073 1.4509053 1.980072 4
-7.6726546 2.1263702 2.0110092 10
-10.049875 2.7870734 1.5449525 93
-10.046578 2.7880478 0.51426047 85
-0.029985406 0.0088474359 1.9891979 71
-0.30124423 0.085336395 1.9909451 95
-0.37394971 0.10500469 1.8908184 37
-0.41543937 0.11635959 1.4255807 52
-0.78929365 0.2209501 1.99051 95
-1.0108846 0.28280124 1.9901714 81
-1.3122621 0.36712015 2.0739524 17
-1.5455178 0.43238065 1.9973947 73
-0.11971515 0.035127826 1.9910811 107
-0.21003184 0.06280259 1.9983203 82
-0.3725006 0.10509681 1.5266747 37
-0.68189067 0.19216317 1.980762 93
-0.89671451 0.25237677 1.9891212 90
-1.131346 0.31841972 1.9926107 32
-1.3893608 0.39104423 1.9852921 84
-1.7045994 0.47977522 1.9980052 81
-1.8761688 0.5227688 1.9937341 75
-2.2829432 0.63611531 1.9926252 64
-2.9262824 0.81592619 2.07635 19
-3.5134799 0.97965634 1.9950519 33
-2.9881196 0.83373296 1.3417099 3
-6.2981877 1.7584823 2.0107758 14
-9.8268995 2.743716 2.0285242 13
-10.057773 2.8100693 1.0286335 73
-2.0710456 0.58018953 1.9960833 73
-2.5322878 0.70988125 1.9984947 69
-3.156651 0.88491422 2.0113168 65
-3.8946006 1.0925198 1.9573406 16
-5.4338665 1.5253415 2.0523503 2
-7.6651855 2.1531396 2.0110092 7
-10.040086 2.8221374 1.5449525 69
-10.046402 2.8258049 0.51466346 85
-0.029954338 0.0089520495 1.9891979 71
-0.30094451 0.086387411 1.9909451 96
-0.3735809 0.10630938 1.8908184 37
-0.41503072 0.11780905 1.4255807 50
-0.78851753 0.22370391 1.99051 93
-1.0098912 0.2863282 1.9901714 81
-1.3109726 0.37169856 2.0739524 17
-1.5439992 0.4377729 1.9973947 73
-0.1195918 0.035545494 1.9910811 107
-0.20981134 0.063535355 1.9983203 84
-0.3721315 0.10639644 1.5266747 37
-0.68121576 0.19454224 1.980762 91
-0.89373386 0.254908 1.9846202 90
-1.1302276 0.32236692 1.9926107 33
-1.3879874 0.39589164 1.9852921 84
-1.7029144 0.48572248 1.9980052 81
-1.8743327 0.52931464 1.9937341 75
-2.280709 0.64408046 1.9926252 66
-2.9234166 0.82613581 2.07635 31
-3.5057752 0.9907099 1.9927338 21
-2.9896524 0.84541982 1.343583 4
-6.2966266 1.7817627 2.0121851 13
-9.8267155 2.7806768 2.0303895 9
-10.047902 2.8451607 1.0286335 72
-2.0690079 0.58741534 1.9960833 73
-2.5297945 0.71871626 1.9984947 71
-3.1535428 0.89592761 2.0113168 65
-3.8820319 1.1036257 1.9531444 14
-5.3649173 1.5262092 2.0293527 2
-7.6576228 2.179883 2.0110092 5
-10.04446 2.8612366 1.547022 60
nan nan nan 0
-0.02992291 0.0090565551 1.9891979 69
-0.30138719 0.087654546 1.9958843 96
-0.37418586 0.10789496 1.8957136 37
-0.41605225 0.11966997 1.4303524 50
-0.78773189 0.22645497 1.99051 93
-1.0111883 0.29051322 1.9945602 83
-1.3096671 0.37627247 2.0739524 17
-1.5424618 0.44315982 1.9973947 74
-0.11946701 0.035962734 1.9910811 108
-0.21009855 0.064424515 2.0032918 86
-0.37296593 0.10804485 1.5315139 37
-0.68053257 0.19691895 1.980762 89
-0.89283866 0.25802615 1.9846202 90
-1.1290956 0.32631019 1.9926107 34
-1.3865969 0.40073422 1.9852921 84
-1.7012085 0.49166378 1.9980052 85
-1.8724736 0.5358541 1.9937341 75
-2.2784469 0.65203762 1.9926252 66
-2.9245348 0.83748657 2.0790915 35
-3.4724829 0.99440384 1.9765077 19
-3.0758138 0.88139158 1.3810436 6
-6.2949805 1.8050534 2.0135944 17
-9.840559 2.8217311 2.0350525 6
-9.9708929 2.8609877 1.0223866 29
-2.0669448 0.59463388 1.9960833 73
-2.5272703 0.72754252 1.9984947 71
-3.1503963 0.90693003 2.0113168 65
-3.8781562 1.1171697 1.9531444 14
-5.350482 1.5423111 2.0260673 2
-7.6593065 2.2092936 2.0133536 9
-9.9392529 2.8688145 1.5332257 29
-9.6712494 2.793288 0.4997502 18
-0.029891111 0.0091609508 1.9891979 71
-0.30107936 0.088706046 1.9958843 95
-0.37380695 0.10920046 1.8957136 37
-0.41563201 0.12112154 1.4303524 48
-0.78881234 0.22974966 1.9951125 95
-1.0101681 0.29404116 1.9945602 83
-1.3056438 0.38005522 2.0698195 17
-1.5409054 0.44854128 1.9973947 76
-0.11934074 0.036379531 1.9910811 108
-0.20987239 0.065157503 2.0032918 86
-0.37258652 0.10934608 1.5315139 37
-0.67984104 0.19929324 1.980762 91
-0.89193249 0.26114115 1.9846202 90
-1.1304525 0.33098236 1.9968767 35
-1.3851897 0.40557191 1.9852921 84
-1.6994818 0.49759912 1.9980052 85
-1.8671664 0.54139382 1.9902295 69
-2.2798958 0.66107106 1.9957631 66
-2.9215934 0.84768993 2.0790915 24
-3.2605085 0.94602823 1.8629243 9
-3.0460062 0.88436723 1.3698053 6
-6.2932487 1.8283547 2.0150034 12
-9.8259315 2.8546937 2.0341198 9
-9.9082432 2.8804827 1.0174782 23
-2.0648565 0.60184526 1.9960833 73
-2.5247154 0.73635989 1.9984947 71
-3.1472113 0.91792148 2.0113168 65
-3.8655195 1.1281574 1.9489484 13
-3.0059862 0.87787002 1.1784419 8
-7.6562138 2.2373796 2.0145259 8
-9.8721409 2.8868129 1.524948 29
-9.666235 2.8284326 0.49995172 8
-0.029858954 0.0092652347 1.9891979 71
-0.30076787 0.089756466 1.9958843 92
-0.37439981 0.11079364 1.9006088 37
-0.41520667 0.12257163 1.4303524 48
-0.78800559 0.23250175 1.9951125 95
-1.0091356 0.29756552 1.9945602 83
-1.3043092 0.38461047 2.0698195 18
-1.5393304 0.45391732 1.9973947 76
-0.11921302 0.036795884 1.9910811 109
-0.20964368 0.065889701 2.0032918 84
-0.3734082 0.1110045 1.5363531 37
-0.67914128 0.20166513 1.980762 93
-0.89310342 0.26487225 1.9891212 92
-1.1292902 0.33492634 1.9968767 36
-1.3837655 0.41040462 1.9852921 87
-1.6977346 0.50352836 1.9980052 83
-1.8652651 0.54790807 1.9902295 69
-2.2775743 0.66902536 1.9957631 64
-2.9226286 0.85906231 2.0818331 12
-3.2529361 0.95615441 1.8606063 9
nan nan nan 0
-6.2960324 1.85302 2.0178218 10
-9.792346 2.8820405 2.0294569 11
-9.8312473 2.8953547 1.0112313 17
-2.0627429 0.60904938 1.9960833 73
-2.5221295 0.74516833 1.9984947 69
-3.1398535 0.92768013 2.0087843 65
nan nan nan 0
-3.0074317 0.88969719 1.1800846 8
-7.6623402 2.2682304 2.018043 7
-9.7907801 2.9001579 1.5146008 37
-9.6323528 2.8550584 0.49894407 4
-0.029826431 0.009369405 1.9891979 73
-0.30045274 0.090805799 1.9958843 92
-0.3740108 0.11209986 1.9006088 37
-0.41334537 0.12359229 1.4255807 46
-0.78718925 0.23525098 1.9951125 95
-1.0080907 0.30108622 1.9945602 83
-1.3029587 0.38916102 2.0698195 21
-1.5377363 0.45928779 1.9973947 76
-0.11908386 0.037211791 1.9910811 109
-0.2094124 0.066621095 2.0032918 84
-0.37301847 0.11230726 1.5363531 38
-0.67843318 0.20403455 1.980762 91
-0.89217335 0.26798815 1.9891212 93
-1.1256164 0.33811596 1.9926107 37
-1.3823245 0.41523239 1.9852921 84
-1.6927198 0.50847626 1.99433 83
-1.8633412 0.55441576 1.9902295 75
-2.2752252 0.6769715 1.9957631 62
-2.9196119 0.86925894 2.0818331 12
-3.2920387 0.98014528 1.8837866 11
-3.0442007 0.9069342 1.3716784 5
-6.3033171 1.8790972 2.0220494 8
-9.7539806 2.907784 2.0238609 28
-9.7781305 2.9168422 1.0072154 53
-2.0606046 0.61624593 1.9960833 75
-2.5195129 0.7539677 1.9984947 69
-3.1365962 0.93863463 2.0087843 65
-3.0792964 0.92207307 1.5733969 7
-2.9816892 0.89341229 1.1718712 7
-7.6636868 2.297755 2.0203876 5
-9.7805977 2.9343164 1.5146008 74
-9.7036734 2.9130843 0.50237012 7
-0.029793542 0.0094734617 1.9891979 71
-0.299391 0.091626458 1.9909451 95
-0.3745915 0.11370055 1.905504 36
-0.41291142 0.12503439 1.4255807 46
-0.78636318 0.23799735 1.9951125 95
-1.0070336 0.30460328 1.9945602 83
-1.3042859 0.39452156 2.0739524 25
-1.5361238 0.46465272 1.9973947 74
-0.11895324 0.037627246 1.9910811 109
-0.20917857 0.067351669 2.0032918 86
-0.37262416 0.11360865 1.5363531 37
-0.67771679 0.20640148 1.980762 91
-0.89123243 0.27110076 1.9891212 93
-1.1244295 0.34204304 1.9926107 39
-1.3808665 0.42005506 1.9852921 84
-1.6909345 0.51438177 1.99433 83
-1.8613946 0.56091666 1.9902295 73
-2.2728481 0.6849094 1.9957631 62
-2.9205632 0.88065213 2.0845745 12
-3.1231761 0.94175005 1.7933836 7
-3.0055099 0.9068417 1.3566941 5
-6.324275 1.909408 2.0305047 7
-9.7578783 2.9460738 2.026659 25
-9.7774239 2.9538372 1.0081078 50
-2.0584412 0.62343502 1.9960833 75
-2.516866 0.76275778 1.9984947 71
-3.1333008 0.94957763 2.0087843 65
-3.0456564 0.92359668 1.5587107 7
-2.9830713 0.90518618 1.1735139 6
-7.683526 2.3329656 2.0274215 4
-9.7702951 2.9684393 1.5146008 73
-9.6695452 2.9396727 0.50136244 10
-0.029760292 0.0095774028 1.9891979 71
-0.29906934 0.092670962 1.9909451 95
-0.37419233 0.11500742 1.905504 37
-0.41247246 0.12647496 1.4255807 46
-0.7836597 0.24016827 1.99051 93
-1.0059642 0.30811664 1.9945602 81
-1.3029008 0.39907196 2.0739524 29
-1.5344925 0.47001195 1.9973947 76
-0.11882116 0.03804224 1.9910811 110
-0.20843475 0.067915373 1.9983203 86
-0.37342715 0.11527976 1.5411923 37
-0.67699218 0.20876588 1.980762 93
-0.89028066 0.27421013 1.9891212 92
-1.1232285 0.34596592 1.9926107 44
-1.3793919 0.42487261 1.9852921 87
-1.6891286 0.52028108 1.99433 83
-1.8594253 0.56741071 1.9902295 75
-2.2704434 0.69283891 1.9957631 64
-2.9174712 0.89084142 2.0845745 11
-3.145292 0.96040899 1.8072917 7
-2.9978929 0.91597271 1.3548211 7
-6.3267469 1.9342774 2.033323 2
-9.7475348 2.9801171 2.026659 18
-9.7670536 2.9879484 1.0081078 51
-2.0562522 0.63061655 1.9960833 75
-2.5141878 0.77153862 1.9984947 69
-3.129967 0.96050918 2.0087843 65
-3.0293984 0.93022567 1.5524164 7
-2.9979501 0.92114156 1.1800846 8
-7.6288753 2.3454878 2.0156984 6
-9.7693396 3.0054379 1.5159802 77
-9.6401272 2.9675283 0.50055635 29
-0.02972668 0.0096812276 1.9891979 71
-0.29874405 0.093714349 1.9909451 95
-0.37476078 0.11661551 1.9103992 37
-0.41060209 0.12747109 1.420809 40
-0.78281659 0.24290232 1.99051 95
-1.0048825 0.31162623 1.9945602 81
-1.3041875 0.40445101 2.0780854 33
-1.5328425 0.47536546 1.9973947 78
-0.11896297 0.038546491 1.9960728 111
-0.2081964 0.068642534 1.9983203 86
-0.37302247 0.11658257 1.5411923 38
-0.67625934 0.21112776 1.980762 93
-0.88931811 0.27731609 1.9891212 92
-1.1195244 0.34910822 1.9883448 54
-1.3779005 0.42968503 1.9852921 87
-1.6873024 0.52617413 1.99433 83
-1.8574333 0.5738979 1.9902295 75
-2.2642918 0.69961083 1.9926252 66
-2.9143441 0.90101987 2.0845745 11
nan nan nan 0
nan nan nan 0
-6.3795323 1.9747919 2.0516424 1
-9.7793074 3.0271976 2.0350525 5
-9.7708359 3.026444 1.0094465 46
-2.0540385 0.63779032 1.9960833 75
-2.5114794 0.78031009 1.9984947 71
-3.122478 0.9701497 2.0062518 65
-3.0174651 0.9380998 1.5482204 5
-3.0082445 0.93580902 1.1850127 8
-7.6067181 2.3677692 2.0121813 6
-9.7824316 3.0468845 1.5194294 60
-9.6440182 3.00562 0.50116092 10
-0.029692706 0.0097849341 1.9891979 71
-0.29841509 0.094756596 1.9909451 93
-0.37435147 0.11792295 1.9103992 37
-0.41015464 0.12890357 1.420809 40
-0.78196394 0.24563336 1.99051 95
-1.0015028 0.31441435 1.9901714 83
-1.3027678 0.40900102 2.0780854 35
-1.5311738 0.48071319 1.9973947 78
-0.11882769 0.038961515 1.9960728 111
-0.20795554 0.069368854 1.9983203 86
-0.37261328 0.11788395 1.5411923 38
-0.67551821 0.21348706 1.980762 93
-0.88834471 0.28041872 1.9891212 92
-1.118299 0.35301396 1.9883448 67
-1.3763921 0.43449217 1.9852921 87
-1.6854554 0.53206074 1.99433 83
-1.8554188 0.580378 1.9902295 75
-2.2618358 0.70751047 1.9926252 64
-2.911181 0.91118735 2.0845745 12
-3.3625917 1.0524805 1.9301471 14
-2.9781528 0.93272275 1.349202 5
-6.3451333 1.988441 2.0431874 3
-9.7968044 3.0701287 2.0406482 4
-9.7744684 3.0650024 1.0107851 44
-2.0517995 0.64495635 1.9960833 75
-2.5087404 0.78907204 1.9984947 71
-3.1190724 0.98104328 2.0062518 54
-2.9838676 0.93908954 1.5335339 4
-3.0094638 0.94772261 1.1866553 6
-7.6215868 2.4016113 2.018043 5
-9.8095188 3.0929263 1.524948 38
-9.6334677 3.0392656 0.50116092 9
-0.029658368 0.0098885214 1.9891979 71
-0.2980825 0.095797673 1.9909451 95
-0.37393755 0.11922897 1.9103992 37
-0.40970218 0.1303345 1.420809 44
-0.78110182 0.24836144 1.99051 93
-1.0003991 0.31790835 1.9901714 83
-1.3040142 0.41439837 2.0822184 38
-1.5294865 0.48605505 1.9973947 78
-0.11869096 0.039376061 1.9960728 110
-0.20771213 0.070094332 1.9983203 86
-0.37219951 0.11918389 1.5411923 38
-0.67476892 0.21584374 1.980762 91
-0.88736039 0.28351793 1.9891212 93
-1.1145754 0.35612157 1.9840788 71
-1.3748671 0.43929401 1.9852921 87
-1.6835878 0.5379408 1.99433 83
-1.8567815 0.58792764 1.9937341 75
-2.2593522 0.71540141 1.9926252 64
-2.9159551 0.92386961 2.0900574 13
-3.3588974 1.0642116 1.9301471 14
-2.9792981 0.9445138 1.3510751 8
-6.3107176 2.0018742 2.0347321 4
-9.8141222 3.1132193 2.0462441 4
-9.7779493 3.1036232 1.0121237 15
-2.0495358 0.65211463 1.9960833 75
-2.5059707 0.79782438 1.9984947 71
-3.115629 0.99192494 2.0062518 44
-2.9589496 0.94261146 1.5230438 5
-3.0061374 0.95822173 1.1866553 6
nan nan nan 0
-9.8222513 3.1346769 1.528397 18
-9.2515841 2.9543331 0.48544151 17
-0.029623669 0.0099919876 1.9891979 71
-0.29848513 0.097078085 1.9958843 95
-0.37351906 0.12053353 1.9103992 37
-0.40924475 0.13176383 1.420809 44
-0.78023005 0.25108647 1.99051 93
-0.99928337 0.32139844 1.9901714 83
-1.3025597 0.4189477 2.0822184 39
-1.5277805 0.49139097 1.9973947 78
-0.11855279 0.039790131 1.9960728 111
-0.20746619 0.070818961 1.9983203 84
-0.3717812 0.12048239 1.5411923 38
-0.67401135 0.21819781 1.980762 91
-0.88636535 0.28661364 1.9891212 90
-1.1133256 0.36000997 1.9840788 77
-1.3733252 0.44409052 1.9852921 84
-1.6816999 0.5438143 1.99433 83
-1.8547181 0.59440547 1.9937341 75
-2.2568414 0.72328365 1.9926252 64
-2.8967855 0.92893517 2.0790915 12
-3.4521899 1.1070448 1.9834617 31
-2.953912 0.94782579 1.3417099 8
-6.3128271 2.0268238 2.0375507 4
-9.7751322 3.138448 2.0406482 3
-9.7765388 3.1407819 1.0130161 8
-2.0472472 0.6592648 1.9960833 77
-2.5031703 0.80656695 1.9984947 67
-3.1121473 1.0027945 2.0062518 44
-2.9254043 0.94318557 1.5083573 4
-2.9758079 0.96000987 1.1767992 7
-2.9003954 0.9362402 0.82579607 6
-9.8725119 3.188731 1.5373646 10
-9.2459698 2.9881454 0.48564303 15
-0.02958861 0.010095334 1.9891979 71
-0.29814449 0.098119408 1.9958843 95
-0.37406394 0.1221528 1.9152945 37
-0.40736228 0.13272879 1.4160373 44
-0.77934885 0.25380847 1.99051 95
-0.99815536 0.32488465 1.9901714 83
-1.3037651 0.4243629 2.0863512 42
-1.5260561 0.49672097 1.9973947 78
-0.11841317 0.040203713 1.9960728 112
-0.20721772 0.071542718 1.9983203 82
-0.37255353 0.12217142 1.5460315 38
-0.67324561 0.22054923 1.980762 89
-0.88535953 0.28970587 1.9891212 90
-1.1120622 0.36389402 1.9840788 83
-1.3717668 0.44888163 1.9852921 84
-1.6797913 0.54968125 1.99433 83
-1.8526318 0.60087609 1.9937341 75
-2.254303 0.73115712 1.9926252 64
-2.8935254 0.93904114 2.0790915 12
-3.3429582 1.0849 1.925511 16
-2.8844464 0.93665391 1.3136144 8
-6.2874632 2.0429173 2.031914 4
-9.7874765 3.1801403 2.0453115 3
-9.7844601 3.1810482 1.0148009 18
-2.0449333 0.66640705 1.9960833 75
-2.5003397 0.81529981 1.9984947 48
-3.1127272 1.0149883 2.0087843 64
-2.9177794 0.95198381 1.5062593 4
-2.9724391 0.97039157 1.1767992 7
-2.7169156 0.88749707 0.78007573 7
-9.8424921 3.2170191 1.5346054 18
-9.2212372 3.0157428 0.48503843 3
-0.02955319 0.010198554 1.9891979 71
-0.29780015 0.099159524 1.9958843 95
-0.37363529 0.12345777 1.9152945 37
-0.40689647 0.13414994 1.4160373 42
-0.77845812 0.25652736 1.99051 95
-0.99473983 0.32761747 1.9857829 81
-1.3022759 0.4289113 2.0863512 46
-1.5243129 0.50204486 1.9973947 78
-0.11827211 0.04061681 1.9960728 112
-0.20696673 0.07226561 1.9983203 82
-0.37212479 0.12347113 1.5460315 37
-0.67247164 0.22289795 1.980762 89
-0.88434285 0.29279462 1.9891212 90
-1.1132611 0.36859345 1.9883448 83
-1.3701916 0.45366725 1.9852921 84
-1.6778624 0.55554146 1.99433 83
-1.8505231 0.60733932 1.9937341 75
-2.2517369 0.73902166 1.9926252 66
-2.862421 0.9400034 2.0599012 13
-3.347569 1.099327 1.9301471 16
-2.8811591 0.94671685 1.3136144 7
-6.3623252 2.0918226 2.0572793 2
-2.7625639 0.9082818 0.64358324 6
-9.763835 3.2120705 1.0139085 5
-2.0425947 0.67354113 1.9960833 75
-2.4974787 0.82402265 1.9984947 36
-3.1050708 1.0244968 2.0062518 59
-2.8842707 0.95220327 1.491573 6
-2.682049 0.88596147 1.0716674 7
-2.8337924 0.93663573 0.81055593 9
-9.8500099 3.257576 1.5373646 13
-9.1916819 3.0416346 0.48423234 3
-0.029517412 0.010301652 1.9891979 71
-0.29745221 0.10019844 1.9958843 95
-0.37416771 0.12508418 1.9201897 37
-0.40642571 0.13556944 1.4160373 44
-0.77755797 0.25924313 1.99051 95
-0.99359012 0.33108774 1.9857829 81
-1.3007708 0.43345448 2.0863512 50
-1.5255924 0.50837618 2.0012317 78
-0.11812962 0.041029409 1.9960728 112
-0.2067132 0.072987616 1.9983203 84
-0.37169152 0.12476935 1.5460315 38
-0.67168945 0.22524394 1.980762 91
-0.88331538 0.29587975 1.9891212 92
-1.1119677 0.37247717 1.9883448 87
-1.3685997 0.45844734 1.9852921 87
-1.675913 0.56139493 1.99433 85
-1.8483919 0.6137951 1.9937341 75
-2.2528381 0.74810398 1.9957631 66
-2.8392816 0.94339699 2.0461938 13
-3.3773451 1.1221809 1.9486914 28
-2.8690383 0.95384306 1.3098683 7
-2.7042398 0.89957792 0.92710453 10
-2.7127652 0.90241396 0.63425708 8
-9.8328915 3.2728701 1.021494 4
-2.040231 0.68066698 1.9960833 75
-2.4945872 0.83273548 1.9984947 31
-3.0646713 1.0230432 1.9834601 34
-2.7733107 0.92631942 1.4391216 11
-2.6117556 0.87286466 1.0470271 7
-2.6737757 0.89411104 0.77069718 10
-9.8432751 3.2935104 1.5380545 9
-9.2994461 3.1133528 0.4892706 6
-0.029481273 0.010404624 1.9891979 73
-0.2963652 0.10098535 1.9909451 95
-0.37372878 0.1263895 1.9201897 37
-0.40453491 0.13650969 1.4112656 44
-0.77849954 0.26258016 1.9951125 93
-0.99242842 0.33455399 1.9857829 81
-1.2992498 0.43799236 2.0863512 50
-1.5238087 0.5136984 2.0012317 78
-0.11798568 0.041441508 1.9960728 112
-0.20645718 0.073708735 1.9983203 86
-0.37125373 0.12606603 1.5460315 38
-0.67089915 0.22758721 1.980762 91
-0.88227719 0.29896128 1.9891212 93
-1.1106608 0.37635642 1.9883448 87
-1.3669909 0.46322185 1.9852921 84
-1.673943 0.56724155 1.99433 85
-1.8462379 0.62024349 1.9937341 75
-2.2502129 0.75596327 1.9957631 64
-2.816154 0.94664049 2.0324864 14
-3.2138336 1.0803227 1.8606063 14
-2.6064436 0.87665582 1.1993594 8
-6.3475666 2.136189 2.0572793 2
-2.7095988 0.91187775 0.63425708 8
-9.9016409 3.3341906 1.0290797 4
-2.0378428 0.68778461 1.9960833 75
-2.4916649 0.84143811 1.9984947 31
-2.934458 0.99097347 1.9049548 12
-2.7743599 0.93744731 1.4412197 11
-2.6444826 0.89407629 1.0601686 8
nan nan nan 0
-9.850482 3.3342006 1.5408137 11
-9.2553978 3.1345761 0.48785985 28
-0.029444773 0.01050747 1.9891979 73
-0.29601091 0.10201924 1.9909451 95
-0.37424871 0.12802294 1.9250849 37
-0.40405592 0.13792096 1.4112656 40
-0.77757823 0.26529604 1.9951125 93
-0.99125457 0.33801618 1.9857829 81
-1.2977129 0.44252491 2.0863512 52
-1.5220062 0.51901436 2.0012317 73
-0.11784029 0.0418531 1.9960728 112
-0.20619862 0.074428953 1.9983203 86
-0.37200099 0.12776984 1.5508708 38
-0.67010063 0.2299277 1.980762 93
-0.88122827 0.30203921 1.9891212 93
-1.1093402 0.38023105 1.9883448 87
-1.3653657 0.4679907 1.9852921 87
-1.6719528 0.5730812 1.99433 83
-1.8440617 0.62668425 1.9937341 75
-2.2475605 0.76381344 1.9957631 64
-2.7930381 0.94973427 2.0187793 14
-3.235209 1.1000919 1.8745145 14
-2.6121454 0.88873518 1.2031054 6
-2.7024353 0.919981 0.92851377 5
-2.5715439 0.875422 0.60721111 6
-9.8899422 3.3687336 1.0290797 4
-2.0354295 0.69489372 1.9960833 75
-2.4887128 0.85013044 1.9984947 39
-2.9309812 1.0012106 1.9049548 12
nan nan nan 0
-2.6815612 0.91705501 1.0749528 6
-2.6812649 0.91747648 0.77421409 8
-9.8668947 3.3781896 1.5449525 10
-9.2822104 3.1798172 0.48947209 19
-0.029407917 0.010610187 1.9891979 73
-0.29565299 0.10305188 1.9909451 93
-0.37379953 0.12932852 1.9250849 37
-0.40357202 0.13933054 1.4112656 42
-0.77664745 0.26800871 1.9951125 93
-0.99006867 0.34147424 1.9857829 81
-1.2961603 0.44705209 2.0863512 52
-1.5201852 0.52432394 2.0012317 73
-0.11769349 0.042264186 1.9960728 112
-0.20593756 0.07514827 1.9983203 80
-0.37155274 0.1290676 1.5508708 38
-0.66929394 0.23226538 1.980762 93
-0.88016856 0.30511343 1.9891212 92
-1.1080062 0.38410106 1.9883448 83
-1.3637238 0.47275391 1.9852921 87
-1.6699421 0.57891393 1.99433 81
-1.8418629 0.63311744 1.9937341 75
-2.2411993 0.77038872 1.9926252 66
-2.7778435 0.95539808 2.0105548 17
-3.1936452 1.0984104 1.8536522 12
-4.5422001 1.563115 2.0291131 3
-2.649312 0.91222829 0.91301256 8
nan nan nan 0
-9.8592892 3.3967469 1.0272949 7
-2.0329914 0.70199448 1.9960833 73
-2.4857299 0.85881257 1.9984947 64
-2.9885917 1.0325536 1.9429412 27
-3.7714789 1.3037775 1.9321641 11
-2.6783438 0.92640984 1.0749528 6
-2.6918259 0.9315992 0.77773106 9
-9.8690805 3.4174719 1.547022 11
nan nan nan 0
-0.029370701 0.010712776 1.9891979 71
-0.29529145 0.10408328 1.9909451 91
-0.37430686 0.1309689 1.9299802 37
-0.40167323 0.14024602 1.4064939 40
-0.77570719 0.27071807 1.9951125 95
-0.98887068 0.34492815 1.9857829 81
-1.2972491 0.45250064 2.0904844 52
-1.5153188 0.52857131 1.9973947 76
-0.11754524 0.042674758 1.9960728 112
-0.20567399 0.075866669 1.9983203 78
-0.37228659 0.13078076 1.55571 38
-0.66847914 0.23460025 1.980762 93
-0.87909818 0.30818391 1.9891212 92
-1.1066587 0.38796639 1.9883448 83
-1.3620652 0.47751129 1.9852921 84
-1.6679112 0.58473963 1.99433 83
-1.8396418 0.63954288 1.9937341 75
-2.2384963 0.7782073 1.9926252 66
-2.7705426 0.96371496 2.0078135 21
-3.1981602 1.1124625 1.8582883 12
-4.5148239 1.5713414 2.0197477 2
-6.3882756 2.2246296 2.077008 2
-2.6256769 0.9143545 0.61933511 8
-9.8708858 3.4393344 1.0295259 6
-2.0305285 0.70908672 1.9960833 73
-2.482717 0.86748415 1.9984947 69
-3.0663683 1.0714213 1.9935898 41
-3.7754731 1.31993 1.93636 12
-2.559196 0.89521188 1.032243 5
nan nan nan 0
-9.9225254 3.4748154 1.5566794 5
-2.6778104 0.93827754 0.20813498 6
-0.029292401 0.010799568 1.984198 71
-0.29492635 0.1051134 1.9909451 93
-0.37384742 0.13227467 1.9299802 37
-0.40118122 0.14164728 1.4064939 40
-0.77475744 0.27342412 1.9951125 93
-0.98991978 0.34917477 1.9901714 81
-1.2956617 0.45702618 2.0904844 52
-1.5134646 0.53385752 1.9973947 76
-0.11739556 0.043084808 1.9960728 112
-0.20540792 0.076584145 1.9983203 80
-0.37182784 0.13207947 1.55571 38
-0.66765612 0.23693225 1.980762 91
-0.87801701 0.31125066 1.9891212 92
-1.1052977 0.39182696 1.9883448 87
-1.3603901 0.48226288 1.9852921 84
-1.6658599 0.59055805 1.99433 83
-1.8373981 0.64596051 1.9937341 71
-2.2357662 0.7860164 1.9926252 66
-2.7592728 0.97060508 2.0023305 28
-3.3823209 1.1897732 1.9625994 23
-4.5792789 1.6117173 2.0497162 3
-6.3487968 2.2357609 2.0671437 2
-2.6410029 0.93004096 0.62306565 8
-9.8682146 3.4770792 1.0304183 5
-2.0280414 0.71617025 1.9960833 73
-2.4758627 0.87479866 1.9955517 69
-2.9853752 1.054829 1.9454737 17
-3.8435857 1.3588175 1.9720269 16
-2.5560553 0.90413976 1.032243 5
nan nan nan 0
-9.8589859 3.4912467 1.5490916 8
-2.7687004 0.9809891 0.21216559 8
