# .PCD v0.7 - Point Cloud Data file format
VERSION 0.7
FIELDS x y z intensity
SIZE 4 4 4 4
TYPE F F F F
COUNT 1 1 1 1
WIDTH 1433
HEIGHT 1
VIEWPOINT 0 0 0 1 0 0 0
POINTS 1433
DATA ascii
0.51103806 1.6884061 1.9906548 86
0.55729288 1.8587601 1.986725 77
0.67614508 2.2551579 1.9800742 69
0.82971174 2.7655921 1.9776572 20
1.0354142 3.4512258 1.9718715 10
1.3305227 4.4320631 1.9579377 49
1.8950551 6.3085575 2.0248678 3
2.7826438 9.263298 1.9278013 38
nan nan nan 0
0.61840528 2.0521584 1.9894335 77
0.74990749 2.4869692 1.9749495 73
0.92528737 3.0685804 1.9682654 69
1.1776139 3.9029169 1.9720269 7
1.5493661 5.1317596 1.9537891 46
2.208374 7.3098884 1.9324638 32
2.8229582 9.3383207 1.4511377 84
2.0553825 6.7949057 0.38004082 124
0.0095358388 0.029773636 1.9891979 75
0.09202417 0.29845598 1.9860058 97
0.12014426 0.39285222 1.9985133 95
0.1773375 0.5812124 1.9886441 89
0.23964375 0.78586304 1.9951125 95
0.3220776 1.0568104 2.0911107 29
0.39889315 1.3088404 2.0822184 23
0.46786889 1.5351472 1.9973947 73
0.037699547 0.11832267 1.9810979 88
0.067458935 0.2080217 1.993349 93
0.14911503 0.48540518 1.9912384 97
0.20832664 0.67893273 1.9854547 93
0.27296674 0.89066273 1.9891212 57
0.35968232 1.1735814 2.0779295 29
0.43707746 1.4260901 2.0491242 23
0.51692861 1.6866121 1.9906548 85
0.5637778 1.8568035 1.986725 77
0.68401295 2.2527838 1.9800742 67
0.83936042 2.7626793 1.9776572 20
1.047455 3.4475906 1.9718715 10
1.3459853 4.4273915 1.9579377 50
1.9170644 6.3019032 2.0248678 3
2.8178213 9.262928 1.9296665 34
nan nan nan 0
0.62556487 2.0499871 1.9894335 77
0.75858396 2.4843364 1.9749495 71
0.93599302 3.0653319 1.9682654 69
1.1912302 3.8987827 1.9720269 7
1.5658892 5.1218038 1.9521464 45
2.2338767 7.302135 1.9324638 38
2.8584371 9.3378801 1.4525173 86
3.0155184 9.8448887 0.50902063 51
0.0096397102 0.029740168 1.9891979 77
0.093065418 0.29813296 1.9860058 97
0.12151484 0.39243042 1.9985133 95
0.17936522 0.58058983 1.9886441 89
0.24238546 0.78502178 1.9951125 96
0.3257646 1.0556797 2.0911107 29
0.40345943 1.3074399 2.0822184 23
0.4732247 1.5335047 1.9973947 80
0.038112342 0.11819036 1.9810979 89
0.068017527 0.20727786 1.9883776 93
0.15080851 0.4848817 1.9912384 97
0.2106953 0.67820138 1.9854547 93
0.27607405 0.88970447 1.9891212 49
0.36377668 1.1723188 2.0779295 29
0.43847972 1.4130416 2.0331662 23
0.52281278 1.6847974 1.9906548 86
0.56920779 1.8514154 1.9832203 73
0.69187248 2.2503822 1.9800742 69
0.8489989 2.7597325 1.9776572 36
1.0594831 3.4439132 1.9718715 10
1.3614317 4.4226661 1.9579377 37
1.9277529 6.2584958 2.0135944 4
2.8515835 9.2577295 1.930599 32
5.3714566 17.427732 1.726952 6
0.63271683 2.047791 1.9894335 77
0.76725137 2.4816735 1.9749495 73
0.9466874 3.0620461 1.9682654 69
1.2048323 3.8946006 1.9720269 6
1.583758 5.1163063 1.9521464 45
2.2607903 7.2989364 1.9336361 38
2.8954132 9.3420362 1.4545867 89
3.0513446 9.8390741 0.50922215 96
0.0097434651 0.029706337 1.9891979 77
0.094105519 0.29780629 1.9860058 96
0.12288395 0.39200389 1.9985133 96
0.18139078 0.57996023 1.9886441 89
0.24512421 0.78417087 1.9951125 95
0.32873321 1.0522494 2.0867221 29
0.40802079 1.3060237 2.0822184 23
0.47761869 1.5287834 1.9935577 73
0.038524669 0.1180566 1.9810979 88
0.068740651 0.20703918 1.9883776 93
0.15250014 0.48435235 1.9912384 97
0.21357915 0.67910802 1.9901476 93
0.27917802 0.88873535 1.9891212 40
0.36786664 1.1710417 2.0779295 29
0.4397963 1.4000008 2.0172081 26
0.5286907 1.6829621 1.9906548 83
0.57566696 1.8494172 1.9832203 73
0.69972354 2.2479537 1.9800742 69
0.8586269 2.7567523 1.9776572 61
1.0714979 3.4401941 1.9718715 10
1.3768613 4.4178877 1.9579377 8
1.9295926 6.1876116 1.9938655 5
2.885344 9.252409 1.9315317 31
5.3684702 17.204456 1.7077649 10
0.63874638 2.0420063 1.9861088 77
0.77590936 2.4789801 1.9749495 73
0.9573701 3.058723 1.9682654 69
1.2184197 3.8903711 1.9720269 6
1.6016076 5.1107469 1.9521464 44
2.2877092 7.2956381 1.9348084 23
2.9309704 9.3413219 1.4559664 92
3.0901604 9.8426628 0.50982672 96
0.009847099 0.029672146 1.9891979 77
0.095144495 0.29747599 1.9860058 96
0.12425154 0.39157256 1.9985133 96
0.18296324 0.57789958 1.9838723 88
0.24786 0.78331047 1.9951125 95
0.33240423 1.0510955 2.0867221 30
0.41257715 1.3045915 2.0822184 23
0.48295221 1.5271069 1.9935577 69
0.038936526 0.1179214 1.9810979 88
0.069462925 0.20679796 1.9883776 93
0.15418991 0.48381707 1.9912384 97
0.21594839 0.67835838 1.9901476 93
0.28293851 0.88983071 1.9936218 40
0.37195212 1.1697506 2.0779295 30
0.44102719 1.386968 2.00125 30
0.53456211 1.6811064 1.9906548 83
0.58211905 1.8473965 1.9832203 73
0.70756602 2.2454972 1.9800742 67
0.86824465 2.7537382 1.9776572 71
1.0835 3.4364328 1.9718715 10
1.3936691 4.4174752 1.9598107 8
1.9309613 6.1167917 1.9741368 6
2.9161446 9.2375965 1.930599 30
5.377491 17.024153 1.6925937 10
0.64587039 2.0397639 1.9861088 77
0.78455788 2.4762564 1.9749495 73
0.96804118 3.0553622 1.9682654 68
1.2306206 3.8817682 1.9699289 6
1.6194378 5.1051254 1.9521464 45
2.3146322 7.2922411 1.9359808 10
2.9680572 9.3451948 1.4580358 97
3.1305516 9.8508625 0.51063287 95
0.0099506145 0.029637594 1.9891979 75
0.096182294 0.29714203 1.9860058 96
0.12561764 0.39113644 1.9985133 95
0.18497936 0.57725745 1.9838723 88
0.25059274 0.78244054 1.9951125 95
0.33607122 1.0499288 2.0867221 30
0.41712856 1.3031434 2.0822184 23
0.48827991 1.5254118 1.9935577 78
0.039347917 0.11778478 1.9810979 86
0.070356786 0.20705955 1.993349 91
0.15587781 0.48327589 1.9912384 97
0.21831498 0.67760044 1.9901476 93
0.28604287 0.8888377 1.9936218 42
0.37683198 1.1709276 2.0821953 30
0.44401923 1.3796822 1.9932711 32
0.54042697 1.6792303 1.9906548 85
0.58856422 1.8453532 1.9832203 73
0.71540004 2.2430139 1.9800742 67
0.87785167 2.7506907 1.9776572 71
1.0954888 3.4326298 1.9718715 10
1.4104906 4.4169998 1.9616836 29
1.9274788 6.0323291 1.9501805 7
2.9468772 9.222683 1.9296665 31
5.3458886 16.720665 1.6658211 7
0.65298653 2.0374973 1.9861088 77
0.79319686 2.4735029 1.9749495 73
0.97870052 3.0519645 1.9682654 68
1.244163 3.8774488 1.9699289 6
1.6372482 5.0994411 1.9521464 45
2.3415594 7.2887444 1.937153 5
3.0052061 9.3489199 1.4601052 100
3.169507 9.8541403 0.51123744 74
0.010054008 0.029602678 1.9891979 75
0.097218931 0.29680449 1.9860058 97
0.12698218 0.39069554 1.9985133 95
0.18699326 0.57660818 1.9838723 88
0.25332245 0.78156102 1.9951125 95
0.33973414 1.0487493 2.0867221 30
0.42167482 1.3016794 2.0822184 24
0.49360159 1.5236981 1.9935577 78
0.039758824 0.1176467 1.9810979 86
0.071079127 0.20681269 1.993349 91
0.15756382 0.48272884 1.9912384 97
0.22067893 0.67683423 1.9901476 93
0.28914377 0.88783377 1.9936218 40
0.38091701 1.169605 2.0821953 30
0.44883254 1.3781239 1.9932711 33
0.54628533 1.6773336 1.9906548 85
0.59500206 1.8432875 1.9832203 71
0.72322524 2.2405028 1.9800742 69
0.88744795 2.7476096 1.9776572 71
1.1074642 3.4287848 1.9718715 10
1.427326 4.416461 1.9635568 48
1.9396672 5.9981766 1.9417253 10
2.9775407 9.2076654 1.9287338 30
5.3950238 16.673475 1.6631439 6
0.6600948 2.0352056 1.9861088 77
0.80182618 2.4707191 1.9749495 73
0.98934793 3.0485296 1.9682654 70
1.2576902 3.8730824 1.9699289 7
1.6550385 5.0936952 1.9521464 43
2.3669879 7.2805262 1.937153 3
3.0424178 9.3525019 1.4621748 103
3.2085242 9.8572693 0.51184207 44
0.01015728 0.029567402 1.9891979 77
0.098254375 0.29646334 1.9860058 95
0.12834519 0.39024994 1.9985133 95
0.18900485 0.57595193 1.9838723 88
0.25544015 0.77881557 1.99051 95
0.34339285 1.0475571 2.0867221 30
0.42621595 1.3001996 2.0822184 25
0.49891728 1.5219659 1.9935577 80
0.040169243 0.1175072 1.9810979 88
0.071800612 0.20656332 1.993349 91
0.15964241 0.48337024 1.9960775 97
0.22304018 0.67605978 1.9901476 93
0.29224113 0.88681906 1.9936218 40
0.38499737 1.1682682 2.0821953 30
0.45364034 1.3765488 1.9932711 35
0.55213696 1.6754165 1.9906548 85
0.60143274 1.8411994 1.9832203 71
0.73104167 2.2379649 1.9800742 69
0.89703357 2.7444952 1.9776572 69
1.1194263 3.4248981 1.9718715 10
1.4427335 4.4114513 1.9635568 48
1.9650688 6.0050473 1.9459528 36
3.0066078 9.1878777 1.9268686 28
5.3788085 16.427368 1.6417258 6
0.66719496 2.0328889 1.9861088 77
0.81044573 2.467905 1.9749495 66
0.99998325 3.0450575 1.9682654 70
1.2712022 3.8686686 1.9699289 7
1.6728088 5.0878868 1.9521464 43
2.3939061 7.2768373 1.9383254 2
3.0796905 9.3559361 1.4642441 105
3.2476017 9.8602457 0.51244664 44
0.010260427 0.029531768 1.9891979 77
0.099288628 0.29611856 1.9860058 95
0.12970664 0.38979957 1.9985133 96
0.19101414 0.57528871 1.9838723 88
0.25815716 0.77791923 1.99051 95
0.34704745 1.046352 2.0867221 31
0.43075192 1.2987039 2.0822184 27
0.50422692 1.520215 1.9935577 80
0.040579174 0.11736628 1.9810979 88
0.07252121 0.20631143 1.993349 91
0.16132872 0.48281005 1.9960775 97
0.22539869 0.67527705 1.9901476 93
0.29671261 0.8899253 2.0026236 39
0.38907304 1.1669172 2.0821953 30
0.45748928 1.3720976 1.9892817 39
0.55798191 1.6734788 1.9906548 86
0.60897529 1.8424748 1.986725 75
0.73884922 2.2353995 1.9800742 69
0.90529519 2.7373769 1.9749157 67
1.1313745 3.42097 1.9718715 10
1.4581237 4.4063888 1.9635568 48
1.9845109 5.993598 1.9445437 39
3.0371172 9.1726637 1.925936 27
nan nan nan 0
0.67428696 2.0305476 1.9861088 77
0.81905532 2.4650609 1.9749495 48
1.0106064 3.0415485 1.9682654 70
1.2846985 3.8642075 1.9699289 7
1.6905586 5.0820165 1.9521464 41
2.417757 7.2638245 1.937153 3
3.1185894 9.3639221 1.4670035 109
3.2820008 9.8488493 0.51244664 97
0.01036345 0.029495772 1.9891979 77
0.10032167 0.29577017 1.9860058 97
0.1310665 0.38934442 1.9985133 96
0.19302112 0.57461846 1.9838723 88
0.26087102 0.7770133 1.99051 95
0.35069776 1.0451342 2.0867221 32
0.4343873 1.2945244 2.0780854 27
0.50953037 1.5184457 1.9935577 80
0.040988609 0.11722392 1.9810979 86
0.073240936 0.20605703 1.993349 93
0.16301306 0.48224396 1.9960775 97
0.22720233 0.67285115 1.9854547 93
0.30399346 0.9012652 2.0296285 39
0.39314395 1.165552 2.0821953 30
0.46227601 1.3704923 1.9892817 51
0.56382 1.6715209 1.9906548 85
0.61540294 1.8403379 1.986725 75
0.74664766 2.2328067 1.9800742 67
0.91484487 2.7342002 1.9749157 67
1.143309 3.4169998 1.9718715 10
1.4734958 4.4012718 1.9635568 48
2.0038965 5.9820852 1.9431345 37
3.0675569 9.1573486 1.9250033 26
3.3330233 9.9440622 1.0326493 27
0.68137074 2.0281816 1.9861088 77
0.82894284 2.4660182 1.9778926 32
1.0212172 3.0380023 1.9682654 69
1.2981793 3.8596997 1.9699289 8
1.7097942 5.0805602 1.9537891 41
2.4415469 7.2507348 1.9359808 5
3.1560001 9.3670588 1.4690729 110
3.3243394 9.8610039 0.51345432 98
0.010451166 0.029418508 1.984198 75
0.10135349 0.2954182 1.9860058 97
0.13242477 0.38888454 1.9985133 95
0.19502573 0.57394117 1.9838723 88
0.26358169 0.77609789 1.99051 95
0.35434383 1.0439036 2.0867221 32
0.43799889 1.2903355 2.0739524 27
0.51482761 1.5166578 1.9935577 80
0.041397549 0.11708012 1.9810979 88
0.07395976 0.20580012 1.993349 93
0.16469543 0.48167199 1.9960775 97
0.22954963 0.67205399 1.9854547 95
0.30995062 0.90844274 2.047632 37
0.39721009 1.1641726 2.0821953 30
0.46608382 1.3660178 1.9852921 67
0.56965131 1.6695427 1.9906548 85
0.62182319 1.8381786 1.986725 75
0.75443709 2.2301869 1.9800742 67
0.9243834 2.7309904 1.9749157 61
1.1552296 3.4129882 1.9718715 10
1.4888502 4.3961015 1.9635568 48
2.0247655 5.9750538 1.9431345 35
3.0979266 9.1419315 1.9240707 26
3.3565202 9.8993521 1.0295259 43
0.68844634 2.0257907 1.9861088 77
0.83754581 2.4631095 1.9778926 30
1.0318155 3.0344191 1.9682654 69
1.3116444 3.8551447 1.9699289 8
1.7275182 5.0745616 1.9537891 41
2.4637074 7.2329655 1.9336361 4
3.1950681 9.3747349 1.4718322 113
3.3506782 9.8256969 0.51244664 75
0.010553791 0.029381849 1.984198 75
0.10238408 0.2950626 1.9860058 97
0.13378142 0.38841993 1.9985133 96
0.19702797 0.57325691 1.9838723 86
0.2662892 0.77517319 1.99051 96
0.35798556 1.0426604 2.0867221 32
0.43884498 1.2781528 2.0574207 24
0.52011859 1.5148515 1.9935577 76
0.041805983 0.1169349 1.9810979 86
0.074677683 0.20554069 1.993349 93
0.16637577 0.48109415 1.9960775 97
0.23189415 0.67124861 1.9854547 93
0.31809282 0.92176545 2.0791378 37
0.40042061 1.1603137 2.0779295 29
0.47084922 1.3643826 1.9852921 84
0.57547557 1.6675441 1.9906548 86
0.62708127 1.8326225 1.9832203 73
0.76221728 2.2275398 1.9800742 67
0.93391073 2.727747 1.9749157 61
1.1657012 3.4047439 1.9695536 10
1.5041865 4.3908777 1.9635568 48
2.0440543 5.9634113 1.9417253 35
3.1282263 9.1264162 1.923138 25
3.3926706 9.8922863 1.0299721 34
0.69551349 2.0233753 1.9861088 77
0.8461386 2.460171 1.9778926 30
1.0424014 3.0307989 1.9682654 69
1.3250933 3.8505425 1.9699289 8
1.7452211 5.0685 1.9537891 43
2.4873567 7.2197256 1.9324638 4
3.2326145 9.3775702 1.4739016 115
nan nan nan 0
0.010656289 0.029344829 1.984198 75
0.10341341 0.29470339 1.9860058 97
0.13513644 0.38795057 1.9985133 96
0.19902781 0.57256567 1.9838723 86
0.26899344 0.77423894 1.99051 96
0.36162299 1.0414045 2.0867221 32
0.44053456 1.2686383 2.0450218 19
0.52540326 1.5130267 1.9935577 80
0.042213906 0.11678825 1.9810979 86
0.075394697 0.20527878 1.993349 93
0.16805407 0.48051047 1.9960775 97
0.23480508 0.67206424 1.9901476 93
0.32130849 0.92064947 2.0791378 37
0.40446845 1.1589088 2.0779295 29
0.475609 1.3627306 1.9852921 84
0.58129293 1.6655251 1.9906548 86
0.63347447 1.8304225 1.9832203 73
0.76998824 2.2248657 1.9800742 67
0.94342661 2.7244704 1.9749157 69
1.1775789 3.4006541 1.9695536 9
1.5195043 4.3856001 1.9635568 48
2.064858 5.9562397 1.9417253 36
3.1600642 9.1154404 1.923138 25
nan nan nan 0
0.70257217 2.0209351 1.9861088 75
0.85472101 2.4572024 1.9778926 39
1.0529745 3.0271418 1.9682654 68
1.338526 3.8458939 1.9699289 8
1.764456 5.0668373 1.9554318 38
2.5125432 7.2109995 1.9324638 4
3.2702188 9.3802576 1.475971 116
3.1921175 9.1510935 0.48463535 15
0.010758657 0.029307453 1.984198 75
0.10444149 0.29434061 1.9860058 96
0.13648981 0.3874765 1.9985133 95
0.2010252 0.57186747 1.9838723 89
0.27169442 0.77329522 1.99051 95
0.36525592 1.0401357 2.0867221 32
0.44123068 1.2564726 2.0284901 19
0.53068149 1.5111835 1.9935577 80
0.042621315 0.11664019 1.9810979 86
0.076110795 0.20501435 1.993349 93
0.16973034 0.47992092 1.9960775 97
0.23714957 0.67124051 1.9901476 93
0.32379538 0.91746879 2.0746372 37
0.40851128 1.15749 2.0779295 29
0.47935981 1.3582202 1.9813027 87
0.58710313 1.6634859 1.9906548 86
0.63986003 1.8282001 1.9832203 75
0.77774972 2.2221644 1.9800742 67
0.95293105 2.7211604 1.9749157 69
1.1879779 3.3923416 1.9672356 9
1.5348036 4.3802695 1.9635568 49
2.0856369 5.9489956 1.9417253 37
3.190239 9.09972 1.9222056 25
nan nan nan 0
0.7096222 2.0184703 1.9861088 77
0.86195183 2.4503911 1.9749495 64
1.0621042 3.0193808 1.9657331 68
1.3519428 3.841198 1.9699289 8
1.7633085 5.007195 1.9357196 9
2.537699 7.2021847 1.9324638 4
3.3078823 9.3827972 1.4780405 116
3.2240415 9.1398954 0.48463535 6
0.010860892 0.029269719 1.984198 77
0.1054683 0.29397425 1.9860058 96
0.13784154 0.3869977 1.9985133 95
0.20352048 0.57256955 1.9886441 88
0.27439204 0.77234215 1.99051 86
0.36888444 1.0388545 2.0867221 32
0.44278896 1.2469693 2.0160913 24
0.53595328 1.5093218 1.9935577 78
0.043028206 0.11649071 1.9810979 86
0.076825969 0.20474742 1.993349 93
0.17140454 0.47932553 1.9960775 97
0.23949119 0.67040861 1.9901476 93
0.326996 0.9163329 2.0746372 37
0.41342577 1.1585132 2.0821953 29
0.48409799 1.3565387 1.9813027 84
0.59290624 1.6614263 1.9906548 86
0.64623767 1.8259555 1.9832203 75
0.78550178 2.2194357 1.9800742 67
0.96102822 2.7138765 1.9721743 67
1.1998122 3.3881741 1.9672356 11
1.5500844 4.3748856 1.9635568 46
2.1063898 5.9416795 1.9417253 36
3.2219834 9.0885286 1.9222056 24
nan nan nan 0
0.71666366 2.015981 1.9861088 77
0.87050009 2.4473674 1.9749495 73
1.0726374 3.015655 1.9657331 70
1.3638208 3.8321793 1.9678308 9
1.8156272 5.0988832 1.9718586 3
2.5628238 7.1932831 1.9324638 4
3.34394 9.3805227 1.4794201 115
3.264318 9.1521149 0.48564303 4
0.010962997 0.02923163 1.984198 77
0.10649382 0.29360428 1.9860058 96
0.13919157 0.38651416 1.9985133 95
0.20551787 0.5718556 1.9886441 89
0.27708635 0.77137965 1.99051 75
0.3725085 1.0375605 2.0867221 32
0.44428626 1.2374706 2.0036924 28
0.54121852 1.5074419 1.9935577 80
0.043434575 0.1163398 1.9810979 86
0.077540204 0.204478 1.993349 93
0.17307667 0.4787243 1.9960775 97
0.24182989 0.6695686 1.9901476 93
0.3301926 0.91518593 2.0746372 37
0.41746721 1.157063 2.0821953 29
0.48883024 1.3548405 1.9813027 87
0.59870207 1.6593467 1.9906548 86
0.65260756 1.8236885 1.9832203 73
0.7932443 2.2166803 1.9800742 67
0.97049552 2.710505 1.9721743 67
1.2101384 3.3797944 1.9649175 12
1.5653461 4.3694482 1.9635568 46
2.1271176 5.9342904 1.9417253 35
3.2536888 9.0772266 1.9222056 26
nan nan nan 0
0.72369641 2.0134671 1.9861088 77
0.87903762 2.4443138 1.9749495 73
1.0831574 3.0118926 1.9657331 68
1.3756529 3.8231251 1.9657328 16
1.8686076 5.1902671 2.0079978 3
2.5895648 7.1888661 1.9336361 4
3.3817008 9.3827677 1.4814895 114
3.3725095 9.35215 0.49471191 11
0.011070063 0.029191252 1.984198 77
0.10756921 0.29321203 1.9860058 96
0.14060728 0.38600141 1.9985133 95
0.20761244 0.57109857 1.9886441 89
0.27991176 0.77035886 1.99051 56
0.37630886 1.0361882 2.0867221 33
0.44689763 1.2305439 1.9954264 30
0.54674 1.5054481 1.9935577 80
0.043860689 0.11617982 1.9810979 86
0.078289129 0.20419243 1.993349 95
0.17483011 0.47808671 1.9960775 97
0.24428238 0.66867763 1.9901476 95
0.33370423 0.91391134 2.0746372 36
0.42190695 1.1554515 2.0821953 29
0.49402884 1.3529537 1.9813027 87
0.60506904 1.6570355 1.9906548 86
0.65928733 1.8212844 1.9832203 73
0.80136347 2.213758 1.9800742 67
0.98042351 2.7069302 1.9721743 69
1.2225178 3.3753362 1.9649175 13
1.5813504 4.3636813 1.9635568 48
2.1488535 5.9264545 1.9417253 35
3.2885189 9.0646658 1.9222056 25
nan nan nan 0
0.73142219 2.0106735 1.9861088 77
0.88841665 2.4409206 1.9749495 73
1.0947143 3.0077114 1.9657331 68
1.3887694 3.8135502 1.9636347 27
1.9176241 5.2629213 2.0375662 3
2.6171489 7.1788697 1.9336361 4
3.4211564 9.3842688 1.483559 114
3.5077715 9.6166391 0.50660223 38
0.011171892 0.029152432 1.984198 77
0.10859205 0.29283476 1.9860058 97
0.14195383 0.38550827 1.9985133 95
0.20960468 0.57037038 1.9886441 89
0.28259909 0.76937711 1.99051 54
0.37992352 1.0348684 2.0867221 33
0.45022041 1.2263347 1.9912933 32
0.55199164 1.5035304 1.9935577 80
0.044265963 0.11602601 1.9810979 86
0.079001419 0.20391791 1.993349 95
0.17649788 0.47747356 1.9960775 97
0.24601714 0.66620201 1.9854547 95
0.33673304 0.91279966 2.0746372 36
0.42573625 1.1540461 2.0821953 29
0.49851269 1.3513079 1.9813027 87
0.61056072 1.6550199 1.9906548 85
0.66564077 1.818972 1.9832203 75
0.80908602 2.2109475 1.9800742 67
0.98986655 2.703491 1.9721743 69
1.2342925 3.3710482 1.9649175 14
1.5965728 4.3581347 1.9635568 48
2.1695275 5.9189177 1.9417253 35
3.3202505 9.0583229 1.923138 22
nan nan nan 0
0.73937392 2.0117419 1.9894335 77
0.89650613 2.4379611 1.9749495 73
1.1046822 3.0040648 1.9657331 68
1.3998407 3.8046649 1.9615366 9
1.9383286 5.2653961 2.0408514 4
2.6409404 7.1701517 1.9336361 4
3.4590297 9.3862104 1.4856285 114
3.5776143 9.7027731 0.5108344 44
0.011273585 0.029113255 1.984198 75
0.10961358 0.29245391 1.9860058 97
0.14329864 0.38501042 1.9985133 95
0.21159439 0.56963521 1.9886441 89
0.285283 0.76838595 1.99051 52
0.38353354 1.0335358 2.0867221 33
0.45449835 1.2247558 1.9912933 32
0.55723655 1.5015944 1.9935577 80
0.044670701 0.11587079 1.9810979 84
0.079712741 0.20364089 1.993349 95
0.17816351 0.47685456 1.9960775 97
0.24834111 0.66533923 1.9854547 93
0.33991721 0.91161871 2.0746372 37
0.42976201 1.1525531 2.0821953 30
0.50322658 1.3495595 1.9813027 87
0.61633402 1.6528786 1.9906548 86
0.67198604 1.8166374 1.9832203 75
0.81679881 2.2081096 1.9800742 64
0.99929744 2.7000194 1.9721743 69
1.2460521 3.3667192 1.9649175 15
1.6117759 4.3525357 1.9635568 58
2.1901753 5.9113083 1.9417253 35
3.355263 9.0558901 1.9250033 20
nan nan nan 0
0.74639177 2.0091486 1.9894335 77
0.90501076 2.4348168 1.9749495 73
1.1151617 3.0001903 1.9657331 68
1.413113 3.7997551 1.9615366 9
1.950109 5.2408943 2.0342808 6
2.667649 7.1654453 1.9348084 4
3.4969587 9.3880005 1.4876978 115
3.5940144 9.6434126 0.5088191 34
0.01137514 0.02907373 1.984198 75
0.11063377 0.29206949 1.9860058 96
0.14464168 0.38450783 1.9985133 95
0.21358149 0.56889313 1.9886441 89
0.28796342 0.76738542 1.99051 54
0.38798031 1.034434 2.0911107 33
0.45877081 1.2231617 1.9912933 33
0.56247473 1.4996401 1.9935577 74
0.045074891 0.11571415 1.9810979 86
0.080423094 0.20336141 1.993349 93
0.17982696 0.47622973 1.9960775 97
0.25066209 0.66446829 1.9854547 93
0.3430973 0.91042656 2.0746372 37
0.43378255 1.1510457 2.0821953 31
0.50793433 1.3477947 1.9813027 87
0.62209994 1.6507171 1.9906548 86
0.67832321 1.8142806 1.9832203 73
0.82450151 2.205245 1.9800742 56
1.0087162 2.6965146 1.9721743 69
1.2562444 3.3581998 1.9625994 14
1.6269591 4.3468823 1.9635568 60
2.2107961 5.9036274 1.9417253 35
3.3902991 9.0533237 1.9268686 18
1.4169887 3.7818666 0.45480755 32
0.7534005 2.006531 1.9894335 77
0.9135043 2.4316428 1.9749495 73
1.1256274 2.9962792 1.9657331 68
1.4279649 3.7990477 1.9636347 29
1.9417942 5.163332 2.0079978 5
2.6926448 7.1560893 1.9348084 4
3.5349422 9.3896408 1.4897673 116
3.6452646 9.6775608 0.5108344 31
0.011476558 0.029033843 1.984198 77
0.11165261 0.29168156 1.9860058 96
0.145983 0.38400063 1.9985133 96
0.21503609 0.56674773 1.9838723 88
0.29064032 0.7663756 1.99051 54
0.39158878 1.0330733 2.0911107 32
0.46204022 1.2189215 1.9871606 38
0.56770599 1.4976677 1.9935577 74
0.045478538 0.11555611 1.9810979 86
0.081132464 0.20307945 1.993349 93
0.18103969 0.47442397 1.9912384 97
0.25297996 0.6635893 1.9854547 93
0.34627318 0.90922344 2.0746372 37
0.43779781 1.1495246 2.0821953 32
0.51263595 1.3460134 1.9813027 84
0.62785822 1.6485356 1.9906548 85
0.68465215 1.8119017 1.9832203 73
0.83357036 2.2059953 1.983212 38
1.0181227 2.6929774 1.9721743 69
1.2663925 3.3496506 1.9602815 12
1.6421227 4.341177 1.9635568 63
2.2313902 5.895874 1.9417253 35
3.4253581 9.0506229 1.9287338 17
1.4301813 3.776897 0.45480755 34
0.7604 2.0038891 1.9894335 77
0.92198676 2.4284394 1.9749495 73
1.1360795 2.992332 1.9657331 68
1.442829 3.7982826 1.9657328 53
1.9514167 5.1344504 1.9997842 5
2.7158799 7.1421032 1.9336361 4
3.5729792 9.3911295 1.4918368 115
nan nan nan 0
0.011577835 0.028993607 1.984198 73
0.11267007 0.29129001 1.9860058 97
0.14732252 0.38348868 1.9985133 95
0.21701311 0.56599367 1.9838723 88
0.29331374 0.76535636 1.99051 56
0.3951925 1.0317001 2.0911107 32
0.46629223 1.2173014 1.9871606 46
0.5729304 1.4956769 1.9935577 78
0.045881622 0.11539666 1.9810979 86
0.08184085 0.20279498 1.993349 93
0.18269464 0.47378916 1.9912384 97
0.25529477 0.6627022 1.9854547 93
0.34944487 0.90800917 2.0746372 37
0.44087103 1.1455555 2.0779295 31
0.5173313 1.3442158 1.9813027 84
0.63360882 1.6463339 1.9906548 85
0.69097263 1.8095008 1.9832203 75
0.84126562 2.2030723 1.983212 27
1.0275166 2.6894069 1.9721743 69
1.2780771 3.3452096 1.9602815 12
1.6572663 4.3354187 1.9635568 63
2.2519569 5.8880491 1.9417253 35
3.4464006 9.0110807 1.923138 24
1.4380171 3.7579288 0.45346895 35
0.76605326 1.997736 1.9861088 77
0.93045801 2.4252062 1.9749495 73
1.1465178 2.9883478 1.9657331 70
1.4560786 3.7932229 1.9657328 57
1.9557825 5.0923395 1.9866428 5
2.7407939 7.1325793 1.9336361 4
3.6110702 9.3924675 1.4939061 114
nan nan nan 0
0.01167897 0.028953016 1.984198 73
0.11368618 0.29089496 1.9860058 97
0.14866026 0.38297212 1.9985133 95
0.21898748 0.56523269 1.9838723 88
0.29598355 0.76432788 1.99051 54
0.39792657 1.0280801 2.0867221 32
0.47053856 1.2156663 1.9871606 65
0.57814777 1.4936677 1.9935577 80
0.046175778 0.11496728 1.9761063 86
0.082548246 0.20250809 1.993349 95
0.18434738 0.47314855 1.9912384 97
0.25823253 0.66341519 1.9901476 93
0.35182297 0.9047541 2.0701361 38
0.44203126 1.1367174 2.0651317 29
0.52202034 1.3424019 1.9813027 87
0.63935179 1.6441121 1.9906548 85
0.69728482 1.8070779 1.9832203 67
0.84895074 2.2001224 1.983212 27
1.0368981 2.6858039 1.9721743 67
1.2897463 3.3407278 1.9602815 12
1.6707191 4.3252821 1.9616836 60
2.2724962 5.8801522 1.9417253 35
3.4742928 8.9898329 1.9212729 23
1.456514 3.7668204 0.45480755 30
0.773022 1.9950497 1.9861088 77
0.93891788 2.4219437 1.9749495 73
1.1569421 2.9843278 1.9657331 70
1.4709517 3.7923481 1.9678308 57
1.9581692 5.0458579 1.9718586 7
2.7639153 7.1184382 1.9324638 4
3.6474206 9.3890381 1.4952859 112
nan nan nan 0
0.011779964 0.028912073 1.984198 75
0.11470091 0.29049635 1.9860058 96
0.14999616 0.38245082 1.9985133 95
0.22095917 0.56446487 1.9838723 88
0.3000735 0.76692867 1.999715 47
0.40151283 1.0266849 2.0867221 32
0.47477916 1.2140164 1.9871606 80
0.58335811 1.4916406 1.9935577 80
0.046576809 0.11480539 1.9761063 86
0.08325462 0.2022187 1.993349 95
0.18599784 0.47250217 1.9912384 97
0.26054671 0.66250974 1.9901476 95
0.35497901 0.90352052 2.0701361 39
0.44313529 1.1278853 2.0523338 25
0.526703 1.3405714 1.9813027 87
0.64508688 1.6418703 1.9906548 86
0.70358843 1.8046329 1.9832203 67
0.85662538 2.1971455 1.983212 36
1.046267 2.682168 1.9721743 67
1.3013998 3.3362055 1.9602815 14
1.6858069 4.3194242 1.9616836 60
2.2912631 5.8677154 1.9403161 34
3.5002916 8.9639235 1.918475 23
1.4750905 3.7756293 0.45614618 26
0.77998132 1.9923393 1.9861088 77
0.94736636 2.4186511 1.9749495 73
1.1673523 2.9802709 1.9657331 68
1.4841806 3.7871907 1.9678308 57
1.960256 4.999424 1.9570745 9
2.7887464 7.1087461 1.9324638 5
3.6856003 9.3900785 1.4973553 111
nan nan nan 0
0.011880815 0.028870776 1.984198 75
0.11571423 0.2900942 1.9860058 96
0.15133025 0.38192493 1.9985133 95
0.22347751 0.56507897 1.9886441 89
0.30777645 0.77859455 2.0319328 38
0.40509418 1.025277 2.0867221 32
0.47901398 1.2123517 1.9871606 82
0.58856136 1.4895953 1.9935577 78
0.04697727 0.11464211 1.9761063 86
0.083959989 0.20192686 1.993349 93
0.18764605 0.47185004 1.9912384 97
0.26285771 0.66159618 1.9901476 93
0.35732734 0.90025187 2.0656354 40
0.44418308 1.1190594 2.039536 22
0.53137928 1.3387247 1.9813027 87
0.65081418 1.6396086 1.9906548 86
0.70988345 1.8021659 1.9832203 75
0.8642897 2.1941419 1.983212 46
1.0556232 2.6784995 1.9721743 69
1.3146616 3.3357637 1.9625994 19
1.7008742 4.3135133 1.9616836 60
2.3117313 5.8596821 1.9403161 33
3.5279548 8.9425116 1.9166098 23
1.4937462 3.7843537 0.45748481 2
0.7869311 1.9896045 1.9861088 77
0.95580322 2.4153295 1.9749495 73
1.1777482 2.9761779 1.9657331 68
1.4973912 3.781987 1.9678308 57
1.9742168 4.9837694 1.9537891 15
2.811753 7.094451 1.9312915 6
3.7238317 9.3909664 1.4994247 111
nan nan nan 0
0.01198152 0.028829128 1.984198 75
0.11672614 0.2896885 1.9860058 97
0.1526625 0.38139439 1.9985133 95
0.22544862 0.56429547 1.9886441 89
0.3133907 0.78477275 2.0503428 34
0.4086706 1.0238569 2.0867221 32
0.48324296 1.2106723 1.9871606 82
0.59256899 1.4845544 1.9897208 76
0.047377162 0.11447744 1.9761063 86
0.084664337 0.20163256 1.993349 93
0.18929198 0.47119215 1.9912384 97
0.26516551 0.66067463 1.9901476 93
0.36046761 0.89899909 2.0656354 47
0.4451746 1.1102401 2.0267382 23
0.53604907 1.3368618 1.9813027 87
0.65653348 1.637327 1.9906548 85
0.71616995 1.7996769 1.9832203 75
0.87194335 2.1911116 1.983212 66
1.0665131 2.678683 1.9749157 69
1.3262975 3.3311546 1.9625994 29
1.7159208 4.3075495 1.9616836 60
2.3321714 5.8515763 1.9403161 15
3.5573297 8.9255781 1.9156771 22
nan nan nan 0
0.79387128 1.9868455 1.9861088 77
0.96272802 2.4082253 1.9720063 73
1.18813 2.9720488 1.9657331 68
1.5105838 3.776737 1.9678308 57
1.9916015 4.9768476 1.9537891 39
2.8365002 7.0845923 1.9312915 8
3.7602723 9.387104 1.5008044 112
3.9437819 9.8402395 0.52131402 36
0.012082079 0.028787129 1.984198 75
0.11773663 0.28927928 1.9860058 97
0.15399288 0.38085917 1.9985133 95
0.22741702 0.56350505 1.9886441 89
0.32197535 0.7981683 2.087163 31
0.41224205 1.022424 2.0867221 32
0.48746607 1.2089779 1.9871606 82
0.59774745 1.4824768 1.9897208 76
0.047776476 0.11431135 1.9761063 88
0.08536765 0.20133579 1.993349 91
0.1909356 0.47052854 1.9912384 97
0.26747009 0.65974504 1.9901476 93
0.36442104 0.89975375 2.0701361 49
0.44708923 1.1038449 2.0182064 28
0.54184377 1.3377759 1.9852921 87
0.66097218 1.631883 1.9869798 85
0.72244763 1.797166 1.9832203 75
0.87958652 2.1880546 1.983212 69
1.0758569 2.6749439 1.9749157 59
1.3395706 3.3306148 1.9649175 36
1.7309465 4.3015342 1.9616836 46
2.3543746 5.8478503 1.9417253 12
3.5866299 8.9085503 1.9147446 22
nan nan nan 0
0.80080181 1.9840622 1.9861088 77
0.9711284 2.4048498 1.9720063 73
1.1984971 2.9678831 1.9657331 65
1.5254581 3.7756495 1.9699289 57
2.0089617 4.9698658 1.9537891 45
2.8612127 7.0746484 1.9312915 10
3.7985892 9.3876934 1.5028739 111
3.9818563 9.8356752 0.52171707 24
0.012182491 0.028744781 1.984198 77
0.11874569 0.28886655 1.9860058 97
0.15532139 0.3803193 1.9985133 96
0.22938263 0.56270778 1.9886441 88
0.32475951 0.79703957 2.087163 31
0.41580844 1.0209788 2.0867221 31
0.49168319 1.2072692 1.9871606 82
0.60291862 1.4803813 1.9897208 76
0.048175201 0.11414389 1.9761063 88
0.086069919 0.20103656 1.993349 91
0.19257687 0.46985918 1.9912384 97
0.2697714 0.65880734 1.9901476 95
0.36755952 0.89847618 2.0701361 47
0.44797704 1.095036 2.0054085 32
0.54651016 1.3358763 1.9852921 84
0.66666448 1.6295658 1.9869798 86
0.73005819 1.7979376 1.986725 75
0.88721883 2.1849709 1.983212 67
1.0851878 2.6711721 1.9749157 59
1.3511885 3.3259184 1.9649175 40
1.7442057 4.2911711 1.9598107 45
2.374773 5.8395963 1.9417253 12
3.6177046 8.895977 1.9147446 23
nan nan nan 0
0.80772263 1.9812547 1.9861088 79
0.97951698 2.4014454 1.9720063 73
1.2088497 2.9636817 1.9657331 65
1.5386283 3.7703016 1.9699289 57
2.0245123 4.9584503 1.9521464 45
2.8877282 7.0691166 1.9324638 14
3.8369558 9.3881292 1.5049433 110
4.0350742 9.86796 0.52373236 10
0.012282755 0.02870208 1.984198 75
0.11975329 0.28845027 1.9860058 97
0.15664801 0.37977484 1.9985133 96
0.23134546 0.56190372 1.9886441 88
0.32828325 0.79770762 2.0917654 33
0.41936985 1.0195212 2.0867221 32
0.49696487 1.2081478 1.9912933 82
0.60808247 1.4782677 1.9897208 78
0.048573345 0.11397503 1.9761063 86
0.086771145 0.2007349 1.993349 91
0.19421582 0.4691841 1.9912384 97
0.27206942 0.65786165 1.9901476 95
0.3715252 0.89920044 2.0746372 40
0.45080075 1.0910553 2.0011425 33
0.55116987 1.3339605 1.9852921 87
0.67234862 1.6272287 1.9869798 86
0.73632973 1.7953782 1.986725 75
0.89484042 2.1818607 1.983212 69
1.092918 2.6634996 1.9721743 69
1.3627899 3.3211815 1.9649175 48
1.759174 4.2850571 1.9598107 43
2.3951428 5.8312716 1.9417253 26
3.6468692 8.8787498 1.9138119 23
nan nan nan 0
0.81463361 1.9784232 1.9861088 77
0.98789364 2.3980117 1.9720063 73
1.2191874 2.959444 1.9657331 66
1.5517797 3.7649078 1.9699289 57
2.0418081 4.9513531 1.9521464 45
2.9123864 7.0589933 1.9324638 12
3.873482 9.3838329 1.5063229 108
4.0694952 9.8538141 0.52373236 4
0.012382869 0.028659031 1.984198 75
0.12075945 0.28803053 1.9860058 97
0.15797271 0.3792257 1.9985133 96
0.23330545 0.56109273 1.9886441 88
0.33106577 0.79655683 2.0917654 33
0.42292607 1.018051 2.0867221 32
0.50117904 1.2064058 1.9912933 82
0.61323881 1.4761361 1.9897208 78
0.048970893 0.11380479 1.9761063 86
0.087471306 0.2004308 1.993349 91
0.19585238 0.46850327 1.9912384 97
0.27369899 0.65531552 1.9854547 93
0.37550035 0.89990783 2.0791378 39
0.45259783 1.0846614 1.9926107 35
0.55582291 1.3320284 1.9852921 87
0.67802465 1.624872 1.9869798 85
0.74259228 1.792797 1.986725 75
0.9024511 2.1787236 1.983212 69
1.1022086 2.6596682 1.9721743 69
1.3743746 3.3164043 1.9649175 48
1.774121 4.2788901 1.9598107 42
2.415483 5.8228745 1.9417253 28
3.6778395 8.8659658 1.9138119 23
5.6677189 13.656122 1.4177284 3
0.82153463 1.9755677 1.9861088 75
0.99625826 2.3945487 1.9720063 75
1.2295103 2.9551702 1.9657331 68
1.5649123 3.7594681 1.9699289 57
2.0590794 4.9441957 1.9521464 45
2.9370093 7.0487843 1.9324638 12
3.9119308 9.3839674 1.5083923 104
4.1134815 9.8626022 0.52474004 17
0.012482833 0.028615631 1.984198 75
0.12176412 0.28760725 1.9860058 97
0.1592955 0.37867194 1.9985133 96
0.23526262 0.5602749 1.9886441 88
0.33460039 0.7971977 2.0963681 33
0.42647713 1.0165685 2.0867221 32
0.50538713 1.204649 1.9912933 84
0.61838782 1.4739865 1.9897208 78
0.049367849 0.11363316 1.9761063 86
0.088170409 0.20012425 1.993349 91
0.19748658 0.46781677 1.9912384 97
0.2766555 0.6559462 1.9901476 91
0.37863934 0.89859158 2.0791378 39
0.45638123 1.0830748 1.9926107 34
0.56046921 1.3300802 1.9852921 87
0.68500882 1.6256195 1.9906548 85
0.74884582 1.790194 1.986725 75
0.91005075 2.1755605 1.983212 69
1.1098715 2.6519475 1.9694327 67
1.3859427 3.3115866 1.9649175 58
1.7872556 4.2683945 1.9579377 35
2.4339402 5.8099833 1.9403161 26
3.708765 8.8530741 1.9138119 23
5.6595268 13.503059 1.4047884 3
0.82842565 1.9726878 1.9861088 67
1.0046107 2.3910565 1.9720063 73
1.2414882 2.9548349 1.9682654 68
1.5780257 3.7539828 1.9699289 58
2.0763252 4.9369783 1.9521464 45
2.9597113 7.0340099 1.9312915 25
3.944663 9.3702564 1.5083923 104
4.1537023 9.8619976 0.52534461 85
0.012582644 0.028571883 1.984198 75
0.12276732 0.28718045 1.9860058 96
0.16061632 0.3781136 1.9985133 95
0.2372169 0.55945027 1.9886441 88
0.33738106 0.79602492 2.0963681 33
0.43002301 1.0150737 2.0867221 32
0.50958908 1.2028775 1.9912933 84
0.6235292 1.4718189 1.9897208 78
0.049764201 0.11346013 1.9761063 86
0.088868447 0.19981524 1.993349 93
0.19911836 0.46712458 1.9912384 97
0.27826723 0.65338886 1.9854547 75
0.38177371 0.89726442 2.0791378 39
0.45913798 1.0790753 1.9883448 34
0.5651086 1.3281156 1.9852921 89
0.69067907 1.6232184 1.9906548 85
0.75509018 1.7875692 1.986725 77
0.91763932 2.1723702 1.983212 69
1.1191218 2.648057 1.9694327 67
1.3974938 3.3067288 1.9649175 44
1.796728 4.24932 1.9523187 15
2.454206 5.8014517 1.9403161 24
3.7377315 8.8355503 1.9128793 24
5.6891575 13.441946 1.4007725 3
0.83530653 1.9697841 1.9861088 54
1.0145297 2.3912561 1.9749495 73
1.2517951 2.9504833 1.9682654 68
1.5911201 3.7484517 1.9699289 57
2.0916998 4.925354 1.9505038 45
2.9842465 7.0236354 1.9312915 26
3.9889715 9.3837738 1.5125313 109
4.1959224 9.8658276 0.52615076 87
0.012682302 0.028527789 1.984198 77
0.12376902 0.28675014 1.9860058 96
0.16193521 0.37755066 1.9985133 95
0.23916832 0.55861884 1.9886441 89
0.34015766 0.79484236 2.0963681 34
0.43356368 1.0135665 2.0867221 33
0.51378477 1.2010913 1.9912933 84
0.628663 1.4696335 1.9897208 78
0.050277635 0.1135503 1.9810979 88
0.089565381 0.19950384 1.993349 91
0.20124504 0.46758199 1.9960775 97
0.28054631 0.65241349 1.9854547 62
0.38490337 0.89592624 2.0791378 40
0.46290183 1.0774661 1.9883448 35
0.56974113 1.3261349 1.9852921 89
0.69634092 1.6207975 1.9906548 85
0.76132536 1.7849225 1.986725 75
0.92521673 2.1691539 1.983212 69
1.1283585 2.6441345 1.9694327 67
1.4090279 3.3018305 1.9649175 26
1.8188313 4.260077 1.9598107 4
2.4725575 5.7884383 1.9389069 22
3.7666206 8.8179312 1.9119467 24
5.6714616 13.270885 1.3860475 3
0.84217727 1.9668564 1.9861088 38
1.0228707 2.3877003 1.9749495 75
1.2620865 2.9460959 1.9682654 68
1.6041948 3.7428746 1.9699289 55
2.10888 4.9180226 1.9505038 46
3.0068288 7.008709 1.9301192 24
4.0275626 9.3834448 1.5146008 95
4.2362485 9.864892 0.52675533 83
0.012781804 0.028483346 1.984198 77
0.1247692 0.28631639 1.9860058 97
0.16325213 0.37698311 1.9985133 95
0.24111679 0.55778056 1.9886441 89
0.34293011 0.79365015 2.0963681 34
0.43709901 1.0120468 2.0867221 33
0.51797426 1.1992905 1.9912933 78
0.63378912 1.46743 1.9897208 78
0.05067369 0.11337411 1.9810979 88
0.090261236 0.19918996 1.993349 91
0.20287597 0.46687669 1.9960775 97
0.28282195 0.65143019 1.9854547 44
0.38802844 0.89457726 2.0791378 45
0.46562219 1.073451 1.9840788 39
0.57436675 1.324138 1.9852921 89
0.70199442 1.6183569 1.9906548 85
0.76755124 1.7822541 1.986725 75
0.93278283 2.1659112 1.983212 69
1.1375812 2.6401796 1.9694327 67
1.4205449 3.2968922 1.9649175 14
1.8667241 4.3303318 1.9935253 3
2.4908481 5.7753673 1.9374977 22
3.7954328 8.8002195 1.9110141 22
5.6684251 13.136693 1.3748922 4
0.84903777 1.9639046 1.9861088 38
1.0311989 2.3841155 1.9749495 75
1.2723626 2.9416723 1.9682654 66
1.61725 3.737252 1.9699289 55
2.1260343 4.9106312 1.9505038 46
3.0293436 6.9937096 1.9289469 25
nan nan nan 0
4.2786074 9.8683805 0.52756149 74
0.012881152 0.028438555 1.984198 75
0.12576789 0.28587911 1.9860058 97
0.16456705 0.37641093 1.9985133 95
0.24306235 0.55693555 1.9886441 88
0.34569836 0.79244828 2.0963681 34
0.44062904 1.010515 2.0867221 33
0.52215737 1.1974753 1.9912933 76
0.63890755 1.4652088 1.9897208 76
0.051069129 0.11319654 1.9810979 88
0.090955995 0.19887368 1.993349 91
0.20450443 0.46616569 1.9960775 96
0.28509414 0.65043908 1.9854547 44
0.39114869 0.89321738 2.0791378 52
0.46936637 1.0718192 1.9840788 54
0.57898533 1.3221251 1.9852921 89
0.70763922 1.6158967 1.9906548 85
0.77376783 1.779564 1.986725 75
0.9403376 2.1626418 1.983212 69
1.1467903 2.6361926 1.9694327 69
1.4320445 3.2919133 1.9649175 14
1.9040293 4.3747988 2.0160019 3
2.5109925 5.7666373 1.9374977 24
3.8222058 8.7779093 1.9091487 18
5.6307092 12.925071 1.3561515 3
0.85588789 1.9609289 1.9861088 38
1.0395147 2.3805013 1.9749495 73
1.2826232 2.9372129 1.9682654 68
1.6302857 3.7315841 1.9699289 55
2.1431623 4.9031801 1.9505038 46
3.0517902 6.9786396 1.9277744 26
nan nan nan 0
4.3210416 9.8716908 0.52836758 71
0.012980344 0.028393418 1.984198 75
0.12676501 0.28543836 1.9860058 96
0.16587998 0.3758342 1.9985133 95
0.24440268 0.55471694 1.9838723 89
0.347675 0.7894488 2.0917654 34
0.44318846 1.006778 2.0823333 34
0.52633423 1.1956453 1.9912933 82
0.64401823 1.4629697 1.9897208 74
0.051463947 0.11301758 1.9810979 88
0.091649644 0.19855498 1.993349 91
0.20613042 0.46544898 1.9960775 97
0.28736284 0.64943993 1.9854547 46
0.39426422 0.89184654 2.0791378 59
0.47205037 1.067789 1.979813 71
0.58359694 1.3200961 1.9852921 89
0.71327537 1.6134168 1.9906548 85
0.77997488 1.7768521 1.986725 77
0.94788092 2.1593463 1.983212 69
1.1559855 2.6321735 1.9694327 69
1.4417453 3.2828381 1.9625994 34
1.9453967 4.4275455 2.0422242 4
2.529176 5.7534451 1.9360884 24
3.8587537 8.7780046 1.9119467 14
5.6697769 12.891663 1.3548129 3
0.86272758 1.9579294 1.9861088 48
1.0478179 2.376858 1.9749495 73
1.2928681 2.932718 1.9682654 69
1.6433015 3.7258706 1.9699289 53
2.1602647 4.8956695 1.9505038 47
3.0761318 6.9679446 1.9277744 26
nan nan nan 0
4.3635511 9.8748274 0.52917373 71
0.013098208 0.028387297 1.9891979 77
0.12776062 0.28499413 1.9860058 96
0.16719086 0.37525287 1.9985133 95
0.24633752 0.55386043 1.9838723 88
0.35042858 0.78823036 2.0917654 34
0.44475427 1.0008463 2.0735562 33
0.53050458 1.1938008 1.9912933 84
0.64912099 1.4607128 1.9897208 74
0.051858138 0.11283725 1.9810979 89
0.092342161 0.19823384 1.993349 93
0.20775388 0.4647266 1.9960775 97
0.28962806 0.64843291 1.9854547 48
0.39737496 0.89046484 2.0791378 59
0.47577477 1.0661347 1.979813 87
0.5882014 1.3180509 1.9852921 87
0.71890301 1.6109171 1.9906548 85
0.78617251 1.7741187 1.986725 75
0.95541263 2.1560245 1.983212 69
1.1651663 2.6281223 1.9694327 67
1.4531957 3.2777853 1.9625994 53
1.9608399 4.4207277 2.0422242 6
2.5492439 5.7445817 1.9360884 25
3.9013262 8.7914219 1.9175423 12
5.6783681 12.789863 1.3467811 3
0.87107444 1.9583178 1.9894335 64
1.0561084 2.3731861 1.9749495 73
1.3030974 2.9281871 1.9682654 69
1.6562971 3.7201116 1.9699289 56
2.1773405 4.8880987 1.9505038 47
3.0984573 6.9527245 1.9266022 27
nan nan nan 0
4.4061346 9.8777857 0.52997983 79
0.013197219 0.028341401 1.9891979 77
0.12875465 0.28454641 1.9860058 96
0.16849972 0.37466699 1.9985133 95
0.24826936 0.55299717 1.9838723 88
0.35317788 0.78700233 2.0917654 34
0.44628409 0.9949159 2.0647788 29
0.53466851 1.1919416 1.9912933 82
0.65421587 1.4584379 1.9897208 80
0.0522517 0.11265554 1.9810979 86
0.09303356 0.19791031 1.993349 93
0.20937482 0.46399856 1.9960775 97
0.29188979 0.6474179 1.9854547 54
0.40048087 0.88907236 2.0791378 54
0.47949335 1.0644674 1.979813 89
0.59279865 1.3159897 1.9852921 87
0.7245217 1.608398 1.9906548 85
0.79236054 1.7713636 1.986725 73
0.96293271 2.1526763 1.983212 69
1.1743331 2.6240389 1.9694327 67
1.4646286 3.2726929 1.9625994 54
1.9667869 4.3927002 2.0328591 6
2.5692806 5.7356482 1.9360884 26
3.9400229 8.795682 1.9212729 8
5.6822453 12.679073 1.3378569 3
0.87790489 1.9552653 1.9894335 79
1.0643859 2.3694851 1.9749495 75
1.3133106 2.9236207 1.9682654 68
1.6692727 3.7143075 1.9699289 55
2.1943901 4.8804684 1.9505038 47
3.1227081 6.9418664 1.9266022 27
nan nan nan 0
4.4467411 9.8760118 0.53058445 81
0.013296069 0.028295163 1.9891979 77
0.12974712 0.28409526 1.9860058 96
0.16980654 0.37407652 1.9985133 95
0.25019816 0.55212712 1.9838723 86
0.35592288 0.78576475 2.0917654 35
0.44777784 0.98898691 2.0560014 22
0.53882581 1.190068 1.9912933 82
0.65930277 1.4561454 1.9897208 78
0.052644625 0.11247246 1.9810979 86
0.093723841 0.19758435 1.993349 93
0.21099319 0.46326491 1.9960775 97
0.29414791 0.64639509 1.9854547 54
0.40448323 0.88965148 2.0836387 49
0.48320615 1.0627872 1.979813 87
0.59738868 1.3139123 1.9852921 87
0.73013163 1.605859 1.9906548 85
0.79853892 1.7685869 1.986725 71
0.9704411 2.1493018 1.983212 67
1.1834855 2.6199238 1.9694327 67
1.4760433 3.2675602 1.9625994 54
1.9687438 4.3562369 2.0197477 6
2.5892863 5.7266445 1.9360884 29
3.9828446 8.8087311 1.9268686 6
5.6710505 12.536652 1.3258091 3
0.88472474 1.952189 1.9894335 79
1.0726504 2.3657553 1.9749495 75
1.323508 2.9190185 1.9682654 68
1.6822278 3.7084579 1.9699289 53
2.2133641 4.877079 1.9521464 49
3.1469204 6.9309239 1.9266022 27
5.4213476 11.93469 1.9181429 3
4.4791207 9.8558807 0.53038293 56
0.013394756 0.028248578 1.9891979 77
0.13073801 0.28364062 1.9860058 93
0.17111127 0.37348151 1.9985133 95
0.25274518 0.55260867 1.9886441 88
0.35866353 0.78451753 2.0917654 36
0.44824001 0.98088092 2.0428357 22
0.54297668 1.1881799 1.9912933 84
0.66438168 1.4538351 1.9897208 76
0.053036902 0.11228801 1.9810979 86
0.09441296 0.197256 1.993349 91
0.21260899 0.46252558 1.9960775 97
0.29640242 0.6453644 1.9854547 52
0.40758622 0.88823414 2.0836387 42
0.48691303 1.061094 1.979813 87
0.60197145 1.3118191 1.9852921 87
0.73573273 1.6033006 1.9906548 86
0.80470765 1.7657888 1.986725 71
0.9779377 2.1459014 1.983212 64
1.1926236 2.6157768 1.9694327 67
1.4874403 3.262388 1.9625994 54
1.9820138 4.3451195 2.0178747 6
2.6112518 5.7219357 1.9374977 30
4.011529 8.7903061 1.925936 5
5.7106404 12.507718 1.3249168 3
0.89153373 1.9490887 1.9894335 79
1.080902 2.3619967 1.9749495 73
1.3354833 2.9183011 1.9707979 68
1.6951625 3.7025633 1.9699289 53
2.2303751 4.8693233 1.9521464 49
3.1710947 6.9198971 1.9266022 29
5.4629745 11.915692 1.9181429 3
4.5218287 9.8583498 0.53118902 43
0.013493281 0.028201647 1.9891979 77
0.13172729 0.28318253 1.9860058 93
0.17241393 0.37288192 1.9985133 95
0.25467262 0.55172306 1.9886441 89
0.36139983 0.78326076 2.0917654 36
0.44865102 0.97278374 2.0296695 22
0.54594237 1.1837221 1.9871606 82
0.66945243 1.4515072 1.9897208 76
0.053428538 0.11210219 1.9810979 86
0.095100939 0.19692522 1.993349 91
0.21422224 0.46178064 1.9960775 97
0.29937914 0.64589155 1.9901476 52
0.41159946 0.88878208 2.0881395 39
0.49061397 1.0593879 1.979813 87
0.60654694 1.3097098 1.9852921 87
0.74132484 1.6007227 1.9906548 86
0.81086648 1.7629691 1.986725 75
0.98542231 2.1424749 1.983212 46
1.2034951 2.6153965 1.9721743 67
1.4988191 3.2571762 1.9625994 56
1.9777824 4.2960644 1.9991444 7
2.6312094 5.7127862 1.9374977 32
4.0421886 8.7762489 1.925936 5
5.6979933 12.365589 1.3128691 3
0.89676678 1.9425745 1.9861088 79
1.0891403 2.3582094 1.9749495 73
1.345662 2.9136219 1.9707979 68
1.7080766 3.6966238 1.9699289 55
2.2493401 4.8657947 1.9537891 55
3.1952302 6.9087858 1.9266022 30
5.52741 11.945991 1.9257309 4
4.5310283 9.7881012 0.52877069 45
0.01359164 0.028154377 1.9891979 78
0.13271499 0.28272101 1.9860058 96
0.17371446 0.37227783 1.9985133 95
0.25659692 0.55083072 1.9886441 89
0.36413172 0.78199452 2.0917654 37
0.45002201 0.96686774 2.0208921 27
0.550071 1.1818092 1.9871606 84
0.67451507 1.4491615 1.9897208 78
0.053819526 0.11191501 1.9810979 86
0.095787756 0.19659206 1.993349 93
0.21583284 0.46103004 1.9960775 97
0.3016319 0.64484257 1.9901476 48
0.41469935 0.88733989 2.0881395 38
0.49430892 1.0576689 1.979813 87
0.61111492 1.3075845 1.9852921 87
0.74690783 1.5981252 1.9906548 86
0.81701541 1.7601279 1.986725 77
0.99289495 2.1390219 1.983212 36
1.2126172 2.6111798 1.9721743 67
1.5120457 3.2559426 1.9649175 54
1.9790928 4.2597041 1.9860331 8
2.6511345 5.7035666 1.9374977 32
4.0707278 8.7576313 1.9250033 4
5.7033238 12.264341 1.3048373 3
0.90354216 1.9394324 1.9861088 79
1.0973653 2.354393 1.9749495 73
1.3558242 2.9089069 1.9707979 69
1.7228878 3.694752 1.9720269 55
2.2663112 4.857914 1.9537891 56
3.2193272 6.8975902 1.9266022 30
5.5376472 11.859317 1.9153837 3
4.6053438 9.8582268 0.53259975 61
0.013689835 0.028106762 1.9891979 77
0.13370106 0.28225598 1.9860058 96
0.1750129 0.3716692 1.9985133 95
0.25851813 0.54993165 1.9886441 89
0.36685914 0.78071868 2.0917654 37
0.4503386 0.95878559 2.0077264 32
0.55419296 1.1798819 1.9871606 84
0.67956948 1.4467981 1.9897208 78
0.054209851 0.11172646 1.9810979 89
0.096473403 0.1962565 1.993349 93
0.21744081 0.4602738 1.9960775 97
0.30903763 0.65470952 2.0229971 42
0.41872317 0.8878566 2.0926404 37
0.49799785 1.0559369 1.979813 87
0.61567551 1.3054434 1.9852921 87
0.75248176 1.5955082 1.9906548 85
0.82315445 1.7572652 1.986725 75
1.0003555 2.1355429 1.983212 29
1.2217245 2.6069312 1.9721743 59
1.5234019 3.2506447 1.9649175 56
1.9821419 4.2275853 1.974795 8
2.6710274 5.6942778 1.9374977 32
4.0991869 8.7389212 1.9240707 3
5.6657043 12.073044 1.2878814 3
0.91030657 1.9362665 1.9861088 81
1.105577 2.3505483 1.9749495 73
1.36597 2.9041564 1.9707979 68
1.7357745 3.6887157 1.9720269 53
2.2832549 4.8499732 1.9537891 55
3.2433844 6.8863106 1.9266022 31
5.5790105 11.839913 1.9153837 3
4.6482482 9.8601656 0.53340584 45
0.013787862 0.028058805 1.9891979 77
0.1346855 0.28178757 1.9860058 95
0.1763092 0.37105602 1.9985133 95
0.26043615 0.54902595 1.9886441 86
0.36874509 0.77766812 2.087163 38
0.45163038 0.95287788 1.9989488 35
0.55830812 1.1779401 1.9871606 82
0.68461561 1.4444172 1.9897208 78
0.054599516 0.11153655 1.9810979 88
0.097157888 0.19591856 1.993349 93
0.21904615 0.459512 1.9960775 97
0.31428951 0.65985858 2.0417681 39
0.42181984 0.88638955 2.0926404 37
0.50168073 1.0541922 1.979813 87
0.62022865 1.3032863 1.9852921 87
0.75804657 1.5928718 1.9906548 86
0.82928342 1.7543812 1.986725 69
1.0094674 2.1355574 1.9863497 22
1.230817 2.6026504 1.9721743 61
1.5347394 3.245307 1.9649175 56
1.9750775 4.1745439 1.9541916 12
2.6908882 5.6849194 1.9374977 33
4.1254635 8.7156801 1.9222056 3
nan nan nan 0
0.91705984 1.9330772 1.9861088 79
1.1137753 2.3466747 1.9749495 73
1.3760991 2.8993707 1.9707979 66
1.7486399 3.6826341 1.9720269 53
2.3001704 4.8419738 1.9537891 53
3.2674024 6.8749471 1.9266022 31
5.6288109 11.838256 1.9181429 4
4.6955156 9.8709507 0.5346151 40
0.013885722 0.028010506 1.9891979 77
0.13566831 0.28131571 1.9860058 96
0.17760335 0.37043834 1.9985133 96
0.26235104 0.54811347 1.9886441 86
0.37145743 0.77637625 2.087163 38
0.45392022 0.94913447 1.9945602 37
0.56241649 1.1759841 1.9871606 84
0.6896534 1.4420186 1.9897208 80
0.054988522 0.11134529 1.9810979 86
0.097841173 0.1955782 1.993349 93
0.22010355 0.45761108 1.9912384 97
0.32257125 0.67120028 2.0793102 38
0.42491132 0.88491178 2.0926404 36
0.5053575 1.0524346 1.979813 87
0.62477422 1.3011134 1.9852921 87
0.76360208 1.5902162 1.9906548 83
0.83540231 1.7514758 1.986725 62
1.0169157 2.1320207 1.9863497 20
1.2398944 2.5983381 1.9721743 67
1.5460583 3.2399302 1.9649175 48
1.9896374 4.167624 1.9541916 12
2.7107155 5.6754918 1.9374977 33
4.1495104 8.6879282 1.9194076 2
1.7841502 3.7338452 0.46373177 3
0.92218947 1.9264957 1.9827838 81
1.1219598 2.3427725 1.9749495 73
1.3862114 2.8945494 1.9707979 68
1.7595229 3.6724148 1.9699289 52
2.3150165 4.8296561 1.9521464 48
3.2892787 6.859117 1.9254299 26
5.6636739 11.805142 1.9160736 4
4.7385898 9.8725147 0.53542119 33
0.013983412 0.027961865 1.9891979 77
0.13664944 0.28084046 1.9860058 96
0.17889534 0.36981612 1.9985133 96
0.26426271 0.54719436 1.9886441 89
0.37416521 0.77507496 2.087163 38
0.4561893 0.94538641 1.9901714 38
0.56651801 1.1740137 1.9871606 84
0.69468278 1.4396025 1.9897208 80
