# .PCD v0.7 - Point Cloud Data file format
VERSION 0.7
FIELDS x y z intensity
SIZE 4 4 4 4
TYPE F F F F
COUNT 1 1 1 1
WIDTH 1318
HEIGHT 1
VIEWPOINT 0 0 0 1 0 0 0
POINTS 1318
DATA ascii
-1.924716 -0.34146595 2.0007432 39
-2.3449714 -0.41601959 2.0020387 66
-2.9007096 -0.51408929 2.0160377 30
-3.6177065 -0.64115787 2.0089602 60
-4.6615982 -0.82532459 2.0010173 40
-6.4533029 -1.1413788 2.0150034 25
-9.6549978 -1.7076528 1.9529821 98
nan nan nan 0
-2.1292667 -0.37468627 2.006058 36
-2.5981526 -0.45672727 2.0043812 69
-3.2330787 -0.56833649 2.0138493 65
-4.0957274 -0.71924222 2.0097921 55
-5.4845829 -0.96214867 2.0260673 8
-7.8758497 -1.3802255 2.0192153 27
-9.9022131 -1.7335593 1.4925267 80
-4.0696139 -0.7117281 0.26033148 11
-0.030879296 -0.004885762 1.9891979 69
-0.30870098 -0.052288499 1.9909451 95
-0.37076542 -0.063679077 1.8320756 36
-0.42515346 -0.07330744 1.4255807 60
-0.80962241 -0.13971888 1.9951125 95
-1.0390993 -0.17949672 1.9989488 83
-1.2900758 -0.22284533 1.9954264 34
-1.5846004 -0.27371594 2.0012317 76
-0.12291418 -0.019637143 1.9860895 99
-0.21717767 -0.033552542 2.0032918 84
-0.37037921 -0.063139208 1.4831219 28
-0.70174122 -0.11984569 1.9901476 67
-0.92035139 -0.15749958 1.9936218 92
-1.2175878 -0.20835793 2.0907271 34
-1.4256346 -0.24395482 1.9892817 82
-1.7488027 -0.29925039 2.0016804 83
-1.9258962 -0.33474535 2.0007432 64
-2.3464093 -0.40783158 2.0020387 66
-2.9024866 -0.50396073 2.0160377 30
-3.6199229 -0.62852579 2.0089602 60
-4.6644511 -0.80904746 2.0010173 42
-6.4572473 -1.1188456 2.0150034 25
-9.6560583 -1.6731014 1.9520494 98
-9.8286819 -1.7012448 0.98668975 7
-2.1305621 -0.36725143 2.006058 15
-2.5997312 -0.44765526 2.0043812 69
-3.235043 -0.55704761 2.0138493 64
-4.0982132 -0.70494109 2.0097921 54
-5.4879084 -0.94299811 2.0260673 8
-7.8806195 -1.3527254 2.0192153 26
-9.9033222 -1.6981465 1.4918368 81
-4.9288878 -0.844284 0.29539785 2
-0.030896164 -0.0047779437 1.9891979 69
-0.30888161 -0.051210608 1.9909451 95
-0.37098545 -0.062384475 1.8320756 36
-0.42687947 -0.072071485 1.4303524 60
-0.8101052 -0.13689193 1.9951125 95
-1.0397195 -0.17586851 1.9989488 83
-1.288071 -0.21787146 1.9912933 34
-1.5855461 -0.26818302 2.0012317 76
-0.12298197 -0.019207973 1.9860895 99
-0.21676545 -0.032715235 1.9983203 80
-0.36935666 -0.061639011 1.4782826 27
-0.70215529 -0.11739542 1.9901476 67
-0.92089558 -0.15428601 1.9936218 93
-1.22088 -0.20453742 2.0949931 35
-1.4264777 -0.23897697 1.9892817 84
-1.7498366 -0.29314414 2.0016804 86
-1.927053 -0.32802066 2.0007432 73
-2.3478186 -0.39963859 2.0020387 66
-2.90835 -0.49452704 2.0187793 32
-3.6220944 -0.61588603 2.0089602 61
-4.6672468 -0.79276061 2.0010173 46
-6.4611135 -1.0962987 2.0150034 25
-9.6569967 -1.6385636 1.9511167 98
nan nan nan 0
-2.1318309 -0.35981217 2.006058 15
-2.6012781 -0.43857777 2.0043812 69
-3.2369676 -0.54575175 2.0138493 64
-4.1006489 -0.69063139 2.0097921 53
-5.4911666 -0.92383599 2.0260673 10
-7.8852935 -1.3252084 2.0192153 26
-9.9043055 -1.6627471 1.491147 83
-4.9318047 -0.82707387 0.29539785 2
-0.030912653 -0.0046700663 1.9891979 69
-0.30905852 -0.0501321 1.9909451 95
-0.37120095 -0.061089117 1.8320756 37
-0.42712846 -0.070580967 1.4303524 60
-0.81057817 -0.13406329 1.9951125 95
-1.0379635 -0.17184685 1.9945602 83
-1.2888238 -0.2133739 1.9912933 35
-1.5864726 -0.26264676 2.0012317 71
-0.12276196 -0.01873537 1.9810979 99
-0.21687832 -0.031958383 1.9983203 80
-0.36956957 -0.060349341 1.4782826 26
-0.70256078 -0.11494373 1.9901476 67
-0.92142856 -0.15107054 1.9936218 90
-1.2215866 -0.20027451 2.0949931 35
-1.4273032 -0.23399617 1.9892817 87
-1.7508492 -0.28703427 2.0016804 81
-1.9281863 -0.32129201 2.0007432 75
-2.3491993 -0.39144078 2.0020387 58
-2.9100587 -0.48437199 2.0187793 32
-3.628592 -0.60396618 2.0112782 62
-4.6699858 -0.77646399 2.0010173 46
-6.464901 -1.0737385 2.0150034 25
-9.6578112 -1.6040395 1.9501841 99
-9.8501453 -1.6342169 0.98758215 34
-2.1330738 -0.3523685 2.006058 35
-2.602793 -0.42949492 2.0043812 69
-3.2388532 -0.53444922 2.0138493 65
-4.1030345 -0.67631322 2.0097921 53
-5.4896984 -0.90389538 2.0244248 10
-7.8898711 -1.2976757 2.0192153 26
-9.9100494 -1.6281646 1.491147 82
-4.9248018 -0.80823547 0.2949948 32
-0.030928766 -0.0045621325 1.9891979 69
-0.30923161 -0.04905298 1.9909451 93
-0.37040663 -0.059631266 1.8271804 37
-0.42737222 -0.069089584 1.4303524 60
-0.81104118 -0.13123304 1.9951125 95
-1.0385571 -0.16822264 1.9945602 81
-1.2895608 -0.20887376 1.9912933 35
-1.5873798 -0.25710735 2.0012317 69
-0.12282661 -0.018306734 1.9810979 99
-0.21698855 -0.031201143 1.9983203 80
-0.36977798 -0.059058934 1.4782826 25
-0.70295775 -0.11249063 1.9901476 69
-0.92195022 -0.14785324 1.9936218 90
-1.2222781 -0.19600916 2.0949931 35
-1.4281112 -0.22901252 1.9892817 87
-1.7518405 -0.28092092 2.0016804 83
-1.9292961 -0.31455946 2.0007432 75
-2.3505514 -0.38323817 2.0020387 39
-2.9117317 -0.47421101 2.0187793 34
-3.6306782 -0.59129632 2.0112782 61
-4.672667 -0.760158 2.0010173 47
-6.4686093 -1.0511653 2.0150034 25
-9.6585035 -1.5695298 1.9492514 99
-9.9049463 -1.6078029 0.99204421 58
-2.1342907 -0.34492055 2.006058 44
-2.6042764 -0.42040688 2.0043812 69
-3.2406988 -0.52314031 2.0138493 65
-4.10537 -0.66198683 2.0097921 53
-5.4928203 -0.8847273 2.0244248 12
-7.8943529 -1.2701269 2.0192153 25
-9.9107828 -1.5927764 1.4904572 82
-4.9275932 -0.79103976 0.2949948 63
-0.030944504 -0.0044541433 1.9891979 69
-0.30940098 -0.04797326 1.9909451 95
-0.37061253 -0.058337942 1.8271804 37
-0.42761078 -0.067597352 1.4303524 60
-0.81149429 -0.12840116 1.9951125 95
-1.039138 -0.16459639 1.9945602 81
-1.2930615 -0.20481133 1.9954264 34
-1.5882676 -0.2515648 2.0012317 76
-0.12288976 -0.017877879 1.9810979 99
-0.21709614 -0.030443519 1.9983203 84
-0.3687391 -0.057573855 1.4734434 24
-0.70334613 -0.11003617 1.9901476 69
-0.92246079 -0.14463411 1.9936218 93
-1.2229549 -0.19174141 2.0949931 35
-1.4318795 -0.22449289 1.9932711 87
-1.7528105 -0.27480415 2.0016804 83
-1.9303823 -0.30782303 2.0007432 73
-2.3518748 -0.37503082 2.0020387 16
-2.9133694 -0.46404427 2.0187793 34
-3.63272 -0.5786193 2.0112782 61
-4.675292 -0.74384266 2.0010173 47
-6.4722395 -1.0285792 2.0150034 26
-9.6590729 -1.5350349 1.9483188 100
-9.9104977 -1.5732183 0.99204421 59
-2.131793 -0.33688545 2.002733 73
-2.6057279 -0.41131371 2.0043812 69
-3.2425053 -0.51182497 2.0138493 65
-4.107656 -0.64765239 2.0097921 56
-5.4958749 -0.86554837 2.0244248 13
-7.8987384 -1.2425628 2.0192153 26
-9.9113913 -1.557403 1.4897673 84
-4.9204531 -0.77228504 0.29459172 68
-0.030916572 -0.0043406384 1.984198 69
-0.3095665 -0.046892956 1.9909451 95
-0.37081394 -0.05704391 1.8271804 37
-0.42784414 -0.0661043 1.4303524 60
-0.81193763 -0.12556773 1.9951125 95
-1.0397062 -0.16096811 1.9945602 83
-1.2937685 -0.20029646 1.9954264 34
-1.5891361 -0.24601917 2.0012317 76
-0.12295141 -0.017448805 1.9810979 99
-0.21720108 -0.029685527 1.9983203 88
-0.36893782 -0.056286369 1.4734434 23
-0.70372593 -0.10758036 1.9901476 69
-0.92295998 -0.14141326 1.9936218 93
-1.2210387 -0.18707637 2.0907271 34
-1.4326544 -0.21949333 1.9932711 84
-1.7537589 -0.26868403 2.0016804 83
-1.9314451 -0.30108282 2.0007432 71
-2.3531697 -0.36681896 2.0020387 16
-2.9149714 -0.45387191 2.0187793 35
-3.6347177 -0.56593519 2.0112782 62
-4.6778603 -0.72751838 2.0010173 44
-6.4757905 -1.0059806 2.0150034 26
-9.6595182 -1.500555 1.9473861 100
-9.8913231 -1.5347968 0.98981321 36
-2.132956 -0.32944202 2.002733 73
-2.6071477 -0.40221548 2.0043812 67
-3.244272 -0.50050342 2.0138493 64
-4.1098919 -0.63331002 2.0097921 53
-5.4988627 -0.84635895 2.0244248 13
-7.903028 -1.2149835 2.0192153 25
-9.9118719 -1.5220447 1.4890774 84
-4.9132423 -0.75359005 0.29418868 27
-0.030932272 -0.0042272946 1.984198 69
-0.30973631 -0.045758024 1.9909451 93
-0.3710205 -0.055684425 1.8271804 36
-0.42660668 -0.064313158 1.4255807 54
-0.81239229 -0.122591 1.9951125 95
-1.0402893 -0.1571563 1.9945602 83
-1.294494 -0.19555321 1.9954264 34
-1.5900271 -0.24019304 2.0012317 74
-0.12301157 -0.017019518 1.9810979 99
-0.2173034 -0.028927173 1.9983203 88
-0.36913204 -0.054998193 1.4734434 22
-0.70409715 -0.10512324 1.9901476 71
-0.92347217 -0.13802949 1.9936218 93
-1.2217162 -0.18259978 2.0907271 34
-1.4334493 -0.21424092 1.9932711 87
-1.7546862 -0.26256064 2.0016804 86
-1.9290098 -0.29346535 1.9972385 69
-2.3544984 -0.35819173 2.0020387 32
-2.9166155 -0.44318497 2.0187793 36
-3.6367674 -0.5526095 2.0112782 60
-4.6803718 -0.71118516 2.0010173 44
-6.4792624 -0.98336977 2.0150034 27
-9.6649532 -1.4651411 1.9473861 100
-9.9018068 -1.4992785 0.99025941 32
-2.1341491 -0.32162216 2.002733 75
-2.6086047 -0.39265713 2.0043812 48
-3.2459996 -0.48917574 2.0138493 64
-4.1120772 -0.61896002 2.0097921 53
-5.4971137 -0.82645708 2.0227818 14
-7.9072204 -1.1873894 2.0192153 25
-9.9122267 -1.4867018 1.4883877 81
nan nan nan 0
-0.030946121 -0.0041246959 1.984198 71
-0.30988637 -0.044730648 1.9909451 93
-0.37120309 -0.054453772 1.8271804 36
-0.4268176 -0.062898129 1.4255807 42
-0.81279439 -0.11989633 1.9951125 95
-1.0408046 -0.15370573 1.9945602 83
-1.2951354 -0.19125944 1.9954264 34
-1.5908148 -0.23491901 2.0012317 74
-0.12306733 -0.016611503 1.9810979 99
-0.21739812 -0.02820641 1.9983203 88
-0.36931238 -0.053773802 1.4734434 21
-0.70444191 -0.1027878 1.9901476 71
-0.92392474 -0.13496639 1.9936218 93
-1.222315 -0.17854741 2.0907271 34
-1.4311695 -0.20905066 1.9892817 87
-1.7555472 -0.25674045 2.0016804 83
-1.9299723 -0.28706691 1.9972385 75
-2.3556733 -0.35038194 2.0020387 39
-2.9180686 -0.43351069 2.0187793 38
-3.6385798 -0.54054648 2.0112782 61
-4.682704 -0.69566053 2.0010173 44
-6.4824877 -0.96187836 2.0150034 27
-9.6600409 -1.4316427 1.9455211 100
-9.9067249 -1.4664347 0.99025941 38
-2.1352038 -0.31454331 2.002733 73
-2.6098924 -0.3840045 2.0043812 30
-3.2476039 -0.47840893 2.0138493 64
-4.1141071 -0.60532045 2.0097921 55
-5.4998236 -0.80822337 2.0227818 15
-7.9111147 -1.1611615 2.0192153 26
-9.9122028 -1.4531052 1.4876978 81
-3.2919354 -0.48200473 0.22788498 3
-0.030960329 -0.004016649 1.984198 71
-0.31004059 -0.043648675 1.9909451 95
-0.37139094 -0.053157698 1.8271804 37
-0.42703456 -0.061407875 1.4255807 40
-0.81320798 -0.11705842 1.9951125 95
-1.0413347 -0.1500717 1.9945602 81
-1.2957951 -0.1867374 1.9954264 33
-1.5916252 -0.22936459 2.0012317 74
-0.12341455 -0.016197521 1.9860895 99
-0.21750005 -0.027409416 1.9983203 88
-0.36826164 -0.05224327 1.4686042 19
-0.7048139 -0.1002052 1.9901476 73
-0.92439026 -0.13174047 1.9936218 93
-1.2229308 -0.17427967 2.0907271 34
-1.4318905 -0.20405367 1.9892817 87
-1.7564764 -0.25030431 2.0016804 86
-1.9309626 -0.2803283 1.9972385 73
-2.3568819 -0.34215698 2.0020387 64
-2.9154263 -0.42272207 2.0160377 39
-3.6404448 -0.52784222 2.0112782 60
-4.6852221 -0.67849296 2.0010173 44
-6.4859695 -0.93811238 2.0150034 26
-9.664979 -1.3979141 1.9455211 99
-9.9117823 -1.4318448 0.99025941 46
-2.1362889 -0.30708811 2.002733 73
-2.6112168 -0.37489197 2.0043812 30
-3.2493355 -0.46650267 2.0138493 65
-4.1118054 -0.58959317 2.007694 55
-5.4980741 -0.78739065 2.0211391 16
-7.9153171 -1.132158 2.0192153 25
-9.9125595 -1.4160651 1.487008 83
-3.2689507 -0.46640769 0.22687733 6
-0.030974163 -0.0039085527 1.984198 69
-0.31019107 -0.042566162 1.9909451 95
-0.37157419 -0.051860981 1.8271804 37
-0.4272463 -0.059916873 1.4255807 40
-0.81361157 -0.11421908 1.9951125 95
-1.0418524 -0.14643586 1.9945602 81
-1.2964391 -0.1822131 1.9954264 33
-1.5924162 -0.22380738 2.0012317 76
-0.12347034 -0.015766624 1.9860895 98
-0.21759439 -0.026650034 1.9983203 86
-0.36844179 -0.050957479 1.4686042 19
-0.70515937 -0.097744323 1.9901476 75
-0.92484444 -0.12851293 1.9936218 93
-1.2235316 -0.17000976 2.0907271 34
-1.4325941 -0.19905418 1.9892817 84
-1.7573395 -0.24417153 2.0016804 85
-1.9319295 -0.27358624 1.9972385 73
-2.3542073 -0.33338198 1.9989008 66
-2.9168839 -0.41254276 2.0160377 38
-3.6422651 -0.51513147 2.0112782 56
-4.6875625 -0.66213435 2.0010173 43
-6.4892044 -0.91546637 2.0150034 26
-9.6600714 -1.3627961 1.9436557 68
-9.9167204 -1.3972375 0.99025941 44
-2.1373477 -0.29962918 2.002733 73
-2.6125095 -0.36577484 2.0043812 30
-3.2509439 -0.45515752 2.0138493 64
-4.1138382 -0.57523668 2.007694 55
-5.5007892 -0.76819396 2.0211391 16
-7.9192209 -1.1045215 2.0192153 25
-9.9125366 -1.380772 1.4863183 83
-3.2557139 -0.45292884 0.22627273 9
-0.030987617 -0.0038004089 1.984198 67
-0.31033778 -0.041483138 1.9909451 95
-0.37074408 -0.050426494 1.8222852 37
-0.42893267 -0.058627319 1.4303524 39
-0.81400543 -0.11137836 1.9951125 95
-1.0423571 -0.1427982 1.9945602 83
-1.2970672 -0.17768656 1.9954264 32
-1.5931876 -0.21824746 2.0012317 74
-0.12352462 -0.015335537 1.9860895 99
-0.21768609 -0.025890324 1.9983203 86
-0.36737084 -0.049503192 1.463765 20
-0.70549625 -0.095282264 1.9901476 73
-0.92528737 -0.12528384 1.9936218 92
-1.2241176 -0.16573781 2.0907271 34
-1.4332802 -0.19405229 1.9892817 82
-1.758181 -0.23803578 2.0016804 86
-1.9293399 -0.26635319 1.9937341 75
-2.3553567 -0.32516223 1.9989008 66
-2.9141641 -0.40178737 2.0132964 33
-3.6440411 -0.50241452 2.0112782 56
-4.6898451 -0.64576763 2.0010173 42
-6.4923606 -0.89280927 2.0150034 26
-9.8691607 -1.3571749 1.9828259 61
-9.9215374 -1.3626132 0.99025941 74
-2.1383805 -0.29216662 2.002733 73
-2.6137705 -0.35665324 2.0043812 40
-3.2525129 -0.44380683 2.0138493 64
-4.1158209 -0.56087321 2.007694 54
-5.4987578 -0.74835104 2.0194964 17
-7.9182119 -1.0762169 2.018043 26
-9.9123898 -1.3454962 1.4856285 81
-3.232522 -0.43820599 0.22526509 7
-0.031001339 -0.003686808 1.984198 69
-0.31048772 -0.040345412 1.9909451 95
-0.37092641 -0.049067311 1.8222852 37
-0.42914465 -0.057054807 1.4303524 39
-0.81440812 -0.10839412 1.9951125 95
-1.0428735 -0.13897683 1.9945602 83
-1.2977097 -0.17293139 1.9954264 33
-1.5939769 -0.21240667 2.0012317 74
-0.12358001 -0.014882694 1.9860895 99
-0.21777953 -0.025092291 1.9983203 86
-0.36754981 -0.048156377 1.463765 20
-0.70584077 -0.09269584 1.9901476 71
-0.92576164 -0.12173007 1.9936218 92
-1.224745 -0.16103633 2.0907271 34
-1.4340147 -0.18854746 1.9892817 84
-1.759082 -0.23128311 2.0016804 86
-1.9303032 -0.25928006 1.9937341 75
-2.3565323 -0.31652722 1.9989008 66
-2.9156172 -0.39110371 2.0132964 13
-3.6458578 -0.48905501 2.0112782 48
-4.6921802 -0.62857413 2.0010173 40
-6.4955902 -0.86900765 2.0150034 26
-9.903513 -1.3231733 1.9884216 71
-9.9217596 -1.3238487 0.98981321 76
-2.1394868 -0.28395373 2.002733 73
-2.6151206 -0.34661448 2.0043812 69
-3.2541931 -0.43131486 2.0138493 63
-4.1179442 -0.54506552 2.007694 53
-5.5015912 -0.72723192 2.0194964 16
-7.922286 -1.0458053 2.018043 26
-9.9123449 -1.3085085 1.4849386 80
-3.2242002 -0.42504933 0.22486204 7
-0.031014018 -0.0035785707 1.984198 69
-0.31062666 -0.03926136 1.9909451 93
-0.37109542 -0.047772236 1.8222852 36
-0.42934117 -0.055556465 1.4303524 40
-0.81478149 -0.10555065 1.9951125 95
-1.0433524 -0.13533567 1.9945602 81
-1.2983055 -0.16840048 1.9954264 33
-1.5947086 -0.20684133 2.0012317 74
-0.1236312 -0.014451229 1.9860895 99
-0.21786579 -0.024331946 1.9983203 88
-0.36646792 -0.046714142 1.4589258 20
-0.70616001 -0.090231441 1.9901476 73
-0.92616022 -0.11865948 1.9936218 93
-1.2278594 -0.15730545 2.0949931 35
-1.4346321 -0.18379107 1.9892817 87
-1.7564766 -0.22501776 1.9980052 83
-1.9311966 -0.25254044 1.9937341 75
-2.3576231 -0.30829948 1.9989008 66
-2.9169645 -0.3809239 2.0132964 13
-3.647543 -0.4763256 2.0112782 48
-4.6943455 -0.61219156 2.0010173 40
-6.4985838 -0.84632838 2.0150034 26
-9.9127169 -1.2909591 1.9893541 73
-9.9112797 -1.2890128 0.98847455 76
-2.1404166 -0.27685738 2.002733 73
-2.6162558 -0.33794051 2.0043812 69
-3.2598813 -0.42107344 2.0163815 59
-4.119729 -0.53140694 2.007694 53
-5.4992886 -0.7083807 2.017854 16
-7.9257102 -1.0195283 2.018043 26
-9.9119406 -1.2732691 1.4842488 80
-3.2256644 -0.41379219 0.22486204 25
-0.031025713 -0.0034757047 1.984198 69
-0.31075513 -0.038231071 1.9909451 93
-0.37125176 -0.046541382 1.8222852 37
-0.42804122 -0.053945739 1.4255807 40
-0.81512702 -0.10284816 1.9951125 95
-1.0437953 -0.13187504 1.9945602 83
-1.2988567 -0.16409421 1.9954264 33
-1.5953858 -0.20155196 2.0012317 74
-0.12367599 -0.014062759 1.9860895 99
-0.21847203 -0.023704303 2.0032918 88
-0.36661288 -0.045562621 1.4589258 20
-0.70644009 -0.088012531 1.9901476 75
-0.92654866 -0.11558757 1.9936218 93
-1.2283742 -0.15323286 2.0949931 34
-1.4352336 -0.17903265 1.9892817 87
-1.7571748 -0.21949852 1.9980052 83
-1.9320233 -0.246135 1.9937341 73
-2.3586323 -0.30047962 1.9989008 64
-2.9182117 -0.37124881 2.0132964 29
-3.6491024 -0.46422729 2.0112782 61
-4.6962457 -0.59744084 2.0010173 39
-6.5012102 -0.82590842 2.0150034 26
-9.9169426 -1.2580802 1.9893541 73
-9.9154997 -1.2561388 0.98847455 64
-2.1413229 -0.26975796 2.002733 73
-2.6173618 -0.32926282 2.0043812 69
-3.2611876 -0.41083014 2.0163815 59
-4.1213784 -0.51846176 2.007694 55
-5.5014868 -0.69110072 2.017854 17
-7.9240508 -0.99401891 2.0168707 26
-9.9109774 -1.2415079 1.483559 82
-3.2269483 -0.40365642 0.22486204 82
-0.031037657 -0.0033673835 1.984198 69
-0.31088671 -0.037146099 1.9909451 93
-0.37141198 -0.045245189 1.8222852 37
-0.42822695 -0.052451272 1.4255807 40
-0.81548113 -0.10000221 1.9951125 95
-1.0442493 -0.12823072 1.9945602 83
-1.2994217 -0.15955937 1.9954264 33
-1.5960796 -0.1959818 2.0012317 74
-0.1237267 -0.013609369 1.9860895 98
-0.21855745 -0.022903405 2.0032918 88
-0.36552867 -0.044068154 1.4540867 20
-0.7067579 -0.085422717 1.9901476 77
-0.92694646 -0.11235261 1.9936218 93
-1.2289016 -0.14894411 2.0949931 34
-1.4358498 -0.17402165 1.9892817 87
-1.7579676 -0.21305667 1.9980052 83
-1.9328707 -0.23938948 1.9937341 73
-2.3596671 -0.29224464 1.9989008 66
-2.9236395 -0.36157328 2.0160377 40
-3.6507006 -0.45148671 2.0112782 61
-4.7030048 -0.58079243 2.0028906 39
-6.5041933 -0.80207479 2.0150034 26
-9.916399 -1.2228549 1.9884216 72
nan nan nan 0
-2.1422517 -0.26228172 2.002733 73
-2.6184952 -0.32012454 2.0043812 69
-3.2669511 -0.39939776 2.018914 120
-4.123251 -0.5033527 2.007694 55
-5.503983 -0.67093205 2.017854 17
-7.9276409 -0.96496916 2.0168707 27
-9.9154615 -1.2051741 1.483559 82
-3.2333658 -0.39242825 0.22506356 45
-0.031049225 -0.0032590218 1.984198 69
-0.31101447 -0.036060676 1.9909451 95
-0.37156767 -0.043948442 1.8222852 37
-0.4284074 -0.050956156 1.4255807 40
-0.81582516 -0.097155042 1.9951125 95
-1.0446906 -0.12458483 1.9945602 81
-1.2999707 -0.15502256 1.9954264 33
-1.596754 -0.19040926 2.0012317 74
-0.12377346 -0.0131774 1.9860895 98
-0.21863605 -0.022140356 2.0032918 88
-0.36568025 -0.042791955 1.4540867 20
-0.70705175 -0.082955144 1.9901476 77
-0.92733294 -0.10911627 1.9936218 93
-1.229414 -0.14465353 2.0949931 34
-1.4364486 -0.16900854 1.9892817 87
-1.7587005 -0.20691891 1.9980052 83
-1.9336946 -0.23264104 1.9937341 73
-2.3606727 -0.28400609 1.9989008 64
-2.9248841 -0.35136572 2.0160377 55
-3.6478562 -0.43821231 2.0089602 60
-4.7050037 -0.5643723 2.0028906 40
-6.5069537 -0.77936596 2.0150034 26
-9.9206076 -1.1882327 1.9884216 72
-4.5391278 -0.54286814 0.50255203 2
-2.1431539 -0.25480226 2.002733 73
-2.619597 -0.31098235 2.0043812 67
-3.2683256 -0.38799152 2.018914 121
-4.1294904 -0.48949108 2.0097921 55
-5.5016017 -0.65116042 2.0162113 20
-7.9309611 -0.93729067 2.0168707 26
-9.91469 -1.1699749 1.4828691 79
-3.2496006 -0.38289317 0.22566816 22
-0.031103879 -0.0031544152 1.9891979 69
-0.31113845 -0.034974813 1.9909451 95
-0.37171879 -0.042651162 1.8222852 37
-0.42858264 -0.049460426 1.4255807 40
-0.81615943 -0.094306678 1.9951125 95
-1.045119 -0.12093741 1.9945602 81
-1.3005038 -0.15048388 1.9954264 33
-1.5974089 -0.18483438 2.0012317 74
-0.1238187 -0.01274527 1.9860895 97
-0.218712 -0.02137704 2.0032918 86
-0.36457762 -0.041373499 1.4492474 21
-0.70733702 -0.080486566 1.9901476 77
-0.92770821 -0.10587861 1.9936218 93
-1.2299114 -0.14036117 2.0949931 34
-1.4370298 -0.16399337 1.9892817 87
-1.7627805 -0.20116302 2.0016804 85
-1.934495 -0.22588976 1.9937341 75
-2.3616498 -0.27576408 1.9989008 64
-2.9302459 -0.341638 2.0187793 55
-3.6493635 -0.42547625 2.0089602 37
-4.7069449 -0.54794532 2.0028906 40
-6.5096345 -0.75664777 2.0150034 26
-9.9198151 -1.153029 1.9874889 73
-4.5558352 -0.52874273 0.50389063 7
-2.1440303 -0.2473197 2.002733 73
-2.6206665 -0.30183634 2.0043812 69
-3.2653768 -0.37608728 2.0163815 74
-4.1311736 -0.47507349 2.0097921 55
-5.5038414 -0.63195235 2.0162113 20
-7.9341846 -0.90960073 2.0168707 26
-9.9137926 -1.1347959 1.4821793 65
-3.2509174 -0.37154764 0.22566816 22
-0.031114701 -0.003045823 1.9891979 69
-0.31125864 -0.033888523 1.9909451 95
-0.37186542 -0.04135336 1.8222852 37
-0.42875272 -0.047964092 1.4255807 40
-0.81648356 -0.091457181 1.9951125 95
-1.0455348 -0.11728854 1.9945602 83
-1.3010212 -0.14594334 1.9954264 33
-1.5980444 -0.17925727 2.0012317 74
-0.12386243 -0.012312984 1.9860895 97
-0.21825367 -0.020564051 1.9983203 82
-0.36471981 -0.040100634 1.4492474 21
-0.70761371 -0.078017011 1.9901476 79
-0.92807221 -0.10263966 1.9936218 92
-1.230394 -0.13606715 2.0949931 34
-1.4375935 -0.15897621 1.9892817 84
-1.763472 -0.19500855 2.0016804 86
-1.9352715 -0.21913575 1.9937341 75
-2.3625977 -0.26751867 1.9989008 66
-2.9314208 -0.33140746 2.0187793 59
-3.6508267 -0.41273499 2.0089602 3
-4.7042227 -0.53099173 2.0010173 40
-6.5122361 -0.73392028 2.0150034 27
-9.9188976 -1.1178451 1.9865562 72
nan nan nan 0
-2.1448805 -0.23983414 2.002733 73
-2.6217041 -0.2926867 2.0043812 69
-3.2666698 -0.3646867 2.0163815 74
-4.1282954 -0.46014732 2.007694 56
-5.5013204 -0.61221415 2.0145686 20
-7.9373116 -0.88189971 2.0168707 26
-9.9176931 -1.1001834 1.4821793 63
-3.2968845 -0.36514717 0.22748193 16
-0.031125143 -0.002937194 1.9891979 69
-0.31137505 -0.032801822 1.9909451 95
-0.37099516 -0.03994615 1.81739 37
-0.42891753 -0.046467178 1.4255807 40
-0.81679785 -0.088606566 1.9951125 95
-1.0459379 -0.11363822 1.9945602 79
-1.3015227 -0.14140105 1.9954264 34
-1.5986602 -0.17367795 2.0012317 71
-0.12390465 -0.011880548 1.9860895 97
-0.21832411 -0.019802077 1.9983203 80
-0.36360678 -0.03869427 1.4444082 21
-0.70788169 -0.075546503 1.9901476 79
-0.92842484 -0.099399462 1.9936218 92
-1.2308614 -0.13177145 2.0949931 34
-1.4381396 -0.1539571 1.9892817 84
-1.7641419 -0.1888517 2.0016804 85
-1.9360248 -0.21237905 1.9937341 73
-2.3635173 -0.25927004 1.9989008 66
-2.9325597 -0.32117289 2.0187793 59
-3.652245 -0.39998871 2.0089602 3
-4.7060471 -0.51456767 2.0010173 40
-6.5147581 -0.71118379 2.0150034 26
-9.9178562 -1.0826818 1.9856236 70
nan nan nan 0
-2.1457047 -0.23234566 2.002733 75
-2.6227098 -0.28353345 2.0043812 69
-3.2679229 -0.35328165 2.0163815 86
-4.1343894 -0.44622111 2.0097921 44
-5.5034237 -0.59300721 2.0145686 18
-7.9403415 -0.85418797 2.0168707 25
-9.9165497 -1.0650285 1.4814895 62
nan nan nan 0
-0.031135205 -0.0028285291 1.9891979 69
-0.31148764 -0.031714723 1.9909451 95
-0.37113234 -0.038650893 1.81739 37
-0.42907712 -0.044969693 1.4255807 40
-0.81710213 -0.085754871 1.9951125 95
-1.0463283 -0.10998653 1.9945602 81
-1.3020084 -0.13685703 1.9954264 35
-1.599257 -0.16809654 2.0012317 71
-0.12394537 -0.011447968 1.9860895 97
-0.21839191 -0.019039864 1.9983203 80
-0.36373964 -0.03742481 1.4444082 21
-0.70814109 -0.073075071 1.9901476 81
-0.92876613 -0.096158043 1.9936218 92
-1.2313138 -0.12747413 2.0949931 34
-1.4386684 -0.14893612 1.9892817 87
-1.7647904 -0.18269253 2.0016804 83
-1.9367543 -0.20561977 1.9937341 73
-2.364408 -0.25101826 1.9989008 66
-2.9336629 -0.31093436 2.0187793 59
-3.6580241 -0.38770446 2.0112782 28
-4.7078147 -0.49813741 2.0010173 41
-6.5172014 -0.68843877 2.0150034 26
-9.9215755 -1.0480554 1.9856236 70
nan nan nan 0
-2.1465027 -0.22485432 2.002733 75
-2.6236835 -0.27437675 2.0043812 69
-3.2648482 -0.34142393 2.0138493 70
-4.1359224 -0.43178672 2.0097921 6
-5.5054603 -0.57379305 2.0145686 18
-7.943275 -0.82646579 2.0168707 27
-9.920207 -1.0304068 1.4814895 62
-4.2832737 -0.44414732 0.26738507 112
-0.031144891 -0.0027198298 1.9891979 69
-0.31159645 -0.030627234 1.9909451 95
-0.37126496 -0.037355162 1.81739 36
-0.42923146 -0.043471657 1.4255807 40
-0.81739652 -0.082902126 1.9951125 95
-1.0467057 -0.10633349 1.9945602 81
-1.3024782 -0.13231134 1.9954264 35
-1.5998338 -0.16251308 2.0012317 74
-0.12398458 -0.011015248 1.9860895 97
-0.21845704 -0.018277418 1.9983203 78
-0.36386806 -0.036154896 1.4444082 22
-0.70839185 -0.070602752 1.9901476 81
-0.9290961 -0.09291546 1.9936218 93
-1.2317513 -0.12317526 2.0949931 34
-1.4391793 -0.14391333 1.9892817 87
-1.7654175 -0.17653117 2.0016804 83
-1.9374603 -0.19885798 1.9937341 75
-2.3652699 -0.2427634 1.9989008 66
-2.9347303 -0.30069211 2.0187793 59
-3.66817 -0.37583634 2.0159142 57
-4.7095251 -0.48170102 2.0010173 40
-6.5195646 -0.6656853 2.0150034 27
-9.9202862 -1.0129174 1.9846911 73
-9.9283676 -1.0119915 0.98713595 34
-2.1472745 -0.21736027 2.002733 75
-2.6246252 -0.26521671 2.0043812 69
-3.2660203 -0.3300254 2.0138493 67
-4.1419196 -0.41780242 2.0118899 6
-5.5074296 -0.55457193 2.0145686 19
-7.9461112 -0.79873353 2.0168707 28
-9.9237423 -0.99577254 1.4814895 62
-4.2549715 -0.42620561 0.26617587 114
-0.031154193 -0.0026110969 1.9891979 69
-0.31170148 -0.029539371 1.9909451 93
-0.37139311 -0.036058977 1.81739 36
-0.4293806 -0.041973095 1.4255807 40
-0.81768095 -0.080048375 1.9951125 95
-1.0470706 -0.10267915 1.9945602 81
-1.3029321 -0.12776403 1.9954264 36
-1.5972008 -0.15661477 1.9973947 76
-0.12402228 -0.010582394 1.9860895 97
-0.21851951 -0.017514748 1.9983203 78
-0.36524415 -0.035004441 1.4492474 23
-0.70863396 -0.068129577 1.9901476 81
-0.92941481 -0.089671746 1.9936218 93
-1.2321738 -0.11887489 2.0949931 34
-1.4396729 -0.13888879 1.9892817 87
-1.7626483 -0.1700421 1.9980052 85
-1.9381425 -0.19209377 1.9937341 67
-2.3661027 -0.23450561 1.9989008 66
-2.9357622 -0.29044613 2.0187793 61
-3.6738682 -0.36346591 2.0182323 59
-4.7111778 -0.46525878 2.0010173 37
-6.5218487 -0.64292365 2.0150034 27
-9.9237623 -0.97828293 1.9846911 73
-9.9268827 -0.97684121 0.98668975 34
-2.14802 -0.20986354 2.002733 75
-2.625535 -0.25605345 2.0043812 69
-3.2671523 -0.31862286 2.0138493 67
-4.1478696 -0.40378165 2.013988 22
-5.504631 -0.53488731 2.0129259 20
-7.9488506 -0.77099156 2.0168707 27
-9.9271584 -0.96112621 1.4814895 63
nan nan nan 0
-0.031163117 -0.0025023327 1.9891979 69
-0.31180272 -0.02845115 1.9909451 93
-0.37151673 -0.034762356 1.81739 37
-0.43101147 -0.040614057 1.4303524 40
-0.81795537 -0.077193648 1.9951125 93
-1.0474226 -0.099023566 1.9945602 79
-1.3033702 -0.12321518 1.9954264 36
-1.5977378 -0.15103854 1.9973947 76
-0.12405846 -0.010149411 1.9860895 98
-0.21857932 -0.016751867 1.9983203 82
-0.36536407 -0.033729285 1.4492474 25
-0.70886749 -0.065655567 1.9901476 79
-0.92972219 -0.086426936 1.9936218 92
-1.2325813 -0.11457308 2.0949931 34
-1.4401491 -0.13386254 1.9892817 84
-1.7632312 -0.16388828 1.9980052 85
-1.9388013 -0.18532722 1.9937341 67
-2.3669069 -0.22624491 1.9989008 66
-2.936758 -0.28019667 2.0187793 61
-3.6795244 -0.35106024 2.0205503 59
-4.7127728 -0.44881088 2.0010173 7
-6.5240531 -0.62015432 2.0150034 29
-9.922226 -0.9431718 1.9837584 72
-9.9203167 -0.94124317 0.98579729 34
-2.1487396 -0.20236427 2.002733 73
-2.6264129 -0.24688706 2.0043812 69
-3.2682445 -0.30721644 2.0138493 67
-4.1537724 -0.38972437 2.0160861 62
-5.4970608 -0.51478869 2.0096405 22
-7.9466538 -0.7427879 2.0156984 27
-9.9304523 -0.92646813 1.4814895 63
-4.3026128 -0.40065911 0.26798967 109
-0.031171663 -0.0023935381 1.9891979 69
-0.31190011 -0.027362583 1.9909451 91
-0.37163582 -0.033465307 1.81739 37
-0.43115062 -0.039109297 1.4303524 40
-0.8182199 -0.074337982 1.9951125 95
-1.0477619 -0.095366776 1.9945602 81
-1.3037924 -0.11866482 1.9954264 36
-1.5982553 -0.14546047 1.9973947 76
-0.12409313 -0.009716304 1.9860895 98
-0.21863647 -0.01598878 1.9983203 86
-0.36547962 -0.032453723 1.4492474 26
-0.70909232 -0.06318076 1.9901476 79
-0.93001813 -0.083181068 1.9936218 92
-1.2329736 -0.11026987 2.0949931 34
-1.4406074 -0.12883465 1.9892817 87
-1.7637924 -0.15773244 1.9980052 83
-1.9394364 -0.17855841 1.9937341 73
-2.363806 -0.21762462 1.9957631 62
-2.9377182 -0.26994371 2.0187793 61
-3.6807272 -0.33821413 2.0205503 55
-4.7143106 -0.43235749 2.0010173 7
-6.5261779 -0.5973773 2.0150034 29
-9.925458 -0.90853095 1.9837584 72
-9.9334602 -0.90751523 0.98668975 33
-2.1494329 -0.19486254 2.002733 73
-2.6272585 -0.23771764 2.0043812 69
-3.2692971 -0.29580626 2.0138493 65
-4.1596274 -0.3756308 2.0181842 63
-5.4894176 -0.49474934 2.006355 20
-7.9491987 -0.71504432 2.0156984 27
-9.9286947 -0.89135593 1.4807998 63
-4.3139372 -0.38652939 0.26839271 109
-0.03117983 -0.002284714 1.9891979 69
-0.31199372 -0.026273683 1.9909451 95
-0.37175035 -0.032167852 1.81739 36
-0.43128449 -0.037604067 1.4303524 40
-0.81847429 -0.071481407 1.9951125 95
-1.0480884 -0.091708831 1.9945602 83
-1.3041986 -0.114113 1.9954264 36
-1.5987532 -0.13988063 1.9973947 74
-0.12412629 -0.0092830788 1.9860895 97
-0.21922362 -0.015261907 2.0032918 88
-0.36559066 -0.031177765 1.4492474 26
-0.70930856 -0.060705181 1.9901476 83
-0.93030286 -0.079934195 1.9936218 92
-1.233351 -0.10596532 2.0949931 34
-1.4410484 -0.12380522 1.9892817 87
-1.7643323 -0.15157469 1.9980052 83
-1.9400479 -0.17178743 1.9937341 73
-2.3645511 -0.20937209 1.9957631 62
-2.9386425 -0.25968754 2.0187793 61
-3.6818855 -0.32536396 2.0205503 55
-4.7157917 -0.41589883 2.0010173 32
-6.528224 -0.57459307 2.0150034 29
-9.9236765 -0.87344843 1.9828259 73
-9.9316063 -0.87239975 0.98624349 37
-2.1501 -0.18735845 2.002733 73
-2.6280725 -0.22854535 2.0043812 69
-3.2703099 -0.28439245 2.0138493 65
-4.1654353 -0.36150113 2.020282 63
-5.4722915 -0.47395477 1.9997842 4
-7.9516463 -0.68729216 2.0156984 26
-9.9317455 -0.85669291 1.4807998 63
-4.330193 -0.37275404 0.26899731 112
-0.031187613 -0.0021758622 1.9891979 69
-0.31208351 -0.025184462 1.9909451 95
-0.37186038 -0.030870004 1.81739 36
-0.43141311 -0.036098372 1.4303524 40
-0.81871891 -0.06862396 1.9951125 95
-1.0484022 -0.088049762 1.9945602 81
-1.3073932 -0.10979528 1.9995594 37
-1.5992317 -0.1342991 1.9973947 74
-0.12415794 -0.00884974 1.9860895 98
-0.21927556 -0.014496581 2.0032918 88
-0.36569729 -0.029901423 1.4492474 27
-0.71123594 -0.058369957 1.9948403 87
-0.93057615 -0.076686345 1.9936218 92
-1.2337134 -0.10165947 2.0949931 34
-1.4414718 -0.11877426 1.9892817 84
-1.7648506 -0.1454151 1.9980052 83
-1.9406357 -0.16501436 1.9937341 73
-2.3652678 -0.20111699 1.9957631 66
-2.9395311 -0.24942818 2.0187793 55
-3.6829987 -0.3125098 2.0205503 60
-4.7218337 -0.39982626 2.0028906 41
-6.530189 -0.5518018 2.0150034 29
-9.9266634 -0.83880299 1.9828259 72
-9.9296293 -0.83730811 0.98579729 35
-2.1507409 -0.17985205 2.002733 73
-2.6288543 -0.21937029 2.0043812 69
-3.2712827 -0.27297524 2.0138493 65
-4.1666718 -0.34695882 2.020282 63
-5.4739132 -0.45485005 1.9997842 4
-7.9539971 -0.65953147 2.0156984 27
-9.9346762 -0.82201946 1.4807998 63
-4.1123919 -0.33954826 0.26012993 39
-0.031195018 -0.0020669838 1.9891979 69
-0.31216952 -0.024094934 1.9909451 95
-0.37095082 -0.029491186 1.8124948 37
-0.43153653 -0.034592237 1.4303524 40
-0.81895339 -0.065765679 1.9951125 95
-1.048703 -0.08438962 1.9945602 83
-1.3049635 -0.10500528 1.9954264 36
-1.5996908 -0.12871593 1.9973947 76
-0.12418807 -0.0084162951 1.9860895 97
-0.21932483 -0.013731078 2.0032918 88
-0.36579943 -0.028624721 1.4492474 27
-0.71143538 -0.055886917 1.9948403 87
-0.93083823 -0.073437572 1.9936218 92
-1.2314607 -0.097147308 2.0907271 33
-1.4418776 -0.11374187 1.9892817 84
-1.7653474 -0.13925375 1.9980052 85
-1.9411998 -0.15823925 1.9937341 73
-2.3659551 -0.19285943 1.9957631 66
-2.9403839 -0.2391658 2.0187793 55
-3.6840672 -0.29965183 2.0205503 60
-4.7232003 -0.38334158 2.0028906 40
-6.5368571 -0.52939105 2.0164127 26
-9.9246359 -0.80375081 1.9818932 72
-9.9324913 -0.80264217 0.98579729 34
-2.1513555 -0.17234346 2.002733 73
-2.6296039 -0.21019253 2.0043812 69
-3.2722156 -0.26155466 2.0138493 65
-4.1678576 -0.33241233 2.020282 64
-5.494297 -0.43723828 2.006355 26
-7.9562507 -0.63176286 2.0156984 26
-9.9325485 -0.78694487 1.4801099 60
-4.2231212 -0.33385301 0.26456362 37
-0.031158462 -0.0019559562 1.984198 71
-0.31225172 -0.023005113 1.9909451 95
-0.37105152 -0.028196147 1.8124948 36
-0.43165463 -0.033085685 1.4303524 40
-0.81917804 -0.062906601 1.9951125 95
-1.0489913 -0.080728449 1.9945602 81
-1.3053221 -0.10044947 1.9954264 36
-1.6001303 -0.12313117 1.9973947 74
-0.1242167 -0.0079827458 1.9860895 96
-0.21937141 -0.012965407 2.0032918 88
-0.36589712 -0.027347669 1.4492474 29
-0.71162617 -0.05340321 1.9948403 87
-0.93108886 -0.070187889 1.9936218 93
-1.2317923 -0.092848115 2.0907271 33
-1.4422659 -0.10870808 1.9892817 84
-1.7658228 -0.13309069 1.9980052 85
-1.9417404 -0.15146224 1.9937341 73
-2.3666139 -0.18459953 1.9957631 66
-2.937032 -0.22857605 2.0160377 63
-3.6850908 -0.28679022 2.0205503 46
-4.7245102 -0.36685219 2.0028906 40
-6.5386648 -0.50656992 2.0164127 9
-9.9224825 -0.76872307 1.9809605 73
-9.9302664 -0.7675826 0.98535109 36
-2.1519442 -0.16483277 2.002733 73
-2.6262915 -0.20070423 2.0014381 69
-3.2731087 -0.25013089 2.0138493 65
-4.168992 -0.31786177 2.020282 63
-5.5004992 -0.41841513 2.0079978 34
-7.9535604 -0.60361862 2.0145259 26
-9.9352341 -0.75226903 1.4801099 60
-4.3189135 -0.32625976 0.26839271 8
-0.031165101 -0.0018471812 1.984198 69
-0.31233013 -0.021915009 1.9909451 95
-0.37114766 -0.026900763 1.8124948 36
-0.43027791 -0.031469863 1.4255807 40
-0.81939268 -0.060046751 1.9951125 95
-1.0492666 -0.077066295 1.9945602 81
-1.3056648 -0.095892437 1.9954264 37
-1.6005505 -0.11754493 1.9973947 76
-0.12395475 -0.0075320289 1.9810979 95
-0.21941534 -0.01219958 2.0032918 86
-0.36599034 -0.026070282 1.4492474 29
-0.7118082 -0.050918844 1.9948403 89
-0.93132824 -0.06693735 1.9936218 92
-1.232109 -0.088547781 2.0907271 33
-1.4426366 -0.10367297 1.9892817 87
-1.7662767 -0.126926 1.9980052 85
-1.9422573 -0.14468339 1.9937341 73
-2.367244 -0.17633738 1.9957631 66
-2.9378121 -0.21832249 2.0160377 63
-3.6860693 -0.2739251 2.0205503 46
-4.7257614 -0.35035834 2.0028906 40
-6.5403938 -0.48374268 2.0164127 10
-9.9251051 -0.73408246 1.9809605 72
-9.9328852 -0.73291481 0.98535109 36
-2.1525064 -0.1573201 2.002733 73
-2.626976 -0.19153556 2.0014381 71
-3.2696619 -0.23839061 2.0113168 65
-4.1700764 -0.30330729 2.020282 63
-5.5113468 -0.39989576 2.0112832 33
-7.9507709 -0.57550091 2.0133536 24
-9.9328604 -0.71722734 1.4794201 62
-4.3698564 -0.31477129 0.27040803 8
-0.031171357 -0.0017383834 1.984198 69
-0.31240472 -0.020824641 1.9909451 96
-0.3712393 -0.025605051 1.8124948 37
-0.43038514 -0.02996772 1.4255807 40
-0.81959718 -0.057186175 1.9951125 95
-1.0495293 -0.073403202 1.9945602 81
-1.3059915 -0.091334224 1.9954264 37
-1.600951 -0.11195724 1.9973947 74
-0.12398028 -0.0070993002 1.9810979 95
-0.2194566 -0.011433603 2.0032918 86
-0.36607912 -0.024792578 1.4492474 30
-0.71198159 -0.048433863 1.9948403 93
-0.93155617 -0.063685998 1.9936218 90
-1.2324104 -0.08424639 2.0907271 33
-1.4429897 -0.09863659 1.9892817 87
-1.7700912 -0.12099094 2.0016804 85
-1.9427505 -0.13790277 1.9937341 73
-2.3678453 -0.1680731 1.9957631 66
-2.9385562 -0.2080663 2.0160377 63
-3.6870031 -0.26105666 2.0205503 57
-4.7269559 -0.33386022 2.0028906 38
-6.5468278 -0.46124661 2.0178218 29
-9.9276075 -0.69943285 1.9809605 71
-9.9304161 -0.69788903 0.98490483 37
-2.1530426 -0.14980547 2.002733 73
-2.6276286 -0.18236452 2.0014381 69
-3.270474 -0.22697589 2.0113168 65
-4.1711097 -0.28874919 2.020282 63
-5.5174198 -0.3809804 2.0129259 33
-7.9527316 -0.5477441 2.0133536 9
-9.9353037 -0.68255079 1.4794201 58
-4.470613 -0.30634657 0.27443862 22
-0.031177236 -0.0016295644 1.984198 69
-0.3124755 -0.019734018 1.9909451 96
-0.37132645 -0.024309028 1.8124948 36
-0.43048716 -0.028465215 1.4255807 40
-0.81979185 -0.054324891 1.9951125 93
-1.0497791 -0.069739215 1.9945602 83
-1.3063024 -0.086774915 1.9954264 37
-1.6013321 -0.1063682 1.9973947 74
-0.12371515 -0.0066514318 1.9761063 93
-0.21949516 -0.010667487 2.0032918 89
-0.36616343 -0.023514571 1.4492474 30
-0.7121464 -0.045948282 1.9948403 91
-0.93177289 -0.060433872 1.9936218 92
-1.232697 -0.079943947 2.0907271 33
-1.4433253 -0.093599014 1.9892817 84
-1.7705028 -0.11481144 2.0016804 85
-1.9396619 -0.13088037 1.9902295 73
-2.3684173 -0.15980674 1.9957631 66
-2.9392645 -0.19780757 2.0160377 63
-3.687892 -0.24818504 2.0205503 59
-4.7234669 -0.31704757 2.0010173 38
-6.548398 -0.43839115 2.0178218 29
-9.9299889 -0.66477478 1.9809605 70
-9.9327917 -0.66322112 0.98490483 38
-2.1535521 -0.14228906 2.002733 73
-2.6282492 -0.17319129 2.0014381 69
-3.2712467 -0.21555844 2.0113168 65
-4.1720924 -0.27418754 2.020282 64
-5.5234289 -0.36202762 2.0145686 33
-7.9545951 -0.51998049 2.0133536 6
-9.9376268 -0.64786601 1.4794201 58
-4.4766412 -0.29106349 0.27464017 24
-0.031182734 -0.0015207257 1.984198 69
-0.3125425 -0.018643154 1.9909451 96
-0.37140903 -0.023012709 1.8124948 36
-0.43058386 -0.02696236 1.4255807 40
-0.81997651 -0.051462959 1.9951125 93
-1.0500163 -0.066074371 1.9945602 83
-1.3065974 -0.082214527 1.9954264 37
-1.6016936 -0.10077786 1.9973947 74
-0.1237376 -0.0062195444 1.9761063 93
-0.21953107 -0.0099012414 2.0032918 89
-0.36624327 -0.02223628 1.4492474 30
-0.71057999 -0.043357104 1.9901476 91
-0.93197811 -0.057181012 1.9936218 92
-1.2329686 -0.075640552 2.0907271 33
-1.4436431 -0.088560306 1.9892817 87
-1.7675089 -0.10842296 1.9980052 85
-1.9401069 -0.1241089 1.9902295 73
-2.3728456 -0.15178695 1.9989008 66
-2.9399369 -0.1875464 2.0160377 64
-3.6887357 -0.23531036 2.0205503 60
-4.724545 -0.30055764 2.0010173 39
-6.5546765 -0.41583401 2.0192311 32
-9.9273453 -0.62979764 1.9800279 70
-9.9300766 -0.62823069 0.98445863 37
-2.1540358 -0.13477087 2.002733 75
-2.6288378 -0.16401592 2.0014381 69
-3.2719791 -0.20413834 2.0113168 65
-4.1730237 -0.25962254 2.020282 64
-5.5246587 -0.34274501 2.0145686 33
-7.9563618 -0.49221066 2.0133536 26
-9.9348831 -0.61286831 1.4787303 61
-4.3928585 -0.27022082 0.27121416 114
-0.031187851 -0.0014118683 1.984198 69
-0.31260565 -0.017552063 1.9909451 95
-0.37148708 -0.02171611 1.8124948 37
-0.43067536 -0.025459178 1.4255807 40
-0.82015115 -0.048600391 1.9951125 93
-1.0502404 -0.062408727 1.9945602 83
-1.3068764 -0.077653155 1.9954264 37
-1.6020356 -0.095186293 1.9973947 76
-0.12375856 -0.0057875817 1.9761063 93
-0.21956429 -0.0091348747 2.0032918 89
-0.36631867 -0.020957718 1.4492474 31
-0.71072704 -0.040876452 1.9901476 89
-0.932172 -0.053927451 1.9936218 92
-1.2332251 -0.071336232 2.0907271 34
-1.4439434 -0.083520509 1.9892817 84
-1.7678765 -0.10225256 1.9980052 85
-1.9405282 -0.11733589 1.9902295 73
-2.3733609 -0.14350323 1.9989008 66
-2.9405739 -0.17728297 2.0160377 64
-3.6895344 -0.22243285 2.0205503 59
-4.7255654 -0.28406405 2.0010173 39
-6.5608764 -0.3932384 2.0206404 32
-9.9294844 -0.59514093 1.9800279 73
-9.932209 -0.59356445 0.98445863 36
-2.1544929 -0.12725107 2.002733 73
-2.6293943 -0.15483858 2.0014381 69
-3.2726717 -0.19271576 2.0113168 65
-4.1739049 -0.24505441 2.020282 64
-5.5211067 -0.32318231 2.0129259 35
-7.9628835 -0.46471795 2.0145259 26
-9.9369621 -0.57818538 1.4787303 61
-4.3788133 -0.25401726 0.27060956 101
-0.031236209 -0.0013042046 1.9891979 69
-0.31266502 -0.01646076 1.9909451 95
-0.37156063 -0.020419246 1.8124948 37
-0.43076161 -0.023955684 1.4255807 40
-0.82031572 -0.045737237 1.9951125 95
-1.0504518 -0.058742326 1.9945602 83
-1.3071395 -0.073090836 1.9954264 37
-1.605559 -0.089772522 2.0012317 74
-0.12377801 -0.0053555486 1.9761063 93
-0.21959484 -0.0083683962 2.0032918 89
-0.3663896 -0.0196789 1.4492474 32
-0.71086532 -0.038395304 1.9901476 89
-0.93235457 -0.050673235 1.9936218 92
-1.2334666 -0.067031033 2.0907271 34
-1.4442263 -0.0784797 1.9892817 84
-1.7682228 -0.096080892 1.9980052 85
-1.940926 -0.11056148 1.9902295 73
-2.369961 -0.13499641 1.9957631 66
-2.941175 -0.16701736 2.0160377 64
-3.6902885 -0.2095526 2.0205503 58
-4.7265282 -0.26756704 2.0010173 40
-6.5622091 -0.3703343 2.0206404 37
-9.9315014 -0.5604769 1.9800279 74
-9.9342194 -0.55889094 0.98445863 37
-2.1549242 -0.11972971 2.002733 73
-2.6299186 -0.14565933 2.0014381 69
-3.2733243 -0.18129082 2.0113168 65
-4.1747351 -0.23048326 2.020282 64
-5.5222011 -0.30390808 2.0129259 35
-7.9644575 -0.43691951 2.0145259 27
-9.9339752 -0.54322493 1.4780405 63
-4.3647075 -0.23791505 0.27000496 101
-0.031240568 -0.001195162 1.9891979 71
-0.31272057 -0.015369254 1.9909451 95
-0.37162966 -0.019122131 1.8124948 37
-0.43084261 -0.022451902 1.4255807 40
-0.82047039 -0.042873517 1.9951125 95
-1.0506505 -0.055075206 1.9945602 83
-1.3073865 -0.068527617 1.9954264 38
-1.6058625 -0.084167525 2.0012317 73
-0.12379596 -0.0049234498 1.9761063 93
-0.21962272 -0.0076018162 2.0032918 89
-0.36645603 -0.01839984 1.4492474 32
-0.71099502 -0.035913687 1.9901476 91
-0.93252575 -0.047418404 1.9936218 92
-1.233693 -0.062725022 2.0907271 34
-1.4414812 -0.073284924 1.9852921 87
-1.7685474 -0.089908056 1.9980052 83
-1.9413002 -0.10378571 1.9902295 73
-2.3704178 -0.1267229 1.9957631 66
-2.9417398 -0.15674973 2.0160377 64
-3.6909976 -0.19666982 2.0205503 58
-4.7274332 -0.25106674 2.0010173 40
-6.5634618 -0.34742564 2.0206404 35
-9.9333963 -0.52580607 1.9800279 71
-9.9361105 -0.52421069 0.98445863 39
-2.155329 -0.1122069 2.002733 73
-2.6304111 -0.13647832 2.0014381 69
-3.2739375 -0.16986369 2.0113168 67
-4.1755142 -0.21590932 2.020282 64
-5.5232286 -0.28463015 2.0129259 35
-7.9707885 -0.409365 2.0156984 27
-9.9308653 -0.50829244 1.4773506 61
-4.350543 -0.22191441 0.26940036 111
-0.03124455 -0.0010861047 1.9891979 69
-0.31277233 -0.014277562 1.9909451 95
-0.37169415 -0.017824786 1.8124948 37
-0.43091837 -0.020947844 1.4255807 40
-0.82061511 -0.040009286 1.9951125 95
-1.0508363 -0.051407415 1.9945602 81
-1.3076178 -0.06396357 1.9954264 38
-1.6061466 -0.078561507 2.0012317 71
-0.12381238 -0.0044912915 1.9761063 93
-0.21964791 -0.006835144 2.0032918 89
-0.36651805 -0.017120559 1.4492474 33
-0.71111608 -0.033431634 1.9901476 91
-0.93268567 -0.044162992 1.9936218 92
-1.2339045 -0.058418252 2.0907271 34
-1.4417282 -0.068252765 1.9852921 87
-1.7688504 -0.083734132 1.9980052 85
-1.9416505 -0.097008668 1.9902295 73
-2.3747334 -0.11864205 1.9989008 66
-2.9422693 -0.14648019 2.0160377 64
-3.6916616 -0.18378463 2.0205503 60
-4.728281 -0.23456338 2.0010173 40
-6.5646343 -0.32451278 2.0206404 35
-9.9302654 -0.49088633 1.9790952 71
-9.9428539 -0.48976901 0.98490483 40
-2.1519775 -0.1045016 1.9994081 73
-2.6308715 -0.12729563 2.0014381 69
-3.2745101 -0.15843448 2.0113168 65
-4.1762419 -0.20133273 2.020282 63
-5.5241885 -0.26534876 2.0129259 36
-7.9721684 -0.38153926 2.0156984 27
-9.932579 -0.47362417 1.4773506 60
-4.3413105 -0.20625266 0.26899731 112
-0.031248152 -0.00097703421 1.9891979 69
-0.31282026 -0.013185697 1.9909451 95
-0.37175408 -0.016527224 1.8124948 37
-0.43098885 -0.019443529 1.4255807 40
-0.82074976 -0.037144557 1.9951125 95
-1.0510094 -0.047738999 1.9945602 81
-1.3078332 -0.059398744 1.9954264 38
-1.6064111 -0.072954528 2.0012317 73
-0.12411673 -0.0040680724 1.9810979 95
-0.21967043 -0.006068388 2.0032918 88
-0.3665756 -0.015841067 1.4492474 33
-0.71122843 -0.030949172 1.9901476 93
-0.93283415 -0.040907044 1.9936218 92
-1.2341009 -0.054110765 2.0907271 34
-1.4419578 -0.063219778 1.9852921 87
-1.769132 -0.077559181 1.9980052 85
-1.9419774 -0.090230457 1.9902295 73
-2.3751333 -0.11035196 1.9989008 66
-2.9427624 -0.13620885 2.0160377 64
-3.6922808 -0.1708972 2.0205503 60
-4.7290711 -0.21805719 2.0010173 40
-6.560935 -0.30137584 2.0192311 31
-9.9319181 -0.45622024 1.9790952 72
-9.9345522 -0.45460367 0.98401242 40
-2.1523294 -0.096989162 1.9994081 75
-2.6312997 -0.1181114 2.0014381 69
-3.2750432 -0.14700334 2.0113168 65
-4.1769195 -0.18675371 2.020282 63
-5.5250812 -0.24606413 2.0129259 35
-7.9734521 -0.35370886 2.0156984 27
-9.9341707 -0.43895012 1.4773506 60
-4.3370128 -0.19087777 0.26879579 114
-0.031251371 -0.00086795189 1.9891979 69
-0.31286439 -0.01209367 1.9909451 93
-0.37180951 -0.015229458 1.8124948 36
-0.43105412 -0.017938981 1.4255807 40
-0.82087445 -0.03427938 1.9951125 93
-1.0511696 -0.044069998 1.9945602 81
-1.3080325 -0.054833192 1.9954264 38
-1.6066558 -0.06734667 2.0012317 74
-0.12413017 -0.0036347995 1.9810979 93
-0.21915649 -0.0052893516 1.9983203 86
-0.36662862 -0.014561382 1.4492474 33
-0.71133214 -0.028466333 1.9901476 93
-0.93297118 -0.037650596 1.9936218 90
-1.2342821 -0.049802624 2.0907271 34
-1.4421695 -0.058186024 1.9852921 87
-1.7693919 -0.071383283 1.9980052 83
-1.9422805 -0.083451137 1.9902295 67
-2.375504 -0.10206053 1.9989008 64
-2.9432201 -0.12593587 2.0160377 64
-3.6928546 -0.1580077 2.0205503 55
-4.7298036 -0.20154832 2.0010173 41
-6.5619473 -0.27847204 2.0192311 31
-9.9334507 -0.42154855 1.9790952 72
-9.936079 -0.41992289 0.98401242 40
-2.1526549 -0.089475542 1.9994081 73
-2.631696 -0.10892573 2.0014381 69
-3.2755365 -0.13557041 2.0113168 65
-4.177546 -0.1721724 2.020282 63
-5.5259061 -0.2267765 2.0129259 35
-7.974638 -0.32587415 2.0156984 28
-9.9356432 -0.40427068 1.4773506 63
-4.3226776 -0.17513087 0.26819119 115
-0.03125421 -0.00075885898 1.9891979 69
-0.31290469 -0.011001495 1.9909451 92
-0.37186038 -0.013931508 1.8124948 36
-0.43111411 -0.016434209 1.4255807 42
-0.82098907 -0.031413782 1.9951125 95
-1.0513171 -0.040400468 1.9945602 83
-1.308216 -0.05026697 1.9954264 37
-1.6068813 -0.061737984 2.0012317 74
-0.1241421 -0.0032014824 1.9810979 95
-0.21917363 -0.0045243204 1.9983203 84
-0.36667722 -0.013281521 1.4492474 33
-0.71142715 -0.025983147 1.9901476 93
-0.93309695 -0.034393687 1.9936218 90
-1.2344486 -0.045493864 2.0907271 34
-1.442364 -0.053151555 1.9852921 84
-1.7696303 -0.065206513 1.9980052 85
-1.94256 -0.076670811 1.9902295 67
-2.3758457 -0.093767852 1.9989008 66
-2.9436417 -0.11566135 2.0160377 64
-3.6933837 -0.14511627 2.0205503 55
-4.7304778 -0.18503699 2.0010173 41
-6.5628791 -0.25556487 2.0192311 36
-9.9348612 -0.38687178 1.9790952 71
-9.9325094 -0.38504404 0.98356628 37
-2.1529543 -0.081960827 1.9994081 73
-2.6320603 -0.099738732 2.0014381 69
-3.2759898 -0.12413582 2.0113168 65
-4.1781216 -0.15758899 2.020282 64
-5.5266643 -0.20748609 2.0129259 35
-7.9757271 -0.29803547 2.0156984 27
-9.9369936 -0.36958638 1.4773506 61
-4.3332472 -0.16041046 0.26859424 113
-0.031256668 -0.00064975681 1.9891979 69
-0.31294119 -0.0099091865 1.9909451 92
-0.37190679 -0.012633389 1.8124948 37
-0.43116882 -0.014929242 1.4255807 40
-0.82109374 -0.028547809 1.9951125 95
-1.0514517 -0.036730438 1.9945602 83
-1.3083835 -0.04570014 1.9954264 37
-1.603883 -0.056016658 1.9973947 74
-0.12415252 -0.0027681263 1.9810979 95
-0.21918806 -0.0037592342 1.9983203 82
-0.36672136 -0.012001499 1.4492474 34
-0.71151352 -0.023499643 1.9901476 93
-0.93321133 -0.031136362 1.9936218 93
-1.2345999 -0.041184559 2.0907271 34
-1.4425408 -0.048116442 1.9852921 84
-1.7698472 -0.059028957 1.9980052 85
-1.9428157 -0.069889538 1.9902295 73
-2.3761585 -0.085474022 1.9989008 66
-2.9440274 -0.10538542 2.0160377 64
-3.6938677 -0.13222307 2.0205503 60
-4.7310948 -0.16852343 2.0010173 42
-6.5637312 -0.2326546 2.0192311 36
-9.9361515 -0.35219032 1.9790952 71
nan nan nan 0
-2.1569588 -0.074574128 2.002733 73
-2.6323924 -0.090550527 2.0014381 69
-3.2764032 -0.11269974 2.0113168 65
-4.1786461 -0.14300367 2.020282 63
-5.5273547 -0.18819317 2.0129259 34
-7.9767189 -0.27019319 2.0156984 27
-9.9431734 -0.33506432 1.4780405 61
-5.4222836 -0.18177345 0.31252798 43
-0.031258747 -0.00054064667 1.9891979 69
-0.31297389 -0.0088167582 1.9909451 93
-0.3719486 -0.011335116 1.8124948 36
-0.43121833 -0.01342409 1.4255807 40
-0.82118833 -0.025681481 1.9951125 95
-1.0515735 -0.033059962 1.9945602 83
-1.308535 -0.041132748 1.9954264 37
-1.6040688 -0.050417718 1.9973947 74
-0.12416142 -0.0023347361 1.9810979 95
-0.21919985 -0.0029941024 1.9983203 84
-0.36550373 -0.010684671 1.4444082 34
-0.71159118 -0.021015856 1.9901476 95
-0.93331432 -0.027878659 1.9936218 92
-1.2347362 -0.036874752 2.0907271 34
-1.4426999 -0.043080743 1.9852921 84
-1.7700424 -0.052850675 1.9980052 83
-1.9430478 -0.063107423 1.9902295 73
-2.3764424 -0.077179171 1.9989008 66
-2.9443774 -0.095108196 2.0160377 64
-3.6943069 -0.11932825 2.0205503 60
-4.7316546 -0.15200779 2.0010173 42
-6.5645037 -0.20974149 2.0192311 36
