# .PCD v0.7 - Point Cloud Data file format
VERSION 0.7
FIELDS x y z intensity
SIZE 4 4 4 4
TYPE F F F F
COUNT 1 1 1 1
WIDTH 1318
HEIGHT 1
VIEWPOINT 0 0 0 1 0 0 0
POINTS 1318
DATA ascii
-0.39627957 0.81248164 0.74176532 8
-0.39956388 0.81922132 0.62101465 4
-0.40223739 0.8250683 0.51178247 4
-0.40364659 0.82832575 0.40966547 5
-0.41937581 0.86098564 0.32169959 3
-0.40330008 0.82798159 0.22050628 5
-0.41103411 0.84423405 0.13155322 7
-0.013209856 0.028287366 1.984198 73
-0.13554953 0.28223518 1.9909451 93
-0.17914484 0.37082642 2.0034087 89
-0.26468644 0.5469895 1.9886441 86
-0.35798496 0.73949754 1.9951125 95
-0.38548145 0.79595828 1.687354 37
-0.39033014 0.80597633 1.3878829 15
-0.39348653 0.81250006 1.1571038 14
-0.052712403 0.11244071 1.9810979 88
-0.092030801 0.19896702 1.9983203 95
-0.22085999 0.45864296 1.9960775 93
-0.30982614 0.64286196 1.9948403 91
-0.3876929 0.80373484 1.908106 38
-0.38711417 0.8025409 1.5276239 37
-0.39137137 0.811373 1.2671825 19
-0.39376268 0.81633657 1.0608382 28
-0.39587745 0.81525958 0.97040653 15
-0.39413178 0.81167036 0.80968326 12
-0.39533183 0.81450355 0.67820227 7
-0.39912298 0.82232046 0.56482941 6
-0.40304217 0.83076441 0.46138442 5
-0.40832645 0.84203076 0.36483553 5
-0.41795588 0.86188829 0.27333307 7
-0.41913888 0.86471224 0.17904988 7
-0.39840183 0.8233881 0.89555842 22
-0.3971028 0.82106882 0.74765164 14
-0.39872211 0.82442296 0.62354708 9
-0.40147448 0.83048373 0.51388049 7
-0.4050068 0.83816397 0.41295084 7
-0.41229042 0.85361797 0.31935495 8
-0.40256041 0.83384407 0.22119612 8
-0.41025591 0.85016322 0.13175476 11
-0.013111034 0.028333306 1.984198 73
-0.13456351 0.28270662 1.9909451 95
-0.17784934 0.37144953 2.0034087 83
-0.26277548 0.54791015 1.9886441 86
-0.35540146 0.74074268 1.9951125 95
-0.38581073 0.80377859 1.7005199 37
-0.38994974 0.81240785 1.3961488 24
-0.39480972 0.82253927 1.1686146 26
-0.052319594 0.11262403 1.9810979 89
-0.091335714 0.19928706 1.9983203 95
-0.21871598 0.45827591 1.9912384 93
-0.30758023 0.6439395 1.9948403 91
-0.3877027 0.81097758 1.9216086 39
-0.38656005 0.80859321 1.5361557 37
-0.39113665 0.81817269 1.2751615 33
-0.39529723 0.826882 1.0718638 34
-0.39612234 0.82306343 0.97741562 30
-0.39636061 0.82356447 0.81909657 29
-0.39792427 0.82718295 0.68642664 27
-0.40009114 0.83169329 0.56946546 27
-0.40013978 0.83216619 0.46138442 29
-0.40746287 0.8477748 0.3662447 11
-0.41281688 0.85891461 0.27240044 13
-0.40964842 0.85270327 0.17771125 15
-0.39713997 0.82814097 0.89888322 33
-0.39772856 0.82973975 0.75353795 33
-0.39956892 0.83358508 0.62861192 32
-0.40249515 0.84006596 0.5180766 31
-0.40615809 0.84809101 0.41623619 21
-0.40930825 0.85505188 0.31935495 10
-0.40178472 0.83971131 0.22188592 14
-0.40944129 0.85609704 0.13195628 15
-0.013034642 0.02841654 1.9891979 73
-0.1336253 0.2831513 1.9909451 95
-0.17661658 0.3720372 2.0034087 85
-0.26095709 0.54877853 1.9886441 86
-0.35294312 0.74191713 1.9951125 93
-0.38726121 0.81370664 1.7180746 37
-0.39088124 0.82131934 1.4085476 32
-0.39621288 0.83252841 1.1801254 33
-0.051965516 0.11278784 1.9810979 89
-0.090709187 0.19957303 1.9983203 95
-0.21727519 0.45896074 1.9912384 93
-0.30555573 0.64490259 1.9948403 91
-0.38780946 0.81816232 1.9351109 39
-0.38722765 0.81694078 1.5489535 37
-0.39229399 0.82763577 1.28713 36
-0.39560267 0.83424622 1.0792141 36
-0.3964625 0.83080959 0.98442471 34
-0.39698049 0.83190107 0.8253721 34
-0.39877939 0.83604622 0.69190961 35
-0.40114543 0.84101278 0.57410151 34
-0.40351096 0.84597218 0.46700355 30
-0.40479746 0.8490507 0.3662447 10
-0.40996635 0.86027884 0.27240044 11
-0.40681848 0.85405701 0.17771125 12
-0.39759871 0.83619851 0.90553302 36
-0.39844492 0.83835548 0.75942427 36
-0.40065074 0.84262341 0.63367677 36
-0.40180218 0.84542549 0.52017468 33
-0.40551811 0.8536284 0.41787887 19
-0.40453511 0.85194278 0.31818265 13
-0.40126809 0.84544325 0.22257572 12
-0.40889114 0.86189288 0.1321578 21
-0.01293537 0.028461866 1.9891979 73
-0.1326361 0.28361601 1.9909451 95
-0.17531686 0.37265146 2.0034087 93
-0.25903994 0.54968613 1.9886441 82
-0.35035121 0.74314457 1.9951125 93
-0.3874844 0.82155412 1.7312406 36
-0.39041272 0.8277691 1.4168135 35
-0.39603949 0.83970553 1.1877993 35
-0.051551774 0.11297754 1.9810979 88
-0.0899771 0.19990414 1.9983203 93
-0.21559155 0.45975405 1.9912384 93
-0.30318996 0.64601821 1.9948403 91
-0.38680291 0.82345337 1.9441129 39
-0.38770002 0.8253693 1.5617512 37
-0.39196536 0.83445609 1.295109 38
-0.39686632 0.84489614 1.0902396 37
-0.39660928 0.83863634 0.9914338 36
-0.3974027 0.84032005 0.83164763 36
-0.39943257 0.84499389 0.69739258 35
-0.4019939 0.85041845 0.57873756 35
-0.40238807 0.85163701 0.46887657 30
-0.4037315 0.85486656 0.36765391 10
-0.4069609 0.86170459 0.27240044 9
-0.4080866 0.86447889 0.17860366 11
-0.39786097 0.84433752 0.91218269 37
-0.39896065 0.8470546 0.76531059 37
-0.40123364 0.85188669 0.63874161 36
-0.40256706 0.85510492 0.52437073 33
-0.4043974 0.85938197 0.41952157 19
-0.40347865 0.85781813 0.31935495 16
-0.40027368 0.85138994 0.22326556 10
-0.4078542 0.86790729 0.13235934 23
-0.01283594 0.028506845 1.9891979 73
-0.13164528 0.28407729 1.9909451 93
-0.174015 0.37326118 2.0034087 93
-0.2571196 0.55058694 1.9886441 82
-0.34775501 0.74436301 1.9951125 93
-0.38765743 0.829413 1.7444066 36
-0.39109537 0.83677489 1.4292125 36
-0.3971782 0.84979594 1.1993101 37
-0.051157102 0.1131568 1.9810979 88
-0.089061931 0.19972908 1.993349 93
-0.21451539 0.4616445 1.9960775 95
-0.30093309 0.64707255 1.9948403 91
-0.38668305 0.83072144 1.9576153 40
-0.38811827 0.83381093 1.5745492 37
-0.3915939 0.8412841 1.3030879 39
-0.39677587 0.85242337 1.09759 38
-0.39670622 0.84647405 0.99844289 37
-0.39777097 0.84875202 0.83792323 37
-0.40002808 0.8539561 0.70287549 36
-0.40090221 0.85582829 0.58105558 33
-0.40334445 0.86143339 0.47262263 30
-0.40277848 0.86061561 0.36906311 10
-0.40395051 0.8631199 0.27240044 13
-0.40717667 0.87040895 0.17904988 11
-0.39807123 0.8524884 0.91883242 38
-0.39942047 0.85576749 0.7711969 37
-0.40190434 0.86109543 0.64380646 36
-0.40149853 0.86061788 0.52646881 33
-0.40339097 0.86506838 0.42116427 21
-0.40048188 0.85922128 0.31935495 16
-0.40148199 0.86175984 0.2246452 11
-0.40904018 0.87838364 0.1327624 23
-0.012736356 0.028551478 1.9891979 73
-0.13065286 0.28453505 1.9909451 93
-0.172711 0.37386632 2.0034087 91
-0.25519609 0.55148113 1.9886441 86
-0.34515455 0.74557239 1.9951125 95
-0.38778028 0.83728284 1.7575725 37
-0.39171982 0.84579533 1.4416113 37
-0.39690393 0.85699534 1.206984 37
-0.050879706 0.11359915 1.9860895 89
-0.088364206 0.20003876 1.993349 93
-0.21290262 0.46239048 1.9960775 95
-0.29867259 0.64811903 1.9948403 91
-0.3856051 0.83602118 1.9666169 42
-0.38848218 0.84226537 1.587347 37
-0.39244175 0.8508566 1.3150564 39
-0.39663768 0.85996014 1.1049403 38
-0.39675322 0.85432273 1.005452 38
-0.39808512 0.85719681 0.84419876 37
-0.4005658 0.8629328 0.70835841 36
-0.40164289 0.86525929 0.58569163 33
-0.4022862 0.86704135 0.47449565 30
-0.40179026 0.86636835 0.37047231 10
-0.4030019 0.868981 0.27333307 14
-0.40832475 0.8808614 0.17994229 11
-0.39822936 0.86065102 0.92548209 38
-0.39982423 0.86449385 0.77708322 37
-0.40070584 0.8664062 0.64633894 36
-0.40230078 0.87025338 0.53066492 33
-0.40234968 0.87075812 0.42280695 21
-0.40155622 0.86943948 0.32169959 15
-0.40054709 0.8676523 0.225335 14
-0.40806472 0.88434237 0.13296393 24
-0.012636614 0.02859576 1.9891979 73
-0.12965886 0.28498942 1.9909451 95
-0.17140491 0.37446693 2.0034087 91
-0.25326952 0.55236858 1.9886441 86
-0.34254992 0.74677265 1.9951125 95
-0.38785288 0.84516358 1.7707385 37
-0.39111233 0.85227275 1.4498771 37
-0.39658424 0.86420304 1.2146579 37
-0.050482862 0.11377606 1.9860895 89
-0.087665401 0.20034598 1.993349 93
-0.21180929 0.46427521 2.0009167 95
-0.29640841 0.6491577 1.9948403 93
-0.38358968 0.83934289 1.9711179 45
-0.38879183 0.85073256 1.6001447 37
-0.39197481 0.85770375 1.3230355 39
-0.39645162 0.86750627 1.1122906 38
-0.39675024 0.86218172 1.0124611 38
-0.39834517 0.86565393 0.8504743 37
-0.40104571 0.87192345 0.71384132 37
-0.40232262 0.87470573 0.59032768 35
-0.40313017 0.87686455 0.47824171 30
-0.4007667 0.87212473 0.37188148 17
-0.40201721 0.8748461 0.27426568 15
-0.4073261 0.88680685 0.18038851 11
-0.39833534 0.86882508 0.93213177 38
-0.39848804 0.86955869 0.78002638 37
-0.40127119 0.87563825 0.65140384 36
-0.40304065 0.87990493 0.53486103 33
-0.40323946 0.88074499 0.42609233 23
-0.40054148 0.8752557 0.32287189 15
-0.39957589 0.87354857 0.22602481 15
-0.40912998 0.89484859 0.133367 24
-0.012536719 0.028639698 1.9891979 73
-0.12866327 0.28544027 1.9909451 95
-0.17009674 0.37506294 2.0034087 93
-0.25133982 0.55324924 1.9886441 86
-0.33994111 0.74796385 1.9951125 95
-0.38886675 0.85523599 1.7882931 37
-0.39162916 0.86131781 1.462276 37
-0.39754602 0.87433743 1.2261688 37
-0.049969338 0.11368631 1.9810979 86
-0.087177239 0.20114093 1.9983203 93
-0.21018739 0.46501175 2.0009167 95
-0.29414061 0.65018839 1.9948403 91
-0.38245398 0.84464443 1.9801195 57
-0.38904703 0.8592121 1.6129426 37
-0.39146477 0.86455804 1.3310144 39
-0.39761603 0.87814993 1.123316 38
-0.39817664 0.87329614 1.0229747 38
-0.39855093 0.87412328 0.85674983 37
-0.40146771 0.88092786 0.71932429 37
-0.40110403 0.88013607 0.5926457 35
-0.40391037 0.88670403 0.48198777 30
-0.40169579 0.88225055 0.37469989 22
-0.40099651 0.88071471 0.27519831 14
-0.40835372 0.8972888 0.18128091 12
-0.39838904 0.87701029 0.9387815 38
-0.39879239 0.8783052 0.78591269 37
-0.40177694 0.88488477 0.65646869 36
-0.40184236 0.88543922 0.53695905 33
-0.4021135 0.88644785 0.427735 24
-0.40149817 0.88550216 0.32521653 15
-0.40061259 0.88395917 0.22740445 17
-0.40806535 0.90082204 0.13356853 25
-0.012436672 0.028683286 1.9891979 73
-0.1276661 0.28588763 1.9909451 95
-0.1687865 0.37565443 2.0034087 93
-0.24940711 0.55412322 1.9886441 86
-0.33732817 0.74914593 1.9951125 93
-0.38883099 0.8631413 1.8014591 37
-0.39208752 0.87037677 1.4746748 38
-0.39712504 0.88156581 1.2338426 37
-0.049687333 0.11412572 1.9860895 86
-0.08647459 0.20144401 1.9983203 91
-0.20856291 0.46574256 2.0009167 95
-0.29186925 0.65121114 1.9948403 91
-0.38039455 0.84796119 1.9846202 69
-0.39031515 0.87008315 1.6300063 37
-0.39214519 0.87416905 1.3429829 39
-0.3973234 0.88571882 1.1306664 39
-0.39806211 0.88118082 1.0299839 38
-0.3987025 0.8826046 0.86302549 37
-0.40183169 0.88994586 0.7248072 37
-0.40167552 0.8896063 0.59728175 35
-0.40271974 0.89233416 0.48386082 31
-0.40453163 0.89676619 0.37892747 20
-0.39993972 0.88658679 0.27613091 14
-0.40931308 0.90778852 0.18217334 13
-0.39839047 0.88520622 0.94543117 38
-0.39904049 0.88706434 0.79179901 37
-0.40222296 0.89414531 0.66153353 36
-0.40247148 0.89511526 0.54115516 33
-0.40288845 0.89646101 0.43102038 25
-0.40039647 0.89133209 0.32638884 15
-0.40158144 0.89438754 0.22878408 22
-0.40900955 0.91135687 0.13397159 27
-0.012336473 0.028726522 1.9891979 73
-0.12666741 0.28633153 1.9909451 95
-0.1674742 0.37624133 2.0034087 93
-0.24747133 0.55499047 1.9886441 86
-0.3347111 0.75031883 1.9951125 95
-0.3897211 0.87324435 1.8190137 37
-0.39248735 0.87944931 1.4870737 37
-0.39796492 0.89172947 1.2453535 37
-0.04928866 0.11429847 1.9860895 89
-0.08577089 0.20174463 1.9983203 91
-0.20693588 0.4664678 2.0009167 96
-0.28959429 0.65222603 1.9948403 91
-0.37831667 0.85127401 1.9891212 80
-0.39045295 0.87859011 1.642804 37
-0.39153931 0.88104105 1.3509619 39
-0.3969827 0.89329648 1.1380167 39
-0.39789736 0.88907528 1.036993 38
-0.39879954 0.89109743 0.86930102 37
-0.40213761 0.89897704 0.73029011 36
-0.40218583 0.89909112 0.60191786 34
-0.40338695 0.90219867 0.48760688 31
-0.40531355 0.90693253 0.38174587 21
-0.40085101 0.89694703 0.27799615 14
-0.40817291 0.9137587 0.18261954 14
-0.39986011 0.89682364 0.95540571 38
-0.3992323 0.89583582 0.79768533 37
-0.4026092 0.90341967 0.66659838 36
-0.40303788 0.90480632 0.54535127 33
-0.40359834 0.90649021 0.43430573 26
-0.40123513 0.90160584 0.3287335 15
-0.40248233 0.90483344 0.23016369 28
-0.40785542 0.91734409 0.13417313 28
-0.012236124 0.028769409 1.9891979 73
-0.12566714 0.28677192 1.9909451 95
-0.16615984 0.3768236 2.0034087 93
-0.24553254 0.55585086 1.9886441 84
-0.33208996 0.75148267 1.9951125 95
-0.38957667 0.88117301 1.8321797 37
-0.39282861 0.88853514 1.4994725 37
-0.39873865 0.90190971 1.2568643 37
-0.048889384 0.11446983 1.9860895 89
-0.085066147 0.2020428 1.9983203 91
-0.20530635 0.46718729 2.0009167 96
-0.28731585 0.65323293 1.9948403 91
-0.37534291 0.85258937 1.9891212 92
-0.39053616 0.88710868 1.6556019 37
-0.39210457 0.89067793 1.3629304 38
-0.39795986 0.90398514 1.1490421 39
-0.39768228 0.89697915 1.0440021 38
-0.39884219 0.8996017 0.87557656 37
-0.40238526 0.90802097 0.73577303 37
-0.40263468 0.9085902 0.60655391 34
-0.40399015 0.9120788 0.49135295 31
-0.4079715 0.9215017 0.38597345 21
-0.39970624 0.90283251 0.27892879 11
-0.4090113 0.92428619 0.18351197 17
-0.39974475 0.90504587 0.96205539 38
-0.39936766 0.90461934 0.80357164 37
-0.40293553 0.91270751 0.67166322 36
-0.40354151 0.91451216 0.54954737 34
-0.40424308 0.91653514 0.43759111 27
-0.40200692 0.91189611 0.33107814 15
-0.4033151 0.91529638 0.23154333 29
-0.40666452 0.92333436 0.13437465 31
-0.012135625 0.028811947 1.9891979 73
-0.12466535 0.28720886 1.9909451 95
-0.16484347 0.37740129 2.0034087 91
-0.24359079 0.55670464 1.9886441 84
-0.32946476 0.75263727 1.9951125 93
-0.38938159 0.88911116 1.8453457 38
-0.3931112 0.89763403 1.5118713 38
-0.39944607 0.91210598 1.2683752 37
-0.048377164 0.1143729 1.9810979 88
-0.084360376 0.2023385 1.9983203 91
-0.20317237 0.46674776 1.9960775 95
-0.28503388 0.65423191 1.9948403 91
-0.37323493 0.85589051 1.9936218 92
-0.3905645 0.89563835 1.6683997 37
-0.39260724 0.90032935 1.3748989 39
-0.39751205 0.9115839 1.1563925 39
-0.39885089 0.90815753 1.0545157 37
-0.39883024 0.90811688 0.88185215 37
-0.40257463 0.9170776 0.741256 36
-0.40124133 0.9140467 0.60887194 35
-0.40452924 0.92197388 0.49509901 32
-0.40860578 0.93170685 0.38879183 18
-0.40049815 0.91321957 0.28079402 11
-0.4097811 0.93483043 0.18440439 23
-0.39957675 0.91327828 0.96870506 38
-0.39944649 0.9134146 0.80945796 37
-0.40320188 0.92200851 0.67672807 37
-0.40398228 0.92423254 0.55374354 34
-0.40482256 0.92659563 0.44087645 28
-0.40465686 0.92665708 0.33459508 14
-0.40407968 0.925776 0.23292297 30
-0.40743446 0.93390661 0.13477771 37
-0.012034979 0.028854132 1.9891979 73
-0.12366205 0.28764227 1.9909451 95
-0.16352509 0.37797445 2.0034087 93
-0.24164602 0.5575515 1.9886441 86
-0.32683557 0.75378269 1.9951125 95
-0.39008915 0.89925641 1.8629003 38
-0.39333498 0.90674561 1.5242703 37
-0.39881134 0.91937697 1.276049 37
-0.04797763 0.11454108 1.9810979 89
-0.083653562 0.20263174 1.9983203 93
-0.20154186 0.46745414 1.9960775 95
-0.28274843 0.65522283 1.9948403 93
-0.37024504 0.85718811 1.9936218 90
-0.3905381 0.90417904 1.6811975 37
-0.3930473 0.90999502 1.3868674 39
-0.39836028 0.92230266 1.167418 39
-0.39852363 0.91608471 1.0615247 38
-0.39876369 0.91664302 0.88812768 37
-0.40270567 0.92614645 0.74673891 37
-0.40158138 0.92356724 0.61350799 35
-0.40500414 0.93188387 0.49884507 33
-0.40917382 0.94192779 0.39161023 17
-0.40122232 0.92362309 0.28265926 14
-0.41048229 0.9453913 0.1852968 27
-0.40084106 0.92494673 0.9786796 38
-0.39946884 0.92222148 0.81534433 38
-0.4034082 0.93132257 0.68179291 37
-0.40436003 0.93396699 0.55793959 35
-0.40533674 0.9366712 0.44416183 29
-0.40527898 0.93698639 0.33693972 17
-0.40477604 0.93627197 0.23430261 37
-0.40615377 0.93990916 0.13497925 44
-0.011934185 0.028895967 1.9891979 69
-0.12265724 0.2880722 1.9909451 95
-0.16220471 0.37854293 2.0034087 93
-0.23969835 0.55839163 1.9886441 86
-0.32420239 0.75491899 1.9951125 95
-0.38978496 0.90721631 1.8760663 39
-0.39349994 0.91586959 1.5366691 37
-0.39939627 0.92960018 1.2875599 37
-0.047577515 0.11470785 1.9810979 86
-0.082744338 0.20242804 1.993349 93
-0.19990893 0.46815482 1.9960775 95
-0.28045955 0.65620577 1.9948403 93
-0.36725065 0.85847527 1.9936218 90
-0.39148253 0.91512817 1.6982613 38
-0.39342457 0.91967463 1.3988359 39
-0.39780512 0.92992151 1.1747683 39
-0.39955699 0.92729568 1.0720384 38
-0.39864242 0.92517954 0.89440322 37
-0.4027783 0.93522745 0.75222182 37
-0.40185979 0.93310124 0.61814404 35
-0.40541482 0.94180834 0.50259119 33
-0.40967542 0.95216364 0.39442861 20
-0.40187871 0.93404251 0.2845245 15
-0.40914717 0.95139319 0.18574302 33
-0.40055579 0.93320352 0.98532933 38
-0.39784089 0.92732483 0.81828749 38
-0.40185457 0.93668699 0.68432534 37
-0.40288603 0.93954384 0.56003767 35
-0.40392506 0.94242096 0.44580451 31
-0.4058339 0.94733119 0.33928433 16
-0.40540394 0.94678408 0.23568225 37
-0.40680182 0.9505071 0.13538231 55
-0.011833247 0.028937448 1.9891979 69
-0.12165093 0.28849858 1.9909451 97
-0.16088237 0.37910682 2.0034087 91
-0.23774774 0.5592249 1.9886441 86
-0.32156527 0.75604606 1.9951125 95
-0.38849184 0.91298038 1.8848437 39
-0.39250413 0.92241633 1.544935 37
-0.39865938 0.93688869 1.2952337 37
-0.047176819 0.11487323 1.9810979 86
-0.08203724 0.20271564 1.993349 93
-0.19827354 0.46884978 1.9960775 95
-0.27816728 0.65718079 1.9948403 91
-0.36425176 0.859752 1.9936218 90
-0.39133781 0.92369336 1.7110591 38
-0.39373907 0.9293679 1.4108044 39
-0.39720166 0.93754774 1.1821188 39
-0.39911723 0.93524492 1.0790476 37
-0.39846638 0.93372637 0.90067875 38
-0.40279233 0.94432002 0.75770473 38
-0.40033832 0.93857324 0.62046206 36
-0.40394291 0.94748235 0.50446421 34
-0.40822989 0.95800126 0.39583781 25
-0.40054154 0.93995875 0.28545713 11
-0.40972665 0.96197927 0.18663543 28
-0.40021777 0.94146967 0.99197906 39
-0.39776275 0.93614817 0.82417381 38
-0.40195435 0.94601995 0.68939018 38
-0.40315211 0.94929934 0.56423378 36
-0.40432334 0.95251924 0.44908988 32
-0.40821984 0.96216565 0.3428013 16
-0.4059633 0.95731169 0.23706186 37
-0.40738073 0.96112084 0.13578537 67
-0.011727106 0.028980624 1.9891979 73
-0.12059271 0.28894252 1.9909451 99
-0.15949178 0.37969396 2.0034087 93
-0.23569646 0.56009251 1.9886441 84
-0.31879205 0.75721955 1.9951125 95
-0.38421306 0.91219014 1.8804549 38
-0.39239752 0.93162888 1.5573338 38
-0.39771163 0.94425255 1.3029076 38
-0.04675547 0.11504537 1.9810979 86
-0.081293687 0.20301494 1.993349 93
-0.1965538 0.46957332 1.9960775 95
-0.27575672 0.65819591 1.9948403 91
-0.36094788 0.8611443 1.9936218 90
-0.39081261 0.93240499 1.7238568 38
-0.39249772 0.93643224 1.4187834 39
-0.39621973 0.94531918 1.1894691 39
-0.39846209 0.94327182 1.0860566 37
-0.39807102 0.94235259 0.90695435 38
-0.40095493 0.94964212 0.76044625 38
-0.40034199 0.94819701 0.62509811 37
-0.40226993 0.95322758 0.50633723 35
-0.40658033 0.96391129 0.39724702 31
-0.40074608 0.95054263 0.28732237 11
-0.40796369 0.96813458 0.18708165 29
-0.39949521 0.94988394 0.9986288 39
-0.3957316 0.94139481 0.82711697 38
-0.39998958 0.95153075 0.69192261 38
-0.4012621 0.95502454 0.5663318 36
-0.40249145 0.95841879 0.45073256 32
-0.40640357 0.9682079 0.34397361 16
-0.40436849 0.96335948 0.23775169 39
-0.40578809 0.96721447 0.13598689 78
-0.011625874 0.029021382 1.9891979 73
-0.11958338 0.28936172 1.9909451 99
-0.15816543 0.38024834 2.0034087 93
-0.23373996 0.56091189 1.9886441 82
-0.31614691 0.75832778 1.9951125 95
-0.37918213 0.90910345 1.8716776 37
-0.39239287 0.94078451 1.5697327 38
-0.39688131 0.95155281 1.3105814 38
-0.046353601 0.11520788 1.9810979 86
-0.080584541 0.20329748 1.993349 93
-0.19491348 0.47025657 1.9960775 95
-0.27411875 0.66074854 1.9995331 93
-0.35809022 0.86233652 1.9936218 92
-0.39071894 0.94092172 1.7366546 38
-0.39285767 0.94607919 1.4307519 42
-0.3956829 0.9528898 1.1968193 42
-0.39791948 0.9512369 1.0930656 38
-0.39628148 0.94732779 0.91009212 39
-0.40086356 0.95875162 0.76592922 38
-0.39873865 0.95367599 0.62741613 37
-0.40072763 0.95890337 0.5082103 35
-0.40506217 0.96975124 0.39865619 29
-0.40137833 0.96093184 0.28918761 27
-0.40666965 0.9740777 0.18752787 111
-0.39777938 0.95465052 1.0019536 40
-0.39571559 0.95016456 0.83300328 39
-0.39848948 0.95683175 0.69445503 39
-0.39983708 0.96054 0.56842989 36
-0.40112513 0.96410853 0.45237529 35
-0.40505701 0.97403824 0.34514591 33
-0.40480471 0.97391093 0.2391313 80
-0.40432614 0.97323865 0.13618843 141
-0.011524499 0.029061787 1.9891979 73
-0.11857259 0.28977737 1.9909451 99
-0.15683715 0.38079816 2.0034087 87
-0.23178057 0.56172431 1.9886441 86
-0.31349796 0.75942671 1.9951125 93
-0.37509197 0.90820718 1.8672891 38
-0.39125481 0.94735032 1.5779986 39
-0.39478111 0.95589548 1.3144184 39
-0.045951169 0.11536898 1.9810979 86
-0.080068797 0.20407481 1.9983203 93
-0.19327077 0.47093403 1.9960775 93
-0.27181062 0.66170132 1.9995331 93
-0.35507792 0.86358118 1.9936218 92
-0.38941559 0.9471041 1.7451864 39
-0.39184508 0.95301986 1.4387308 48
-0.39493263 0.96053612 1.2041696 47
-0.39596137 0.95591491 1.0965701 39
-0.39595172 0.95589834 0.91636765 39
-0.39911395 0.96400845 0.76867068 39
-0.39710188 0.95915526 0.62973416 37
-0.39915058 0.96457994 0.51008332 36
-0.40350819 0.97559237 0.40006539 35
-0.40177655 0.97140568 0.29105285 37
-0.40326703 0.97549134 0.18752787 129
-0.39729312 0.96293741 1.0086033 42
-0.39393744 0.95527685 0.83594644 40
-0.39679062 0.96220255 0.69698745 39
-0.39821124 0.96612585 0.57052791 38
-0.3995561 0.9698692 0.45401797 38
-0.40350521 0.97994077 0.34631824 39
-0.40140265 0.97531796 0.2391313 78
-0.40092638 0.97464406 0.13618843 129
-0.011422984 0.029101839 1.9891979 73
-0.11756036 0.2901895 1.9909451 99
-0.15550697 0.38134331 2.0034087 87
-0.22981839 0.56252998 1.9886441 86
-0.31084514 0.76051641 1.9951125 93
-0.37010592 0.90507591 1.8585117 39
-0.39007571 0.95391965 1.5862645 40
-0.39386874 0.96320254 1.3220923 42
-0.045653928 0.11579823 1.9860895 89
-0.079355948 0.20435306 1.9983203 93
-0.19162573 0.47160584 1.9960775 93
-0.26949921 0.66264611 1.9995331 93
-0.3520613 0.86481541 1.9936218 92
-0.38807383 0.95328879 1.7537184 40
-0.3896524 0.95717335 1.4427204 54
-0.3928555 0.96504873 1.2078449 56
-0.3953287 0.96389037 1.1035793 44
-0.39408979 0.96087641 0.91950542 49
-0.39733249 0.96926475 0.77141213 47
-0.39543173 0.96463478 0.63205218 42
-0.39753878 0.97025722 0.51195633 39
-0.40191835 0.98143452 0.40147462 33
-0.40024486 0.97734803 0.29198545 19
-0.39985943 0.97689307 0.18752787 64
-0.39534163 0.9677754 1.0119282 56
-0.39212841 0.9603883 0.8388896 52
-0.3950592 0.96757317 0.69951987 53
-0.39655119 0.97171199 0.57262599 42
-0.39795178 0.9756307 0.45566064 37
-0.40008214 0.98134327 0.34631824 29
-0.39799574 0.97671318 0.2391313 43
-0.39752182 0.97603768 0.13618843 68
-0.01132133 0.029141534 1.9891979 73
-0.1165467 0.29059809 1.9909451 99
-0.15417489 0.38188377 2.0034087 93
-0.22841336 0.5647133 1.9934158 80
-0.30818853 0.7615968 1.9951125 93
-0.36604536 0.9041416 1.854123 51
-0.38885549 0.96049219 1.5945303 44
-0.39170724 0.96754324 1.3259294 49
-0.045269672 0.11594899 1.9860895 89
-0.078677855 0.2046151 1.9983203 93
-0.19006079 0.47223869 1.9960775 93
-0.26730031 0.66353613 1.9995331 93
-0.3482264 0.86401927 1.9891212 88
-0.3866936 0.95947546 1.7622502 44
-0.38743541 0.96132308 1.4467099 58
-0.39092091 0.96949047 1.21152 61
-0.39330339 0.96856868 1.1070838 51
-0.39073327 0.96224612 0.91950542 53
-0.3955192 0.97452033 0.77415359 47
-0.3937282 0.97011429 0.63437021 47
-0.39431909 0.97157019 0.51195633 39
-0.39866161 0.98276198 0.40147462 33
-0.39683083 0.9787392 0.29198545 16
-0.39644703 0.97828287 0.18752787 60
-0.39336118 0.97261143 1.0152531 60
-0.39028841 0.96549851 0.84183276 56
-0.39346486 0.97287464 0.7020523 55
-0.3933267 0.97302163 0.57262599 40
-0.39471427 0.97694498 0.45566064 37
-0.39682567 0.98266459 0.34631824 28
-0.39290112 0.9734354 0.2384415 37
-0.39428297 0.97735053 0.13618843 60
-0.011224631 0.029178917 1.9891979 71
-0.1155824 0.29098299 1.9909451 98
-0.15290767 0.38239294 2.0034087 95
-0.22653945 0.56546766 1.9934158 80
-0.30566132 0.76261461 1.9951125 95
-0.3630451 0.90535051 1.854123 59
-0.38671556 0.96438831 1.5986633 48
-0.38849661 0.9688369 1.3259294 54
-0.044884928 0.11609848 1.9860895 89
-0.077998899 0.20487487 1.9983203 93
-0.18849374 0.47286636 1.9960775 93
-0.26509845 0.66441888 1.9995331 93
-0.3453593 0.86516929 1.9891212 85
-0.3844766 0.96317476 1.7665161 51
-0.38536277 0.96540177 1.4506993 62
-0.38770378 0.97078145 1.21152 63
-0.39008936 0.96986759 1.1070838 53
-0.38899282 0.96714813 0.92264318 55
-0.39228541 0.97582656 0.77415359 54
-0.39050901 0.97141457 0.63437021 40
-0.3910951 0.9728725 0.51195633 39
-0.39540043 0.98407865 0.40147462 33
-0.39358306 0.98004979 0.29198545 15
-0.39320076 0.9795922 0.18752787 52
-0.39013374 0.97391051 1.0152531 62
-0.38708454 0.96678746 0.84183276 54
-0.3902365 0.97417402 0.7020523 53
-0.39009789 0.97432065 0.57262599 40
-0.39322698 0.98263299 0.45730335 37
-0.39356485 0.98397511 0.34631824 26
-0.38783264 0.97013462 0.23775169 40
-0.38918608 0.97401333 0.13598689 50
-0.01112271 0.029217921 1.9891979 73
-0.11485012 0.29210785 1.9958843 98
-0.15157193 0.38292435 2.0034087 91
-0.22456421 0.56625497 1.9934158 86
-0.30299744 0.76367694 1.9951125 95
-0.35899875 0.90438551 1.8497344 63
-0.38334686 0.96573234 1.5986633 50
-0.38629514 0.97316682 1.3297663 52
-0.044459097 0.1162622 1.9860895 89
-0.077247471 0.20515938 1.9983203 93
-0.18675932 0.47355407 1.9960775 95
-0.26266152 0.66538602 1.9995331 93
-0.34233719 0.86636949 1.9891212 81
-0.38111213 0.96451092 1.7665161 53
-0.38199052 0.96674103 1.4506993 60
-0.38414311 0.97219592 1.21152 61
-0.38802066 0.97453654 1.1105883 53
-0.38561448 0.96850008 0.92264318 55
-0.38887674 0.97718996 0.77415359 54
-0.38711575 0.9727717 0.63437021 39
-0.38924009 0.97860706 0.51382935 39
-0.39179096 0.9855212 0.40147462 32
-0.38834494 0.97685295 0.29105285 15
-0.38794002 0.97633064 0.18708165 48
-0.38673174 0.9752664 1.0152531 60
-0.38370749 0.96813279 0.84183276 54
-0.38666338 0.9755978 0.7020523 53
-0.3865242 0.97574383 0.57262599 40
-0.38962281 0.98406762 0.45730335 37
-0.38995576 0.98541099 0.34631824 26
-0.38245288 0.96694446 0.23706186 42
-0.38561353 0.97543323 0.13598689 48
-0.011020653 0.029256569 1.9891979 71
-0.11382977 0.29250699 1.9958843 98
-0.15023436 0.3834511 2.0034087 91
-0.22204056 0.56564522 1.9886441 84
-0.30032986 0.76472992 1.9951125 93
-0.3558397 0.90563321 1.8497344 61
-0.37997347 0.96706456 1.5986633 46
-0.3828958 0.9745093 1.3297663 52
-0.044052999 0.11641669 1.9860895 89
-0.076530851 0.20542778 1.9983203 93
-0.18510519 0.47420308 1.9960775 95
-0.26033723 0.66629893 1.9995331 91
-0.33931088 0.86755925 1.9891212 80
-0.37774304 0.96583545 1.7665161 53
-0.37861365 0.96806854 1.4506993 60
-0.3807472 0.97353095 1.21152 61
-0.38461652 0.97588503 1.1105883 53
-0.38223144 0.96984023 0.92264318 55
-0.38546336 0.97854143 0.77415359 52
-0.38371783 0.97411716 0.63437021 42
-0.38582173 0.97995979 0.51382935 38
-0.38834843 0.98688275 0.40147462 33
-0.38313395 0.97363138 0.29012021 15
-0.38452959 0.97767884 0.18708165 47
-0.38332504 0.97661048 1.0152531 60
-0.38032573 0.96946621 0.84183276 54
-0.38325554 0.97694159 0.7020523 53
-0.38311589 0.97708714 0.57262599 40
-0.38618538 0.98542172 0.45730335 37
-0.38474092 0.98224032 0.34514591 26
-0.37907529 0.96827364 0.23706186 36
-0.38038582 0.97212088 0.13578537 41
-0.010903794 0.029253766 1.984198 73
-0.11280803 0.29290253 1.9958843 98
-0.14889494 0.38397321 2.0034087 93
-0.22006473 0.5664168 1.9886441 84
-0.29765862 0.76577365 1.9951125 95
-0.35354453 0.90910256 1.854123 59
-0.3765955 0.96838504 1.5986633 46
-0.37949181 0.97583997 1.3297663 50
-0.043545287 0.11629841 1.9810979 86
-0.075813316 0.20569366 1.9983203 93
-0.18344876 0.47484633 1.9960775 95
-0.25738746 0.66559392 1.9948403 91
-0.33628049 0.86873835 1.9891212 78
-0.37436935 0.96714813 1.7665161 55
-0.37523213 0.96938431 1.4506993 60
-0.37734661 0.97485405 1.21152 60
-0.3812077 0.97722167 1.1105883 53
-0.37884375 0.97116858 0.92264318 53
-0.38204527 0.97988099 0.77415359 52
-0.37870586 0.97132295 0.63205218 42
-0.38239866 0.98130059 0.51382935 38
-0.38316008 0.98376203 0.40006539 33
-0.37795022 0.97038561 0.28918761 14
-0.37930796 0.97437441 0.18663543 42
-0.37991372 0.97794253 1.0152531 60
-0.37547636 0.96702003 0.8388896 52
-0.37828261 0.97425455 0.69951987 51
-0.37970287 0.97841847 0.57262599 40
-0.38103554 0.98236084 0.45566064 37
-0.3813099 0.98357743 0.34514591 27
-0.37390384 0.96497321 0.23637205 37
-0.37699017 0.97344273 0.13578537 37
-0.010801613 0.029291647 1.984198 73
-0.11178492 0.29329452 1.9958843 98
-0.14755371 0.38449058 2.0034087 93
-0.21808626 0.56718153 1.9886441 86
-0.29498374 0.76680797 1.9951125 93
-0.35036901 0.91033107 1.854123 59
-0.37321287 0.96969366 1.5986633 48
-0.37608314 0.97715861 1.3297663 50
-0.043139063 0.1164497 1.9810979 86
-0.075094849 0.20595706 1.9983203 93
-0.18179013 0.4754838 1.9960775 95
-0.25506255 0.66648835 1.9948403 93
-0.33402497 0.87194049 1.9936218 73
-0.37005815 0.96601355 1.7622502 53
-0.37184611 0.97068816 1.4506993 60
-0.37272871 0.97299951 1.2078449 60
-0.37779424 0.97854638 1.1105883 53
-0.37545139 0.97248513 0.92264318 55
-0.37711719 0.97730744 0.77141213 50
-0.37531298 0.97263896 0.63205218 42
-0.37730283 0.97830397 0.51195633 38
-0.37972379 0.98509353 0.40006539 34
-0.37279382 0.96711546 0.28825498 14
-0.37590447 0.97569251 0.18663543 42
-0.37515765 0.97577709 1.0119282 60
-0.37209857 0.96832478 0.8388896 52
-0.37487948 0.97556907 0.69951987 51
-0.37465808 0.97550124 0.57052791 40
-0.3776041 0.98368496 0.45566064 37
-0.37787426 0.98490238 0.34514591 27
-0.3705332 0.96627259 0.23637205 37
-0.37358993 0.97475272 0.13578537 37
-0.010694182 0.029331041 1.984198 71
-0.11070919 0.29370224 1.9958843 99
-0.1461435 0.38502881 2.0034087 95
-0.21600595 0.56797701 1.9886441 86
-0.29217127 0.76788396 1.9951125 93
-0.34788248 0.91384828 1.8585117 59
-0.36965626 0.97105509 1.5986633 42
-0.37249914 0.97853053 1.3297663 50
-0.042711962 0.11660703 1.9810979 86
-0.074339479 0.20623091 1.9983203 95
-0.18004619 0.47614691 1.9960775 95
-0.25261804 0.66741878 1.9948403 91
-0.3306745 0.87321663 1.9936218 62
-0.36634621 0.96742731 1.7622502 51
-0.36704886 0.96929014 1.4467099 60
-0.36898991 0.97442347 1.2078449 61
-0.37293297 0.97659302 1.1070838 53
-0.37188452 0.97385472 0.92264318 55
-0.37353265 0.97868311 0.77141213 52
-0.37016588 0.96986902 0.62973416 43
-0.37371463 0.97968036 0.51195633 38
-0.37440163 0.981996 0.39865619 32
-0.36732846 0.96394944 0.28732237 15
-0.37215531 0.97712868 0.18663543 42
-0.37140819 0.9772104 1.0119282 60
-0.36837769 0.96974641 0.8388896 54
-0.36959985 0.97297102 0.69698745 53
-0.37090966 0.97693264 0.57052791 40
-0.37382424 0.98512751 0.45566064 37
-0.37408975 0.98634613 0.34514591 27
-0.36523306 0.96299392 0.23568225 33
-0.37001476 0.97611547 0.13578537 35
-0.010591732 0.029368192 1.984198 71
-0.10968331 0.2940869 1.9958843 98
-0.14479861 0.38553664 2.0034087 95
-0.21402203 0.56872761 1.9886441 86
-0.28948906 0.7688992 1.9951125 95
-0.34469041 0.915057 1.8585117 59
-0.36527246 0.96970606 1.5945303 42
-0.3679511 0.9768247 1.3259294 50
-0.042304669 0.11675541 1.9810979 86
-0.073619142 0.20648913 1.9983203 95
-0.17838301 0.47677246 1.9960775 95
-0.25028676 0.66829652 1.9948403 91
-0.32854146 0.8763476 1.9981228 55
-0.36222064 0.96619487 1.7579843 51
-0.36383253 0.97050202 1.4467099 60
-0.3657566 0.97564173 1.2078449 61
-0.36952174 0.97788882 1.1070838 53
-0.36710691 0.97150534 0.91950542 55
-0.36863679 0.97606933 0.76867068 52
-0.36677814 0.97115529 0.62973416 40
-0.36865544 0.97664165 0.51008332 38
-0.37097156 0.98329693 0.39865619 32
-0.36412987 0.96516222 0.28732237 15
-0.36715591 0.97369754 0.18618923 38
-0.36816561 0.97843665 1.0119282 60
-0.36373705 0.96717936 0.83594644 54
-0.36637133 0.97419131 0.69698745 51
-0.367668 0.97815728 0.57052791 40
-0.36889464 0.98194093 0.45401797 37
-0.36910823 0.98303074 0.34397361 25
-0.36186934 0.9642629 0.23568225 36
-0.36660522 0.97740114 0.13578537 35
-0.010489154 0.029404985 1.984198 71
-0.10865609 0.29446799 1.9958843 98
-0.14345194 0.3860397 2.0034087 93
-0.21203549 0.56947118 1.9886441 86
-0.28680336 0.76990497 1.9951125 95
-0.34149417 0.91625458 1.8585117 59
-0.36188534 0.97097516 1.5945303 48
-0.36453909 0.9781031 1.3259294 45
-0.041896857 0.11690237 1.9810979 86
-0.072897911 0.20674486 1.9983203 93
-0.17671768 0.47739226 1.9960775 95
-0.24795245 0.66916609 1.9948403 91
-0.3254804 0.87748903 1.9981228 50
-0.35884577 0.96745336 1.7579843 51
-0.35939455 0.96894032 1.4427204 58
-0.36116979 0.97373396 1.2041696 58
-0.36485711 0.97583234 1.1035793 53
-0.36371347 0.97278088 0.91950542 55
-0.3652274 0.97735012 0.76867068 50
-0.36338595 0.97242957 0.62973416 40
-0.36524409 0.9779225 0.51008332 38
-0.36753696 0.98458582 0.39865619 33
-0.35904074 0.96182531 0.28638974 14
-0.36375481 0.97497332 0.18618923 37
-0.3634451 0.9762162 1.0086033 60
-0.3603588 0.96844316 0.83594644 54
-0.36296853 0.97546422 0.69698745 51
-0.36266935 0.9751808 0.56842989 40
-0.36546475 0.98322266 0.45401797 36
-0.36567456 0.98431313 0.34397361 25
-0.35677746 0.96087772 0.23499241 35
-0.36319125 0.97867489 0.13578537 35
-0.010386447 0.02944142 1.984198 71
-0.10762754 0.29484549 1.9958843 99
-0.14210354 0.38653809 2.0034087 93
-0.21004638 0.57020783 1.9886441 86
-0.28411412 0.77090144 1.9951125 95
-0.33829376 0.91744107 1.8585117 59
-0.35752028 0.96959215 1.5903974 48
-0.3611227 0.97936964 1.3259294 45
-0.041488536 0.11704791 1.9810979 86
-0.072000638 0.20649369 1.993349 93
-0.1750502 0.47800618 1.9960775 93
-0.24561511 0.67002749 1.9948403 93
-0.32241544 0.87861979 1.9981228 47
-0.35456812 0.96625161 1.7537184 51
-0.35601014 0.97018898 1.4427204 58
-0.35776865 0.97498876 1.2041696 58
-0.36144859 0.97710001 1.1035793 51
-0.36031562 0.97404456 0.91950542 55
-0.3618136 0.97861904 0.76867068 50
-0.35845307 0.96953684 0.62741613 40
-0.36022142 0.97484297 0.5082103 38
-0.36243591 0.9813627 0.39724702 33
-0.35397932 0.95846474 0.28545713 14
-0.36034933 0.97623706 0.18618923 39
-0.36003524 0.97747886 1.0086033 62
-0.35697609 0.96969515 0.83594644 52
-0.35956132 0.97672522 0.69698745 51
-0.35926312 0.97644085 0.56842989 40
-0.36203045 0.98449236 0.45401797 36
-0.36223647 0.9855836 0.34397361 25
-0.35342121 0.96211725 0.23499241 37
-0.3597728 0.97993666 0.13578537 35
-0.010283615 0.029477496 1.984198 71
-0.10659768 0.29521939 1.9958843 99
-0.1407534 0.38703176 2.0034087 93
-0.20805469 0.57093757 1.9886441 86
-0.28142145 0.77188849 1.9951125 95
-0.3359102 0.92086703 1.8629003 55
-0.35316932 0.96819067 1.5862645 46
-0.35660324 0.97761232 1.3220923 50
-0.041079711 0.11719202 1.9810979 86
-0.071279407 0.20674376 1.993349 93
-0.17338058 0.47861433 1.9960775 93
-0.24268657 0.66925853 1.9901476 93
-0.32008952 0.88178694 2.0026236 47
-0.3511931 0.96748346 1.7537184 51
-0.35159302 0.96859264 1.4387308 58
-0.35436311 0.97623169 1.2041696 61
-0.35803565 0.97835571 1.1035793 53
-0.35557553 0.97164059 0.91636765 55
-0.35839537 0.9798761 0.76867068 50
-0.35506657 0.97078222 0.62741613 40
-0.35681638 0.97609448 0.5082103 38
-0.35900807 0.98262185 0.39724702 33
-0.35063148 0.95969445 0.28545713 15
-0.3552312 0.97281098 0.18574302 38
-0.35662097 0.97872972 1.0086033 62
-0.35358906 0.97093529 0.83594644 52
-0.35614973 0.97797441 0.69698745 51
-0.35585254 0.97768897 0.56842989 39
-0.35859171 0.98575014 0.45401797 36
-0.35879394 0.98684204 0.34397361 24
-0.34836936 0.95869064 0.23430261 34
-0.35635 0.98118657 0.13578537 32
-0.010180656 0.029513214 1.984198 71
-0.10556652 0.29558969 1.9958843 99
-0.13940156 0.38752073 2.0034087 93
-0.20606048 0.57166034 1.9886441 86
-0.27872536 0.77286613 1.9951125 93
-0.33350685 0.92428756 1.8672891 48
-0.34978753 0.96941757 1.5862645 46
-0.35318854 0.97885114 1.3220923 50
-0.040670384 0.11733469 1.9810979 86
-0.070557304 0.20699131 1.993349 93
-0.17170885 0.47921661 1.9960775 89
-0.24034894 0.67010158 1.9901476 91
-0.3170096 0.88289893 2.0026236 45
-0.34781387 0.96870345 1.7537184 51
-0.34820986 0.96981406 1.4387308 58
-0.34980768 0.97427195 1.2004945 63
-0.35340452 0.97624618 1.1000748 49
-0.35218173 0.97287583 0.91636765 55
-0.3535502 0.97718906 0.76592922 52
-0.35167575 0.97201574 0.62741613 40
-0.35183057 0.97297442 0.50633723 38
-0.35557592 0.98386902 0.39724702 33
-0.34560978 0.95629275 0.2845245 14
-0.35183331 0.9740451 0.18574302 38
-0.3532024 0.97996855 1.0086033 58
-0.3501977 0.97216362 0.83594644 54
-0.35273382 0.97921163 0.69698745 51
-0.35243759 0.97892517 0.56842989 40
-0.35514864 0.98699582 0.45401797 36
-0.35699189 0.99266231 0.34514591 24
-0.34502077 0.95990086 0.23430261 35
-0.35292283 0.98242444 0.13578537 29
-0.010091079 0.029590063 1.9891979 73
-0.10453408 0.29595637 1.9958843 98
-0.13804801 0.38800496 2.0034087 93
-0.20406376 0.57237613 1.9886441 86
-0.27602583 0.77383435 1.9951125 93
-0.33108366 0.92770243 1.8716776 42
-0.34545568 0.96798235 1.5821315 48
-0.34869203 0.97705865 1.3182554 50
-0.040260565 0.11747595 1.9810979 86
-0.069834337 0.20723635 1.993349 93
-0.17003503 0.47981307 1.9960775 91
-0.23800838 0.67093652 1.9901476 91
-0.31392577 0.88400012 2.0026236 43
-0.34443033 0.96991163 1.7537184 51
-0.3438139 0.9681834 1.4347414 58
-0.3464047 0.97548705 1.2004945 63
-0.3499946 0.97747386 1.1000748 49
-0.34747136 0.97043431 0.91322988 55
-0.350137 0.97841728 0.76592922 52
-0.34678799 0.9690662 0.62509811 40
-0.34843206 0.97419655 0.50633723 38
-0.3505246 0.98058683 0.39583781 34
-0.3422696 0.95749336 0.2845245 14
-0.34843111 0.97526735 0.18574302 38
-0.34977952 0.98119545 1.0086033 58
-0.34680209 0.97338015 0.83594644 54
-0.34786665 0.97637576 0.69445503 51
-0.34749591 0.97587389 0.5663318 40
-0.35011786 0.9837805 0.45237529 36
-0.35352468 0.99390239 0.34514591 23
-0.34166798 0.96109927 0.23430261 40
-0.34949139 0.98365045 0.13578537 33
-0.0099877287 0.029625107 1.9891979 73
-0.10350036 0.29631943 1.9958843 98
-0.13669278 0.38848448 2.0034087 93
-0.20206454 0.57308501 1.9886441 88
-0.27332297 0.77479315 1.9951125 93
-0.32943809 0.93337077 1.8804549 39
-0.34207469 0.96918225 1.5821315 48
-0.34527934 0.97826988 1.3182554 50
-0.03985025 0.11761577 1.9810979 86
-0.06911052 0.20747884 1.993349 93
-0.16835913 0.48040369 1.9960775 91
-0.23566493 0.67176318 1.9901476 91
-0.3108381 0.88509053 2.0026236 43
-0.34104261 0.97110802 1.7537184 51
-0.34043223 0.96937764 1.4347414 58
-0.34299749 0.97669029 1.2004945 63
-0.34658048 0.97868961 1.1000748 53
-0.34408182 0.9716413 0.91322988 53
-0.34671956 0.97963351 0.76592922 50
-0.34340319 0.97027081 0.62509811 40
-0.34502938 0.97540689 0.50633723 38
-0.3470996 0.98180443 0.39583781 34
-0.33892524 0.9586823 0.2845245 14
-0.34502468 0.97647756 0.18574302 38
-0.34635237 0.98241049 1.0086033 62
-0.34340224 0.97458476 0.83594644 54
-0.34445634 0.97758412 0.69445503 50
-0.3440873 0.97708094 0.5663318 40
-0.34668168 0.98499662 0.45237529 36
-0.35005319 0.99513036 0.34514591 19
-0.33831102 0.96228611 0.23430261 36
-0.34439954 0.980151 0.13558383 36
-0.0098842569 0.029659789 1.9891979 75
-0.1022119 0.29594442 1.9909451 98
-0.13533589 0.38895929 2.0034087 93
-0.20006289 0.57378685 1.9886441 88
-0.27061677 0.77574253 1.9951125 93
-0.3285464 0.94130093 1.893621 38
-0.33776221 0.96771359 1.5779986 49
-0.34186244 0.97946918 1.3182554 50
-0.039439455 0.11775415 1.9810979 89
-0.068552181 0.20822617 1.9983203 91
-0.16626941 0.47979996 1.9912384 93
-0.23388411 0.67421204 1.9948403 91
-0.30774665 0.88617015 2.0026236 43
-0.33679515 0.96982884 1.7494525 53
-0.33704636 0.97056007 1.4347414 58
-0.33958611 0.97788167 1.2004945 63
-0.34316209 0.97989345 1.1000748 55
-0.34068805 0.97283643 0.91322988 53
-0.34329787 0.98083776 0.76592922 50
-0.34001422 0.97146362 0.62509811 40
-0.3416225 0.9766053 0.50633723 38
-0.34367034 0.98301005 0.39583781 34
-0.33395562 0.95522249 0.2835919 14
-0.34161404 0.97767597 0.18574302 38
-0.34169167 0.98008722 1.0052785 62
-0.33866826 0.9719606 0.83300328 54
-0.34104183 0.97878057 0.69445503 50
-0.34067461 0.97827601 0.5663318 40
-0.34168899 0.98174065 0.45073256 36
-0.34657738 0.99634624 0.34514591 19
-0.33332381 0.95878363 0.23361278 34
-0.34097609 0.98134726 0.13558383 42
-0.0097806659 0.02969411 1.9891979 73
-0.10117824 0.29629943 1.9909451 99
-0.13397732 0.38942933 2.0034087 91
-0.19805878 0.57448167 1.9886441 86
-0.26790729 0.77668244 1.9951125 93
-0.32682177 0.94697142 1.9023983 38
-0.33438224 0.96888673 1.5779986 48
-0.33739549 0.97762603 1.3144184 50
-0.039028171 0.11789111 1.9810979 86
-0.067824923 0.20846419 1.9983203 91
-0.16459358 0.48037741 1.9912384 93
-0.23152924 0.67502433 1.9948403 91
-0.3046515 0.88723892 2.0026236 47
-0.33340776 0.97099847 1.7494525 53
-0.33267766 0.96888006 1.4307519 58
-0.33506966 0.97585458 1.1968193 63
-0.33857259 0.97771537 1.0965701 55
-0.33729014 0.97401971 0.91322988 53
-0.33987203 0.98203015 0.76592922 45
-0.33662114 0.97264457 0.62509811 40
-0.336696 0.97341073 0.50446421 38
-0.3402369 0.9842037 0.39583781 34
-0.33061922 0.95638245 0.2835919 14
-0.3381992 0.97886246 0.18574302 37
-0.33826849 0.98127401 1.0052785 60
-0.33527341 0.97313678 0.83300328 54
-0.33762318 0.97996497 0.69445503 50
-0.33578011 0.97516799 0.56423378 40
-0.33825997 0.98292732 0.45073256 36
-0.34309736 0.99755001 0.34514591 19
-0.32997498 0.95994133 0.23361278 39
-0.33754849 0.98253149 0.13558383 40
-0.0096769538 0.02972807 1.9891979 73
-0.10014335 0.29665077 1.9909451 99
-0.13261716 0.3898946 2.0034087 91
-0.19605225 0.57516956 1.9886441 84
-0.26519454 0.77761286 1.9951125 93
-0.32583523 0.95490879 1.9155644 39
-0.33008939 0.9673847 1.5738657 48
-0.33398089 0.97879773 1.3144184 50
-0.038616419 0.11802662 1.9810979 86
-0.067096837 0.20869969 1.9983203 89
-0.16291574 0.48094901 1.9912384 93
-0.22917156 0.6758284 1.9948403 93
-0.30155259 0.88829702 2.0026236 50
-0.32917801 0.96968681 1.7451864 53
-0.32929361 0.97003543 1.4307519 60
-0.33166128 0.9770183 1.1968193 63
-0.33515766 0.97889131 1.0965701 53
-0.33388811 0.97519124 0.91322988 53
-0.33508828 0.97925436 0.76318777 45
-0.33322388 0.97381371 0.62509811 40
-0.33329615 0.97458011 0.50446421 38
-0.33679932 0.9853853 0.39583781 35
-0.32727882 0.95753062 0.2835919 14
-0.33478031 0.98003703 0.18574302 38
-0.33484113 0.98244876 1.0052785 60
-0.33187449 0.97430122 0.83300328 52
-0.33281031 0.97705662 0.69192261 50
-0.33237407 0.97633415 0.56423378 40
-0.33330575 0.9796313 0.44908988 36
-0.33961317 0.99874151 0.34514591 22
-0.32662216 0.96108723 0.23361278 37
-0.33251002 0.97897327 0.13538231 42
-0.0095731243 0.029761668 1.9891979 75
-0.099107228 0.29699853 1.9909451 98
-0.13125536 0.39035517 2.0034087 89
-0.19404335 0.57585037 1.9886441 84
-0.26247853 0.77853382 1.9951125 95
-0.32479715 0.96285045 1.9287302 40
-0.32671061 0.96853101 1.5738657 49
-0.33056223 0.97995764 1.3144184 52
-0.038204193 0.1181607 1.9810979 86
-0.066367924 0.20893262 1.9983203 91
-0.16123591 0.48151478 1.9912384 95
-0.22681108 0.6766243 1.9948403 93
-0.29845002 0.88934427 2.0026236 50
-0.32579115 0.9708299 1.7451864 53
-0.32590553 0.97117895 1.4307519 56
-0.32717031 0.9749561 1.1931442 60
-0.33173865 0.98005527 1.0965701 53
-0.32923391 0.97266334 0.91009212 53
-0.33166805 0.98041803 0.76318777 52
-0.32982263 0.97497094 0.62509811 40
-0.32989219 0.97573757 0.50446421 38
-0.33335763 0.98655498 0.39583781 33
-0.32393444 0.95866722 0.2835919 14
-0.33135727 0.98119968 0.18574302 37
-0.33021736 0.98007274 1.0019536 60
-0.32718161 0.97162306 0.83006012 54
-0.32939774 0.97821242 0.69192261 51
-0.32896402 0.9774884 0.56423378 39
-0.32988417 0.98078883 0.44908988 36
-0.33612487 0.9999209 0.34514591 22
-0.32168826 0.95752716 0.23292297 37
-0.32909074 0.98012799 0.13538231 41
-0.0094691785 0.029794905 1.9891979 73
-0.098069914 0.29734269 1.9909451 97
-0.12989198 0.39081097 2.0034087 91
-0.19203208 0.5765242 1.9886441 86
-0.25975937 0.77944529 1.9951125 95
-0.32294983 0.96852392 1.9375075 46
-0.32332778 0.96966559 1.5738657 48
-0.32612544 0.97806424 1.3105814 49
-0.037791505 0.11829333 1.9810979 84
-0.065638207 0.20916301 1.9983203 93
-0.15955414 0.48207465 1.9912384 93
-0.22444785 0.67741185 1.9948403 93
-0.29465821 0.88831365 1.9981228 52
-0.32157928 0.96948588 1.7409205 51
-0.32156464 0.96945 1.4267623 56
-0.32376507 0.97609216 1.1931442 58
-0.32718399 0.97782528 1.0930656 53
-0.32583669 0.97380662 0.91009212 53
-0.32824373 0.98156983 0.76318777 50
-0.32641733 0.9761163 0.62509811 39
-0.32648423 0.97688317 0.50446421 38
-0.32839203 0.98316234 0.39442861 33
-0.32058606 0.95979214 0.2835919 14
-0.32635337 0.97762668 0.1852968 37
-0.32679427 0.98121947 1.0019536 58
-0.32378802 0.97275919 0.83006012 54
-0.32598111 0.97935629 0.69192261 50
-0.32554993 0.97863072 0.56423378 39
-0.32645857 0.98193431 0.44908988 36
-0.33109981 0.99647546 0.34397361 21
-0.31834391 0.95864421 0.23292297 38
-0.32409379 0.97652912 0.13518077 42
-0.0093651172 0.029827775 1.9891979 73
-0.097031392 0.29768321 1.9909451 96
-0.128527 0.39126197 2.0034087 89
-0.19001846 0.577191 1.9886441 86
-0.25703701 0.78034729 1.9951125 95
-0.31956708 0.96964538 1.9375075 44
-0.3190603 0.96811575 1.5697327 48
-0.32270938 0.97919673 1.3105814 49
-0.037378352 0.11842453 1.9810979 84
-0.064750262 0.20888068 1.993349 93
-0.15787041 0.48262864 1.9912384 93
-0.22208187 0.67819124 1.9948403 93
-0.29155564 0.88933676 1.9981228 54
-0.3181932 0.97060251 1.7409205 51
-0.31817868 0.97056657 1.4267623 56
-0.32035592 0.97721642 1.1931442 60
-0.32376879 0.97896141 1.0930656 53
-0.3224355 0.97493809 0.91009212 53
-0.32350311 0.97873932 0.76044625 50
-0.32161769 0.97304326 0.62278008 40
-0.32161817 0.97361493 0.50259119 37
-0.32495818 0.9843027 0.39442861 34
-0.31723383 0.96090537 0.2835919 14
-0.3229388 0.97875994 0.1852968 34
-0.32336715 0.98235422 1.0019536 58
-0.32039049 0.97388351 0.83006012 54
-0.32256058 0.98048818 0.69192261 51
-0.3221319 0.97976118 0.56423378 40
-0.32302898 0.98306793 0.44908988 36
-0.32761943 0.99762511 0.34397361 20
-0.31499568 0.95974958 0.23292297 38
-0.32068312 0.9776544 0.13518077 43
-0.0092609413 0.029860284 1.9891979 73
-0.095991693 0.29802009 1.9909451 97
-0.12716044 0.39170823 2.0034087 81
-0.18800253 0.57785076 1.9886441 86
-0.2543115 0.78123969 1.9951125 93
-0.31618044 0.97075492 1.9375075 42
-0.31567898 0.96922356 1.5697327 48
-0.31829658 0.97726893 1.3067446 50
-0.036964744 0.11855428 1.9810979 84
-0.064020738 0.20910542 1.993349 93
-0.15618476 0.4831768 1.9912384 93
-0.2197132 0.67896229 1.9948403 93
-0.2884495 0.89034903 1.9981228 54
-0.31399944 0.96922618 1.7366546 51
-0.31478885 0.97167122 1.4267623 58
-0.31694284 0.97832865 1.1931442 58
-0.32034957 0.98008561 1.0930656 53
-0.31782091 0.97235739 0.90695435 53
-0.32008472 0.97986269 0.76044625 50
-0.31821921 0.97415996 0.62278008 40
-0.31821766 0.97473162 0.50259119 37
-0.32152033 0.98543102 0.39442861 34
-0.3138777 0.96200687 0.2835919 14
-0.31952038 0.97988123 0.1852968 35
-0.31993616 0.983477 1.0019536 60
-0.31698903 0.97499597 0.83006012 54
-0.31780308 0.97750819 0.68939018 51
-0.31870994 0.98087966 0.56423378 40
-0.31959549 0.98418951 0.44908988 35
-0.32413507 0.99876261 0.34397361 20
-0.3116436 0.96084327 0.23292297 38
-0.31572798 0.97401541 0.13497925 46
-0.0091566537 0.02989243 1.9891979 75
-0.094950825 0.29835334 1.9909451 97
-0.12579237 0.39214972 2.0034087 77
-0.1859843 0.57850355 1.9886441 88
-0.25158292 0.78212267 1.9951125 93
-0.31205601 0.96957213 1.9331191 42
-0.31229386 0.97031963 1.5697327 48
-0.31488335 0.978374 1.3067446 49
-0.036550686 0.11868259 1.9810979 84
-0.063290425 0.20932762 1.993349 93
-0.15487984 0.48491722 1.9960775 93
-0.21734183 0.67972505 1.9948403 91
-0.28533983 0.89135051 1.9981228 55
-0.31061432 0.97031635 1.7366546 53
-0.31139517 0.97276413 1.4267623 60
-0.31352594 0.97942913 1.1931442 62
-0.31692648 0.98119783 1.0930656 53
-0.31442481 0.97346085 0.90695435 53
-0.31537792 0.97699475 0.75770473 49
-0.31345591 0.97104889 0.62046206 40
-0.31481326 0.9758364 0.50259119 38
-0.31660646 0.9819814 0.39301944 34
-0.30901039 0.95842135 0.28265926 14
-0.316098 0.98099053 0.1852968 37
-0.31650123 0.98458779 1.0019536 62
-0.31358373 0.97609657 0.83006012 54
-0.31438902 0.97861159 0.68939018 51
-0.31389666 0.97766489 0.5621357 40
-0.31615806 0.98529911 0.44908988 35
-0.32064676 0.99988794 0.34397361 21
-0.30828774 0.96192527 0.23292297 40
