# .PCD v0.7 - Point Cloud Data file format
VERSION 0.7
FIELDS x y z intensity
SIZE 4 4 4 4
TYPE F F F F
COUNT 1 1 1 1
WIDTH 1314
HEIGHT 1
VIEWPOINT 0 0 0 1 0 0 0
POINTS 1314
DATA ascii
-0.31264842 0.97787166 0.75770473 49
-0.31209213 0.97614014 0.62278008 40
-0.31208697 0.97671169 0.50259119 37
-0.31386304 0.9828617 0.39301944 35
-0.30633277 0.95928049 0.28265926 13
-0.31184322 0.97712511 0.1848506 34
-0.31375051 0.98546779 1.0019536 60
-0.31085673 0.97696835 0.83006012 54
-0.31165501 0.97948569 0.68939018 48
-0.30978993 0.97421253 0.56003767 39
-0.31197503 0.98167747 0.44744721 36
-0.3178533 1.0007795 0.34397361 19
-0.30560035 0.96278244 0.23292297 38
-0.30960187 0.97597986 0.13497925 45
-0.008968655 0.029949373 1.9891979 75
-0.093074359 0.29894406 1.9909451 97
-0.12332594 0.39293233 2.0034087 77
-0.18279392 0.58108538 1.9934158 86
-0.24666376 0.78368801 1.9951125 93
-0.30523822 0.96922851 1.9287302 40
-0.30534574 0.96957856 1.5655998 44
-0.30872986 0.98033315 1.3067446 49
-0.035804264 0.1189099 1.9810979 86
-0.062124602 0.21023339 1.9983203 93
-0.15220505 0.48708138 2.0009167 91
-0.21306674 0.68107724 1.9948403 91
-0.27908286 0.89104748 1.9936218 59
-0.30373207 0.96975994 1.7323887 51
-0.30347544 0.96894914 1.4187834 56
-0.30533937 0.97490919 1.1857939 60
-0.30968046 0.97976935 1.0895611 51
-0.30830219 0.97541726 0.90695435 53
-0.3092331 0.97895706 0.75770473 49
-0.30868286 0.97722363 0.62278008 40
-0.30867574 0.97779524 0.50259119 37
-0.31043029 0.98395139 0.39301944 35
-0.30298239 0.96034402 0.28265926 14
-0.30843049 0.97820771 0.1848506 33
-0.30918822 0.98299462 0.9986288 60
-0.3074446 0.97804749 0.83006012 54
-0.30823407 0.98056757 0.68939018 50
-0.30638742 0.97528791 0.56003767 39
-0.30854645 0.98276043 0.44744721 36
-0.314358 1.0018829 0.34397361 19
-0.30223775 0.96384335 0.23292297 36
-0.30619317 0.97705472 0.13497925 46
-0.0088692894 0.02997895 1.9891979 75
-0.092082508 0.29925105 1.9909451 97
-0.12202226 0.39333916 2.0034087 75
-0.18086597 0.58168834 1.9934158 88
-0.24406362 0.78450161 1.9951125 93
-0.30202249 0.97023529 1.9287302 42
-0.30212888 0.97058576 1.5655998 48
-0.30452445 0.9782905 1.3029076 47
-0.035430524 0.1190218 1.9810979 84
-0.061463829 0.21042752 1.9983203 95
-0.1506741 0.48755711 2.0009167 95
-0.21092601 0.68174326 1.9948403 91
-0.27612647 0.89196807 1.9936218 61
-0.30051458 0.9707619 1.7323887 51
-0.3002606 0.9699502 1.4187834 56
-0.30227506 0.97586364 1.1857939 60
-0.30536622 0.97738695 1.0860566 49
-0.3050659 0.97643429 0.90695435 53
-0.30598506 0.97997713 0.75770473 49
-0.30544055 0.97824186 0.62278008 40
-0.30422062 0.97433472 0.50071812 37
-0.30733758 0.98492169 0.39301944 34
-0.2997961 0.96134347 0.28265926 14
-0.30518493 0.9792251 0.1848506 33
-0.3059268 0.98401457 0.9986288 60
-0.30419958 0.97906166 0.83006012 54
-0.30387211 0.97741419 0.68685776 50
-0.30197537 0.97191161 0.55793959 39
-0.3054575 0.98372495 0.44744721 36
-0.31120893 1.0028656 0.34397361 21
-0.29920825 0.96478802 0.23292297 40
-0.30312216 0.97801179 0.13497925 46
-0.0087645892 0.030009724 1.9891979 75
-0.09103737 0.29957068 1.9909451 96
-0.1206485 0.39376268 2.0034087 75
-0.17883441 0.5823161 1.9934158 88
-0.24132369 0.78534877 1.9951125 95
-0.29863387 0.97128367 1.9287302 42
-0.29791209 0.96894467 1.5614668 48
-0.3011077 0.97934753 1.3029076 47
-0.034994051 0.11915086 1.9810979 84
-0.060692161 0.21065138 1.9983203 95
-0.14888608 0.48810613 2.0009167 95
-0.20842588 0.68251175 1.9948403 91
-0.27301127 0.89292645 1.9936218 62
-0.29636163 0.96931088 1.7281227 48
-0.29687303 0.97099245 1.4187834 56
-0.29869634 0.97696495 1.1857939 60
-0.30195266 0.97844684 1.0860566 49
-0.30050781 0.97377348 0.90381652 51
-0.30256245 0.98103917 0.75770473 49
-0.30071843 0.97506869 0.62046206 40
-0.30064747 0.97544324 0.50071812 37
-0.30372563 0.98604155 0.39301944 33
-0.29499254 0.95768952 0.28172666 14
-0.30176497 0.98028439 0.1848506 33
-0.30249009 0.98507643 0.9986288 58
-0.2995944 0.97625351 0.82711697 54
-0.30028763 0.97852135 0.68685776 48
-0.2984111 0.97301185 0.55793959 39
-0.30184993 0.98483795 0.44744721 36
-0.30610764 0.99935198 0.3428013 19
-0.29422057 0.96114296 0.23223317 40
-0.29953554 0.97911626 0.13497925 45
-0.0086545385 0.030041646 1.9891979 73
-0.089938775 0.29990232 1.9909451 95
-0.11920448 0.39420226 2.0034087 75
-0.17669889 0.5829677 1.9934158 86
-0.23844364 0.78622806 1.9951125 95
-0.29437631 0.97007924 1.9243417 42
-0.29435873 0.97003007 1.5614668 48
-0.29751623 0.98044455 1.3029076 49
-0.034557104 0.11927832 1.9810979 86
-0.059919678 0.21087241 1.9983203 93
-0.1467336 0.4874441 1.9960775 91
-0.20592295 0.68327105 1.9948403 91
-0.26958066 0.89396816 1.9936218 66
-0.29263759 0.97044164 1.7281227 48
-0.29314253 0.97212517 1.4187834 58
-0.29494289 0.97810465 1.1857939 62
-0.29836443 0.97954702 1.0860566 53
-0.29693672 0.97486836 0.90381652 51
-0.29896471 0.98214161 0.75770473 49
-0.2971426 0.97616434 0.62046206 40
-0.29707026 0.9765386 0.50071812 37
-0.30010954 0.98714817 0.39301944 34
-0.29131308 0.9588151 0.28172666 14
-0.29799876 0.98143589 0.1848506 31
-0.29762298 0.98265678 0.99530393 58
-0.29584363 0.97739667 0.82711697 54
-0.29652819 0.97966713 0.68685776 46
-0.29467282 0.97415054 0.55793959 39
-0.29806623 0.98598963 0.44744721 35
-0.30226812 1.0005199 0.3428013 19
-0.29069582 0.96221489 0.23223317 40
-0.2959449 0.9802075 0.13497925 46
-0.0085496213 0.030071674 1.9891979 73
-0.088891372 0.30021444 1.9909451 95
-0.11782773 0.39461592 2.0034087 75
-0.17466287 0.58358091 1.9934158 88
-0.23569773 0.78705561 1.9951125 95
-0.29098833 0.97110093 1.9243417 42
-0.29097086 0.97105163 1.5614668 47
-0.29409203 0.98147708 1.3029076 49
-0.034140535 0.11939822 1.9810979 86
-0.059183229 0.21108028 1.9983203 95
-0.14503121 0.48795331 1.9960775 91
-0.20353663 0.68398577 1.9948403 93
-0.26661468 0.89485729 1.9936218 68
-0.28867322 0.96890736 1.7238568 48
-0.2899172 0.97309196 1.4187834 58
-0.29072982 0.97582841 1.1821188 62
-0.29494336 0.98058254 1.0860566 45
-0.29353198 0.97589898 0.90381652 51
-0.29433089 0.97917467 0.75496328 50
-0.2937333 0.97719562 0.62046206 40
-0.29365972 0.97756964 0.50071812 37
-0.29666191 0.9881897 0.39301944 35
-0.28813192 0.95977587 0.28172666 13
-0.29474252 0.98241866 0.1848506 31
-0.29436275 0.98363829 0.99530393 58
-0.29260084 0.97837234 0.82711697 54
-0.29327786 0.98064512 0.68685776 48
-0.29144081 0.97512233 0.55793959 39
-0.29479492 0.98697269 0.44744721 35
-0.29755834 0.99685925 0.34162897 20
-0.28733531 0.9632237 0.23223317 39
-0.29109424 0.97644681 0.13477771 45
-0.0084445998 0.030101333 1.9891979 75
-0.087842889 0.30052289 1.9909451 95
-0.11644955 0.39502484 2.0034087 77
-0.17262475 0.58418703 1.9934158 86
-0.23294896 0.78787351 1.9951125 95
-0.28759679 0.97211081 1.9243417 42
-0.28678122 0.96936303 1.5573338 48
-0.28975478 0.97942352 1.2990707 49
-0.033723548 0.11951666 1.9810979 86
-0.058304366 0.21077082 1.993349 95
-0.14332704 0.48845661 1.9960775 93
-0.20114784 0.68469203 1.9948403 93
-0.2634894 0.89578247 1.9936218 74
-0.28528932 0.96990907 1.7238568 48
-0.28651869 0.97409797 1.4187834 58
-0.28732175 0.97683728 1.1821188 62
-0.29050341 0.97818744 1.0825521 45
-0.29012367 0.97691762 0.90381652 51
-0.29091114 0.98019612 0.75496328 49
-0.28906 0.97396791 0.61814404 40
-0.29024559 0.97858876 0.50071812 37
-0.29184741 0.9846198 0.39161023 34
-0.28477997 0.96077579 0.28172666 13
-0.29131144 0.98344153 0.1848506 33
-0.29092741 0.98465985 0.99530393 58
-0.28803927 0.97551113 0.82417381 54
-0.28863215 0.9775281 0.68432534 48
-0.28675073 0.97178066 0.55584157 39
-0.29134792 0.98799568 0.44744721 35
-0.29407686 0.99789184 0.34162897 21
-0.28257224 0.95947033 0.23154333 41
-0.28768402 0.97745699 0.13477771 48
-0.0083284248 0.030088417 1.984198 75
-0.086793333 0.30082768 1.9909451 95
-0.11506994 0.39542893 2.0034087 77
-0.1705845 0.58478612 1.9934158 86
-0.23019734 0.78868186 1.9951125 95
-0.28420174 0.97310877 1.9243417 42
-0.28339577 0.97035819 1.5573338 47
-0.28633419 0.98042899 1.2990707 49
-0.033306155 0.11963366 1.9810979 86
-0.057568282 0.21097305 1.993349 93
-0.14162114 0.48895392 1.9960775 95
-0.19875661 0.68539006 1.9948403 91
-0.26036093 0.89669681 1.9936218 78
-0.28190199 0.97089905 1.7238568 48
-0.28311673 0.97509223 1.4187834 58
-0.28391019 0.97783428 1.1821188 60
-0.28708717 0.97919548 1.0825521 53
-0.28671181 0.97792435 0.90381652 49
-0.28748783 0.9812057 0.75496328 50
-0.28565851 0.974971 0.61814404 40
-0.28682792 0.97959596 0.50071812 37
-0.28840867 0.98563254 0.39161023 34
-0.28142449 0.96176398 0.28172666 14
-0.28647906 0.97967249 0.18440439 35
-0.28748855 0.98566937 0.99530393 58
-0.28463235 0.97651064 0.82417381 54
-0.28521818 0.97852969 0.68432534 46
-0.28335682 0.9727757 0.55584157 39
-0.28657755 0.98447251 0.44580451 36
-0.29059178 0.99891227 0.34162897 21
-0.27922136 0.96045089 0.23154333 41
-0.28427029 0.97845525 0.13477771 45
-0.0082233455 0.030117303 1.984198 75
-0.085742712 0.30112883 1.9909451 97
-0.11368895 0.39582816 2.0034087 75
-0.16854218 0.58537793 1.9934158 86
-0.22744294 0.78948057 1.9951125 95
-0.2801396 0.97179282 1.919953 42
-0.28000686 0.97134149 1.5573338 47
-0.28202215 0.97834206 1.2952337 50
-0.032888349 0.11974919 1.9810979 88
-0.056831494 0.21117271 1.993349 93
-0.13991351 0.4894453 1.9960775 91
-0.19636291 0.68607968 1.9948403 91
-0.25722927 0.89760017 1.9936218 80
-0.27851117 0.97187716 1.7238568 48
-0.27888101 0.97317708 1.414794 58
-0.2804952 0.97881937 1.1821188 60
-0.28366739 0.98019165 1.0825521 51
-0.28329647 0.97891921 0.90381652 49
-0.28406104 0.98220319 0.75496328 50
-0.28225347 0.97596216 0.61814404 40
-0.28340673 0.98059118 0.50071812 37
-0.2836352 0.98202437 0.39020103 35
-0.27806556 0.96274054 0.28172666 13
-0.28305766 0.98066658 0.18440439 35
-0.28404617 0.98666692 0.99530393 56
-0.28122199 0.97749829 0.82417381 54
-0.28180072 0.97951931 0.68432534 46
-0.2799595 0.97375888 0.55584157 39
-0.28313932 0.98546684 0.44580451 35
-0.28576174 0.99524862 0.34045666 19
-0.27586704 0.96141964 0.23154333 41
-0.27947608 0.97463918 0.13457619 45
-0.0081181666 0.030145826 1.984198 75
-0.084691055 0.30142629 1.9909451 97
-0.11230655 0.39622259 2.0034087 75
-0.1664978 0.58596265 1.9934158 86
-0.22468574 0.79026967 1.9951125 95
-0.27674571 0.97276473 1.919953 42
-0.27661452 0.97231305 1.5573338 47
-0.27860534 0.97932053 1.2952337 50
-0.032470144 0.11986326 1.9810979 89
-0.056094021 0.21136981 1.993349 93
-0.13820419 0.48993072 1.9960775 93
-0.19396687 0.6867609 1.9948403 91
-0.25350195 0.89639711 1.9891212 81
-0.27440733 0.97033376 1.7195909 51
-0.2754823 0.97414464 1.414794 58
-0.27615422 0.97653025 1.1784436 61
-0.28024414 0.98117584 1.0825521 51
-0.27987766 0.97990215 0.90381652 49
-0.2806308 0.98318869 0.75496328 43
-0.27884498 0.97694141 0.61814404 40
-0.27871045 0.97711635 0.49884507 37
-0.28020558 0.98300844 0.39020103 35
-0.27470329 0.9637053 0.28172666 13
-0.27826843 0.97685921 0.18395817 37
-0.28060031 0.98765236 0.99530393 58
-0.27780813 0.97847396 0.82417381 54
-0.27837983 0.980497 0.68432534 46
-0.27655873 0.97473025 0.55584157 39
-0.27969769 0.98644918 0.44580451 35
-0.28228593 0.99624008 0.34045666 21
-0.27250937 0.96237677 0.23154333 42
-0.2760722 0.97560883 0.13457619 49
-0.0080181547 0.030172581 1.984198 75
-0.083691031 0.30170548 1.9909451 97
-0.11099201 0.39659283 2.0034087 77
-0.16455378 0.58651161 1.9934158 78
-0.22206388 0.79101044 1.9951125 93
-0.27287051 0.9713707 1.9155644 42
-0.27262768 0.97051573 1.553201 47
-0.27535626 0.98023903 1.2952337 50
-0.032072488 0.11997027 1.9810979 88
-0.055392783 0.21155465 1.993349 93
-0.13657875 0.49038631 1.9960775 93
-0.19168842 0.68740034 1.9948403 93
-0.25052801 0.89723277 1.9891212 83
-0.27118808 0.97123837 1.7195909 48
-0.27225041 0.97505277 1.414794 58
-0.27291444 0.9774406 1.1784436 61
-0.27698889 0.98209977 1.0825521 51
-0.27662665 0.98082489 0.90381652 49
-0.27736887 0.98411393 0.75496328 43
-0.2756038 0.97786081 0.61814404 40
-0.27546871 0.97803521 0.49884507 37
-0.27694428 0.9839322 0.39020103 35
-0.27150604 0.96461087 0.28172666 14
-0.27502751 0.97777659 0.18395817 38
-0.2773236 0.98857749 0.99530393 58
-0.27456188 0.97938985 0.82417381 54
-0.27512687 0.98141468 0.68432534 46
-0.27332491 0.97564197 0.55584157 39
-0.27642497 0.98737127 0.44580451 35
-0.27767122 0.99248987 0.33928433 21
-0.26931655 0.96327513 0.23154333 42
-0.27283552 0.97651893 0.13457619 48
-0.007923251 0.030242747 1.9891979 75
-0.08263737 0.30199575 1.9909451 97
-0.10960697 0.39697787 2.0034087 77
-0.16250545 0.58708245 1.9934158 78
-0.21930139 0.79178077 1.9951125 95
-0.26947814 0.97231722 1.9155644 42
-0.26923832 0.97146147 1.553201 47
-0.27107677 0.97810477 1.2913967 50
-0.03165352 0.1200815 1.9810979 86
-0.054653984 0.21174672 1.993349 91
-0.13486615 0.49086007 1.9960775 93
-0.18928777 0.68806523 1.9948403 93
-0.24739456 0.89810175 1.9891212 85
-0.26779619 0.97217906 1.7195909 48
-0.2688452 0.97599715 1.414794 58
-0.26860055 0.97511876 1.1747683 60
-0.27260303 0.97962505 1.0790476 53
-0.27320129 0.98178452 0.90381652 51
-0.27393198 0.98507613 0.75496328 50
-0.27218875 0.97881687 0.61814404 38
-0.27205306 0.97899079 0.49884507 37
-0.27222437 0.98027056 0.38879183 35
-0.26682284 0.96081966 0.28079402 14
-0.27028108 0.97393191 0.18351197 36
-0.27287504 0.9859404 0.99197906 56
-0.27114153 0.98034227 0.82417381 54
-0.27169943 0.98236912 0.68432534 46
-0.26991761 0.97659004 0.55584157 39
-0.27297673 0.98833013 0.44580451 35
-0.27420509 0.99345309 0.33928433 20
-0.26595244 0.96420938 0.23154333 41
-0.26809758 0.97264898 0.13437465 47
-0.0078176362 0.030270219 1.9891979 75
-0.081582703 0.30228236 1.9909451 97
-0.10822058 0.39735803 2.0034087 77
-0.16045517 0.58764607 1.9934158 86
-0.21653621 0.79254144 1.9951125 95
-0.2660825 0.973252 1.9155644 42
-0.26510358 0.96968096 1.549068 47
-0.26766086 0.97904503 1.2913967 50
-0.031234164 0.12019125 1.9810979 86
-0.053914513 0.21193622 1.993349 93
-0.13315192 0.49132785 1.9960775 95
-0.18688482 0.68872178 1.9948403 91
-0.24425808 0.89895993 1.9891212 90
-0.2637172 0.97059119 1.715325 51
-0.26464647 0.97402126 1.4108044 58
-0.26519513 0.97605044 1.1747683 60
-0.26918185 0.98057061 1.0790476 53
-0.26977253 0.98273218 0.90381652 51
-0.26938561 0.98199391 0.75222182 50
-0.2687704 0.979761 0.61814404 38
-0.26863408 0.97993445 0.49884507 37
-0.26880097 0.98121476 0.38879183 35
-0.26346737 0.96174514 0.28079402 14
-0.26687974 0.97486949 0.18351197 36
-0.26943183 0.98688692 0.99197906 58
-0.26665395 0.9773832 0.82123065 54
-0.26826864 0.98331153 0.68432534 46
-0.26531327 0.97314763 0.55374354 39
-0.26952514 0.98927701 0.44580451 35
-0.27073559 0.99440426 0.33928433 21
-0.2625851 0.96513182 0.23154333 40
-0.26470077 0.97357893 0.13437465 46
-0.007711926 0.030297324 1.9891979 75
-0.080527037 0.30256531 1.9909451 97
-0.10683288 0.39773339 2.0034087 77
-0.15840292 0.58820266 1.9934158 86
-0.21376841 0.79329246 1.9951125 95
-0.26268357 0.97417492 1.9155644 42
-0.26171714 0.97060049 1.549068 47
-0.26424176 0.97997338 1.2913967 49
-0.030814428 0.12029955 1.9810979 86
-0.053174395 0.21212313 1.993349 93
-0.13143605 0.49178964 1.9960775 89
-0.18447959 0.68936998 1.9948403 91
-0.24168225 0.90191054 1.9936218 90
-0.26032761 0.97150582 1.715325 51
-0.26124486 0.97493911 1.4108044 58
-0.26178646 0.9769702 1.1747683 60
-0.26575735 0.98150432 1.0790476 53
-0.2653231 0.97991025 0.90067875 49
-0.26595616 0.98292828 0.75222182 49
-0.26419169 0.97641671 0.61582601 40
-0.26521182 0.98086625 0.49884507 37
-0.26537421 0.9821471 0.38879183 36
-0.26010862 0.962659 0.28079402 14
-0.26347521 0.97579503 0.18351197 38
-0.26501435 0.9842155 0.98865426 58
-0.26324064 0.97830808 0.82123065 54
-0.26371443 0.98007888 0.68179291 45
-0.26191473 0.97406787 0.55374354 39
-0.26607028 0.99021178 0.44580451 35
-0.26600233 0.99064887 0.33811203 20
-0.25793114 0.96125948 0.23085353 40
-0.26130074 0.97449696 0.13437465 46
-0.0076061212 0.030324059 1.9891979 75
-0.079470403 0.30284455 1.9909451 97
-0.10544389 0.39810386 2.0034087 75
-0.15596548 0.58730847 1.9886441 84
-0.21099801 0.79403383 1.9951125 95
-0.2586658 0.97277045 1.9111756 44
-0.25832751 0.97150809 1.549068 47
-0.26081935 0.9808898 1.2913967 50
-0.030394316 0.12040638 1.9810979 86
-0.052433625 0.21230745 1.993349 93
-0.12971857 0.49224544 1.9960775 86
-0.18207212 0.69000965 1.9948403 91
-0.23853253 0.90274858 1.9936218 92
-0.25693485 0.97240859 1.715325 51
-0.25784013 0.97584498 1.4108044 58
-0.25837463 0.97787797 1.1747683 60
-0.26140964 0.97898042 1.0755429 53
-0.26190096 0.98083043 0.90067875 49
-0.26252347 0.9838506 0.75222182 49
-0.26078171 0.97733301 0.61582601 40
-0.26059195 0.9773066 0.49697202 37
-0.26194426 0.98306745 0.38879183 36
-0.25548196 0.95881444 0.27986142 14
-0.2600674 0.97670889 0.18351197 38
-0.26157722 0.98513454 0.98865426 60
-0.2598241 0.97922105 0.82123065 54
-0.26029173 0.98099345 0.68179291 46
-0.258513 0.97497612 0.55374354 39
-0.26261219 0.99113446 0.44580451 35
-0.26254272 0.99157131 0.33811203 20
-0.25457415 0.96215397 0.23085353 42
-0.25789753 0.97540307 0.13437465 46
-0.0075002247 0.030350424 1.9891979 75
-0.078412794 0.30312014 1.9909451 97
-0.1040536 0.39846954 2.0034087 75
-0.15391442 0.58784938 1.9886441 82
-0.20822503 0.79476547 1.9951125 95
-0.25526863 0.97366738 1.9111756 44
-0.25493473 0.97240388 1.549068 47
-0.25739384 0.98179418 1.2913967 50
-0.029973833 0.12051175 1.9810979 86
-0.051692214 0.21248917 1.993349 93
-0.12799953 0.49269524 1.9960775 73
-0.17966242 0.69064105 1.9948403 91
-0.23537989 0.90357572 1.9936218 92
-0.25288153 0.97077572 1.7110591 53
-0.25367248 0.97382247 1.4068149 56
-0.25495958 0.97877395 1.1747683 61
-0.25799078 0.97988695 1.0755429 53
-0.25847566 0.98173869 0.90067875 51
-0.25802368 0.98071718 0.74948037 49
-0.25736859 0.97823727 0.61582601 40
-0.25717893 0.97821021 0.49697202 37
-0.25729218 0.97933596 0.38738266 35
-0.25213352 0.95970035 0.27986142 14
-0.2566565 0.97761065 0.18351197 36
-0.25813684 0.98604167 0.98865426 60
-0.2564044 0.98012197 0.82123065 54
-0.25686583 0.98189604 0.68179291 45
-0.25510812 0.97587258 0.55374354 39
-0.25795728 0.98747605 0.44416183 35
-0.25785223 0.98777872 0.33693972 23
-0.25121403 0.96303678 0.23085353 42
-0.25449115 0.97629744 0.13437465 45
-0.0073942356 0.030376419 1.9891979 75
-0.07735423 0.30339199 1.9909451 97
-0.10266205 0.39883032 2.0034087 79
-0.1518615 0.58838302 1.9886441 86
-0.20544951 0.79548752 1.9951125 93
-0.25186834 0.97455263 1.9111756 42
-0.25153887 0.97328788 1.549068 42
-0.25396517 0.98268676 1.2913967 49
-0.029552987 0.12061563 1.9810979 86
-0.05095017 0.21266831 1.993349 93
-0.12627892 0.49313903 1.9960775 69
-0.17725055 0.69126397 1.9948403 93
-0.23222439 0.90439188 1.9936218 93
-0.24949135 0.97165257 1.7110591 51
-0.25027165 0.974702 1.4068149 56
-0.25069839 0.97637433 1.1710931 60
-0.25456876 0.98078156 1.0755429 53
-0.25504717 0.98263496 0.90067875 51
-0.25459877 0.98161191 0.74948037 49
-0.25395235 0.97912979 0.61582601 40
-0.25376275 0.97910202 0.49697202 37
-0.25387207 0.98022807 0.38738266 35
-0.24878201 0.96057457 0.27986142 15
-0.25324246 0.9785006 0.18351197 35
-0.25469336 0.98693669 0.98865426 56
-0.25298157 0.98101097 0.82123065 54
-0.2534368 0.98278666 0.68179291 45
-0.25170013 0.97675711 0.55374354 39
-0.25450876 0.98837048 0.44416183 35
-0.25440264 0.98867273 0.33693972 21
-0.24785091 0.96390778 0.23085353 42
-0.25108171 0.97717983 0.13437465 44
-0.007288157 0.030402046 1.9891979 75
-0.07629472 0.30366018 1.9909451 98
-0.10126925 0.39918622 2.0034087 91
-0.14980675 0.58890951 1.9886441 86
-0.20267148 0.7961998 1.9951125 93
-0.24787368 0.9731043 1.906787 40
-0.24744533 0.97143298 1.544935 42
-0.2505334 0.9835673 1.2913967 50
-0.029131779 0.12071806 1.9810979 86
-0.050207507 0.21284486 1.993349 93
-0.12455678 0.49357682 1.9960775 67
-0.1748365 0.6918785 1.9948403 91
-0.22906606 0.90519702 1.9936218 93
-0.24545835 0.96998918 1.7067931 51
-0.24612845 0.97264785 1.4028255 56
-0.24728869 0.97724354 1.1710931 61
-0.25114366 0.98166418 1.0755429 53
-0.25065076 0.97974783 0.89754099 53
-0.25117075 0.98249465 0.74948037 49
-0.24943577 0.97571814 0.61350799 40
-0.25034353 0.9799819 0.49697202 37
-0.25044888 0.98110831 0.38738266 35
-0.24542746 0.96143717 0.27986142 15
-0.24982528 0.97937864 0.18351197 36
-0.25124675 0.98781967 0.98865426 58
-0.24955566 0.98188818 0.82123065 54
-0.25000471 0.98366535 0.68179291 45
-0.24717191 0.9732309 0.55164546 39
-0.25105718 0.98925275 0.44416183 35
-0.24975517 0.98484325 0.33576739 22
-0.24448472 0.9647671 0.23085353 40
-0.24766916 0.97805029 0.13437465 45
-0.00718199 0.030427299 1.9891979 75
-0.075234279 0.30392462 1.9909451 98
-0.099875212 0.3995373 2.0034087 95
-0.14775015 0.5894289 1.9886441 86
-0.19989099 0.79690242 1.9951125 93
-0.24447538 0.97396356 1.906787 44
-0.24405289 0.97229081 1.544935 47
-0.24709858 0.9844358 1.2913967 47
-0.028710216 0.12081901 1.9810979 89
-0.049464237 0.21301885 1.993349 93
-0.12283312 0.49400863 1.9960775 67
-0.17242034 0.69248456 1.9948403 89
-0.22590493 0.90599108 1.9936218 93
-0.24207096 0.9708401 1.7067931 53
-0.24273178 0.97350109 1.4028255 56
-0.24387595 0.97810078 1.1710931 60
-0.24771547 0.98253489 1.0755429 51
-0.24722926 0.98061681 0.89754099 51
-0.24773969 0.98336542 0.74948037 49
-0.24602835 0.97658288 0.61350799 40
-0.24692123 0.9808498 0.49697202 37
-0.24702266 0.98197657 0.38738266 35
-0.24206993 0.96228802 0.27986142 14
-0.24640509 0.98024476 0.18351197 39
-0.24779707 0.98869073 0.98865426 58
-0.24612671 0.98275328 0.82123065 54
-0.24656954 0.984532 0.68179291 45
-0.24377319 0.97408772 0.55164546 39
-0.24645685 0.9855417 0.44251916 35
-0.2463159 0.98570907 0.33576739 22
-0.24111557 0.96561462 0.23085353 41
-0.24425364 0.9789089 0.13437465 44
-0.0070757354 0.030452186 1.9891979 77
-0.074172936 0.30418539 1.9909451 98
-0.098479964 0.39988351 2.0034087 95
-0.14569175 0.58994097 1.9886441 86
-0.19710806 0.79759532 1.9951125 91
-0.24107414 0.97481102 1.906787 42
-0.24065748 0.97313678 1.544935 46
-0.24366076 0.98529232 1.2913967 47
-0.028288305 0.1209185 1.9810979 88
-0.04872036 0.2131902 1.993349 93
-0.12110796 0.49443436 1.9960775 67
-0.17000207 0.69308221 1.9948403 89
-0.22274107 0.9067741 1.9936218 93
-0.23868063 0.97167909 1.7067931 53
-0.23861323 0.97141552 1.3988359 58
-0.24046026 0.97894609 1.1710931 58
-0.24428427 0.98339349 1.0755429 51
-0.24380477 0.9814738 0.89754099 51
-0.24430558 0.98422414 0.74948037 47
-0.24261793 0.97743577 0.61350799 40
-0.24237989 0.97720611 0.49509901 37
-0.24243934 0.97817647 0.38597345 36
-0.23870943 0.96312714 0.27986142 14
-0.24298191 0.98109889 0.18351197 40
-0.24344917 0.98592412 0.98532933 58
-0.24172652 0.97968209 0.81828749 52
-0.24313138 0.98538673 0.68179291 45
-0.24037153 0.97493279 0.55164546 39
-0.24301516 0.98639601 0.44251916 35
-0.24171175 0.98184317 0.33459508 22
-0.23774347 0.96645039 0.23085353 40
-0.24083512 0.97975546 0.13437465 43
-0.0069693942 0.030476699 1.9891979 75
-0.07311067 0.30444247 1.9909451 98
-0.097083502 0.4002248 2.0034087 95
-0.14363159 0.59044594 1.9886441 86
-0.19386069 0.79638016 1.99051 91
-0.23766993 0.9756465 1.906787 42
-0.23659314 0.97123688 1.5408021 49
-0.23946121 0.98302197 1.2875599 50
-0.027930547 0.1212988 1.9860895 88
-0.04797589 0.21335897 1.993349 93
-0.11938132 0.49485409 1.9960775 67
-0.16758171 0.69367141 1.9948403 89
-0.21957448 0.90754604 1.9936218 93
-0.2352874 0.97250634 1.7067931 51
-0.23522091 0.97224253 1.3988359 58
-0.23704165 0.97977948 1.1710931 60
-0.24000247 0.98077619 1.0720384 53
-0.24037731 0.98231888 0.89754099 51
-0.24086851 0.98507094 0.74948037 47
-0.23920457 0.97827667 0.61350799 40
-0.23896731 0.97804618 0.49509901 37
-0.2390234 0.97901684 0.38597345 36
-0.23534605 0.96395457 0.27986142 15
-0.23837546 0.97710294 0.18306577 40
-0.24000616 0.98676789 0.98532933 58
-0.23830532 0.98051995 0.81828749 52
-0.23969026 0.98622942 0.68179291 45
-0.23696689 0.97576582 0.55164546 39
-0.23957053 0.98723829 0.44251916 35
-0.23828299 0.98268092 0.33459508 22
-0.23436847 0.96727437 0.23085353 39
-0.23741367 0.98059016 0.13437465 47
-0.0068629682 0.03050084 1.9891979 75
-0.072047524 0.30469581 1.9909451 97
-0.095685862 0.40056127 2.0034087 95
-0.14156967 0.59094375 1.9886441 86
-0.19107963 0.79705203 1.99051 93
-0.23370396 0.97414052 1.9023983 44
-0.23320144 0.97205681 1.5408021 46
-0.23602837 0.98385185 1.2875599 50
-0.027506962 0.12139554 1.9860895 89
-0.047230836 0.21352512 1.993349 93
-0.11765323 0.49526781 1.9960775 67
-0.16515933 0.69425213 1.9948403 93
-0.21640521 0.90830702 1.9936218 93
-0.23189126 0.97332174 1.7067931 51
-0.23182571 0.97305763 1.3988359 58
-0.23362014 0.98060101 1.1710931 60
-0.23657745 0.98160797 1.0720384 47
-0.2369469 0.98315203 0.89754099 51
-0.2374285 0.98590583 0.74948037 49
-0.23578829 0.97910571 0.61350799 40
-0.23555185 0.97887444 0.49509901 37
-0.23560454 0.97984523 0.38597345 36
-0.23083135 0.95999402 0.27892879 14
-0.23496328 0.97792906 0.18306577 39
-0.23656024 0.98759961 0.98532933 56
-0.23488121 0.98134577 0.81828749 52
-0.23624623 0.98706007 0.68179291 45
-0.2335594 0.97658706 0.55164546 38
-0.23612295 0.98806852 0.44251916 35
-0.23485133 0.98350668 0.33459508 22
-0.23099065 0.9680866 0.23085353 42
-0.23283066 0.9765532 0.13417313 48
-0.0067564584 0.030524611 1.9891979 77
-0.070807524 0.30418861 1.9860058 95
-0.094287068 0.40089285 2.0034087 95
-0.13950604 0.59143424 1.9886441 82
-0.18829623 0.79771417 1.99051 93
-0.23030216 0.97495037 1.9023983 44
-0.22980691 0.97286493 1.5408021 46
-0.23185566 0.98154968 1.2837229 50
-0.027083047 0.12149082 1.9860895 89
-0.046485208 0.2136887 1.993349 93
-0.11621007 0.49690026 2.0009167 69
-0.16273494 0.69482446 1.9948403 93
-0.21323331 0.9090569 1.9936218 93
-0.22789679 0.97158617 1.7025272 53
-0.22842769 0.97386098 1.3988359 58
-0.23019578 0.98141044 1.1710931 60
-0.23232611 0.97895795 1.0685339 47
-0.23351362 0.98397303 0.89754099 51
-0.23398562 0.98672849 0.74948037 49
-0.23236915 0.97992271 0.61350799 40
-0.23213351 0.97969067 0.49509901 37
-0.2321828 0.98066163 0.38597345 36
-0.22747894 0.96079391 0.27892879 14
-0.23154822 0.97874326 0.18306577 39
-0.23225424 0.98478472 0.98200446 56
-0.23145424 0.98215973 0.81828749 52
-0.23181042 0.98368239 0.67926049 45
-0.23014905 0.97739643 0.55164546 38
-0.23267251 0.98888677 0.44251916 35
-0.23141684 0.98432052 0.33459508 22
-0.22647747 0.96406609 0.23016369 42
-0.22942042 0.97735995 0.13417313 45
-0.0066498667 0.03054801 1.9891979 77
-0.069745272 0.30443391 1.9860058 91
-0.092887111 0.40121952 2.0034087 95
-0.1374407 0.59191763 1.9886441 84
-0.18595269 0.8002696 1.9951125 95
-0.22689754 0.97574836 1.9023983 44
-0.22577226 0.97092032 1.5366691 46
-0.22770193 0.97923052 1.279886 50
-0.026658799 0.12158462 1.9860895 89
-0.045739014 0.21384966 1.993349 93
-0.11447486 0.49730286 2.0009167 69
-0.16030855 0.69538826 1.9948403 93
-0.21005881 0.9097957 1.9936218 92
-0.22450393 0.97237581 1.7025272 53
-0.22502689 0.97465241 1.3988359 58
-0.22676861 0.98220801 1.1710931 60
-0.22890748 0.97976291 1.0685339 51
-0.23007749 0.98478222 0.89754099 49
-0.22958928 0.98346728 0.74673891 49
-0.22894715 0.98072791 0.61350799 40
-0.22871234 0.98049504 0.49509901 37
-0.22875823 0.98146611 0.38597345 36
-0.22412376 0.96158206 0.27892879 15
-0.22813037 0.97954559 0.18306577 38
-0.2288153 0.9855895 0.98200446 56
-0.22802445 0.98296171 0.81828749 52
-0.22837532 0.98448557 0.67926049 45
-0.2267359 0.97819382 0.55164546 38
-0.22921924 0.98969293 0.44251916 35
-0.22688363 0.98038685 0.33342275 23
-0.22311087 0.96485072 0.23016369 42
-0.2260074 0.97815484 0.13417313 44
-0.0065431939 0.030571036 1.9891979 77
-0.068511486 0.30391753 1.9810666 68
-0.091486029 0.40154132 2.0034087 95
-0.1353737 0.59239382 1.9886441 84
-0.1831581 0.80091381 1.9951125 95
-0.22349015 0.97653443 1.9023983 46
-0.22238174 0.97170246 1.5366691 48
-0.2242824 0.98001933 1.279886 50
-0.026173677 0.12139378 1.9810979 88
-0.044992257 0.21400802 1.993349 93
-0.11273825 0.49769944 2.0009167 69
-0.15788022 0.69594359 1.9948403 93
-0.20688175 0.91052341 1.9936218 93
-0.22110835 0.97315347 1.7025272 53
-0.22162336 0.97543198 1.3988359 58
-0.22333868 0.9829936 1.1710931 58
-0.22548608 0.98055601 1.0685339 51
-0.22663856 0.98557937 0.89754099 49
-0.22615495 0.9842627 0.74673891 49
-0.22552238 0.98152113 0.61350799 40
-0.22528836 0.98128736 0.49509901 37
-0.22533089 0.98225862 0.38597345 35
-0.22076586 0.96235853 0.27892879 15
-0.22470972 0.98033595 0.18306577 39
-0.22537357 0.98638219 0.98200446 56
-0.22459188 0.98375165 0.81828749 52
-0.22493742 0.98527682 0.67926049 45
-0.22331998 0.97897935 0.55164546 38
-0.22576316 0.99048698 0.44251916 35
-0.22346006 0.98117286 0.33342275 22
-0.21974155 0.96562374 0.23016369 41
-0.22259162 0.9789378 0.13417313 46
-0.0064364411 0.03059369 1.9891979 77
-0.067282163 0.30339617 1.9761273 67
-0.09008383 0.40185818 2.0034087 95
-0.13330503 0.59286273 1.9886441 73
-0.18036127 0.8015483 1.9951125 95
-0.21955377 0.97497141 1.8980098 44
-0.21898852 0.97247285 1.5366691 48
-0.22015585 0.97766864 1.276049 50
-0.025749775 0.1214844 1.9810979 89
-0.044244956 0.21416377 1.993349 93
-0.11100027 0.49808994 2.0009167 69
-0.15544997 0.69649041 1.9948403 91
-0.20370218 0.91123998 1.9936218 93
-0.21771005 0.97391939 1.7025272 51
-0.2182171 0.97619963 1.3988359 58
-0.21916649 0.98045868 1.167418 60
-0.22206193 0.98133707 1.0685339 51
-0.22233771 0.98256755 0.89440322 49
-0.22271785 0.98504615 0.74673891 43
-0.22209486 0.98230237 0.61350799 40
-0.22186166 0.98206776 0.49509901 37
-0.22190079 0.98303926 0.38597345 35
-0.21740524 0.96312332 0.27892879 14
-0.22238205 0.98597229 0.18351197 39
-0.22110999 0.98351943 0.9786796 55
-0.22027069 0.98058581 0.81534433 50
-0.22149679 0.98605597 0.67926049 43
-0.21890742 0.97532445 0.54954737 38
-0.22230434 0.99126905 0.44251916 35
-0.22003378 0.98194683 0.33342275 22
-0.21636957 0.96638483 0.23016369 40
-0.21917313 0.97970885 0.13417313 46
-0.00632961 0.03061597 1.9891979 75
-0.06605731 0.30287004 1.9711881 69
-0.088680536 0.40217021 2.0034087 95
-0.13123474 0.59332448 1.9886441 64
-0.17756224 0.80217302 1.9951125 95
-0.21614915 0.97573185 1.8980098 44
-0.21559262 0.97323126 1.5366691 46
-0.21674182 0.97843117 1.276049 50
-0.025325559 0.12157354 1.9810979 86
-0.043497115 0.2143169 1.993349 93
-0.10926093 0.49847439 2.0009167 77
-0.15301782 0.69702888 1.9948403 93
-0.2005201 0.91194546 1.9936218 95
-0.2143091 0.97467339 1.7025272 53
-0.2148082 0.97695535 1.3988359 58
-0.21574269 0.98121774 1.167418 60
-0.21863507 0.98210633 1.0685339 51
-0.21890655 0.9833377 0.89440322 49
-0.21927804 0.98581761 0.74673891 43
-0.21866463 0.98307168 0.61350799 40
-0.21843225 0.98283625 0.49509901 37
-0.21950795 0.988491 0.38738266 35
-0.21404199 0.96387631 0.27892879 15
-0.21893899 0.98674262 0.18351197 36
-0.21767552 0.9842853 0.9786796 56
-0.21684648 0.98134875 0.81534433 50
-0.21805346 0.98682308 0.67926049 43
-0.21550156 0.97608262 0.54954737 38
-0.21884282 0.99203897 0.44251916 35
-0.2166048 0.98270893 0.33342275 21
-0.21299493 0.9671343 0.23016369 41
-0.21575199 0.98046786 0.13417313 46
-0.0062227016 0.030637879 1.9891979 75
-0.064836957 0.30233902 1.9662488 81
-0.087276161 0.40247732 2.0034087 95
-0.12916285 0.59377891 1.9886441 49
-0.17476104 0.80278796 1.9951125 93
-0.21274191 0.97648042 1.8980098 46
-0.2115951 0.97122836 1.5325361 46
-0.21332514 0.97918177 1.276049 50
-0.024901034 0.12166121 1.9810979 88
-0.042748742 0.21446742 1.993349 93
-0.10752027 0.4988527 2.0009167 77
-0.15058379 0.6975587 1.9948403 93
-0.1973356 0.91263986 1.9936218 93
-0.21035443 0.97286648 1.6982613 53
-0.21139669 0.97769922 1.3988359 58
-0.2123163 0.98196483 1.167418 60
-0.21520555 0.98286349 1.0685339 51
-0.21547273 0.98409575 0.89440322 49
-0.21583557 0.98657697 0.74673891 49
-0.21428494 0.97950107 0.61118996 38
-0.21401024 0.97906381 0.49322596 37
-0.21605614 0.9892512 0.38738266 33
-0.21067613 0.96461761 0.27892879 15
-0.21549329 0.98750079 0.18351197 37
-0.21423839 0.98503906 0.9786796 58
-0.21341962 0.98209971 0.81534433 50
-0.21460749 0.98757821 0.67926049 45
-0.21209309 0.97682893 0.54954737 38
-0.21537863 0.99279684 0.44251916 35
-0.21317318 0.98345912 0.33342275 23
-0.2096177 0.9678719 0.23016369 41
-0.2112716 0.97633219 0.13397159 46
-0.0061157178 0.030659415 1.9891979 77
-0.063781202 0.30256349 1.9662488 95
-0.085870713 0.40277952 2.0034087 96
-0.12708938 0.59422618 1.9886441 49
-0.17195772 0.80339307 1.9951125 93
-0.20883027 0.97487444 1.893621 44
-0.2082036 0.97196108 1.5325361 48
-0.21057734 0.98305529 1.279886 52
-0.024476206 0.12174739 1.9810979 89
-0.041999854 0.21461535 1.993349 93
-0.1057783 0.49922499 2.0009167 78
-0.14814794 0.69808012 1.9948403 91
-0.19414869 0.9133231 1.9936218 92
-0.20695721 0.97359478 1.6982613 53
-0.2079826 0.97843117 1.3988359 58
-0.20888732 0.98269993 1.167418 58
-0.21102279 0.98012227 1.0650294 51
-0.21203628 0.98484194 0.89440322 49
-0.21151111 0.98323655 0.74399745 49
-0.21086454 0.98024309 0.61118996 38
-0.21059138 0.97980493 0.49322596 37
-0.21260169 0.98999941 0.38738266 32
-0.2073077 0.96534717 0.27892879 15
-0.21204495 0.98824704 0.18351197 37
-0.21079867 0.98578089 0.9786796 58
-0.20999014 0.98283869 0.81534433 52
-0.21025811 0.98410523 0.67672807 45
-0.20868202 0.97756332 0.54954737 38
-0.2119118 0.99354261 0.44251916 34
-0.20973897 0.9841972 0.33342275 23
-0.20623793 0.96859765 0.23016369 41
-0.20786227 0.97706366 0.13397159 44
-0.006008659 0.030680574 1.9891979 77
-0.062567234 0.30202338 1.9613096 95
-0.084464237 0.40307683 2.0034087 95
-0.12501436 0.59466618 1.9886441 49
-0.16915232 0.8039884 1.9951125 93
-0.20542604 0.97559744 1.893621 42
-0.20480953 0.97268194 1.5325361 48
-0.20714454 0.98378438 1.279886 52
-0.02405108 0.12183209 1.9810979 86
-0.041250449 0.21476063 1.993349 93
-0.10403502 0.49959117 2.0009167 88
-0.14571027 0.69859302 1.9948403 91
-0.19095941 0.91399527 1.9936218 93
-0.20302413 0.97175831 1.6939954 53
-0.20456596 0.97915125 1.3988359 58
-0.20545578 0.98342311 1.167418 58
-0.20760025 0.98085296 1.0650294 51
-0.20779121 0.98176759 0.89126545 49
-0.20807768 0.98396885 0.74399745 49
-0.20744157 0.98097318 0.61118996 39
-0.20716992 0.98053402 0.49322596 37
-0.20914465 0.99073547 0.38738266 32
-0.20393674 0.96606493 0.27892879 14
-0.20859402 0.98898119 0.18351197 36
-0.20735636 0.98651069 0.9786796 58
-0.20655812 0.98356569 0.81534433 50
-0.20682167 0.98483318 0.67672807 47
-0.20526841 0.97828585 0.54954737 38
-0.2084424 0.99427629 0.44251916 34
-0.20530573 0.98016596 0.33225045 23
-0.20285563 0.96931165 0.23016369 41
-0.20445041 0.97778326 0.13397159 45
-0.0059015267 0.030701362 1.9891979 77
-0.061512589 0.30223995 1.9613096 95
-0.083056718 0.40336922 2.0034087 95
-0.12293784 0.59509891 1.9886441 49
-0.16634485 0.80457395 1.9951125 93
-0.20201932 0.97630858 1.893621 44
-0.20141301 0.97339088 1.5325361 48
-0.20370923 0.98450142 1.279886 52
-0.023625659 0.1219153 1.9810979 88
-0.040500548 0.21490332 1.993349 93
-0.10229049 0.4999513 2.0009167 97
-0.14327085 0.69909739 1.9948403 91
-0.1877678 0.91465628 1.9936218 93
-0.19963081 0.97246104 1.6939954 51
-0.20054078 0.9769069 1.3948464 58
-0.20134005 0.98081344 1.1637428 60
-0.20417516 0.98157167 1.0650294 49
-0.20436294 0.9824869 0.89126545 49
-0.20464171 0.98468918 0.74399745 49
-0.20401607 0.9816913 0.61118996 40
-0.20374596 0.98125124 0.49322596 37
-0.20568508 0.99145943 0.38738266 32
-0.19956551 0.96196109 0.27799615 14
-0.20514058 0.98970324 0.18351197 35
-0.20391154 0.98722851 0.9786796 58
-0.20312357 0.98428071 0.81534433 50
-0.20338269 0.98554909 0.67672807 45
-0.20185232 0.9789964 0.54954737 38
-0.20497045 0.9949978 0.44251916 34
-0.20188305 0.98087662 0.33225045 22
-0.19947086 0.97001392 0.23016369 41
-0.20103607 0.97849107 0.13397159 45
-0.0057943235 0.030721776 1.9891979 77
-0.0604572 0.3024528 1.9613096 95
-0.081648193 0.40365666 2.0034087 95
-0.12085981 0.59552443 1.9886441 44
-0.16353534 0.80514973 1.9951125 95
-0.19861013 0.97700781 1.893621 44
-0.19801399 0.97408801 1.5325361 48
-0.19963282 0.98206484 1.276049 52
-0.023199949 0.12199703 1.9810979 88
-0.039750144 0.2150434 1.993349 93
-0.10054471 0.50030529 2.0009167 97
-0.14048919 0.69790155 1.9901476 91
-0.18457392 0.91530615 1.9936218 92
-0.19623509 0.97315204 1.6939954 51
-0.19712952 0.97760099 1.3948464 58
-0.19791515 0.98151028 1.1637428 61
-0.20003356 0.97878438 1.0615247 49
-0.20093216 0.98319435 0.89126545 46
-0.20120326 0.98539752 0.74399745 47
-0.20058808 0.98239744 0.61118996 40
-0.2003195 0.98195642 0.49322596 37
-0.20126492 0.98747075 0.38597345 35
-0.19620642 0.96265185 0.27799615 14
-0.20069091 0.98553342 0.18306577 38
-0.20046423 0.98793429 0.9786796 56
-0.19888349 0.98102236 0.81240118 50
-0.19994125 0.98625302 0.67672807 43
-0.19843376 0.97969502 0.54954737 38
-0.20055935 0.99107856 0.44087645 34
-0.19845793 0.98157531 0.33225045 23
-0.19608366 0.9707042 0.23016369 41
-0.19761927 0.97918683 0.13397159 43
-0.0056870491 0.030741811 1.9891979 77
-0.059251618 0.30189952 1.9563702 95
-0.080238663 0.40393922 2.0034087 95
-0.1187803 0.59594274 1.9886441 44
-0.16072385 0.80571562 1.9951125 93
-0.19472949 0.97534567 1.8892323 44
-0.19461259 0.97477329 1.5325361 44
-0.19620356 0.98275566 1.276049 52
-0.022773961 0.12207726 1.9810979 86
-0.038999263 0.21518083 1.993349 95
-0.098797716 0.50065321 2.0009167 97
-0.1380522 0.69838762 1.9901476 83
-0.18137778 0.91594481 1.9936218 93
-0.19283696 0.97383106 1.6939954 53
-0.19371586 0.97828311 1.3948464 58
-0.19448784 0.98219514 1.1637428 60
-0.19661576 0.97947669 1.0615247 51
-0.19673285 0.98007303 0.88812768 46
-0.19776234 0.98609388 0.74399745 47
-0.19715765 0.98309165 0.61118996 40
-0.19689062 0.98264968 0.49322596 37
-0.19781676 0.98816729 0.38597345 33
-0.19284494 0.96333086 0.27799615 14
-0.19724953 0.98622805 0.18306577 38
-0.19628465 0.98496574 0.97535479 56
-0.19545786 0.98171073 0.81240118 50
-0.19649737 0.98694497 0.67672807 43
-0.19412735 0.97593033 0.54744929 38
-0.19709864 0.99177259 0.44087645 35
-0.19408378 0.97749454 0.33107814 23
-0.19269408 0.9713828 0.23016369 40
-0.19420008 0.97987068 0.13397159 43
-0.0055725188 0.030718438 1.984198 75
-0.058197431 0.3021045 1.9563702 95
-0.078828163 0.40421683 2.0034087 95
-0.11669935 0.59635371 1.9886441 45
-0.15791039 0.80627179 1.9951125 95
-0.19132371 0.97601944 1.8892323 44
-0.19120882 0.97544664 1.5325361 44
-0.1927719 0.98343456 1.276049 50
-0.022347692 0.12215601 1.9810979 89
-0.038247902 0.21531565 1.993349 95
-0.097049505 0.50099504 2.0009167 97
-0.13561352 0.69886523 1.9901476 73
-0.17817943 0.91657239 1.9936218 93
-0.18943648 0.97449827 1.6939954 51
-0.18972476 0.97599477 1.390857 58
-0.19105816 0.98286802 1.1637428 58
-0.19319555 0.98015702 1.0615247 49
-0.19331054 0.98075378 0.88812768 46
-0.19431902 0.98677814 0.74399745 47
-0.19372481 0.98377389 0.61118996 39
-0.19345933 0.98333097 0.49322596 37
-0.19436623 0.98885173 0.38597345 33
-0.18948112 0.96399814 0.27799615 14
-0.19284612 0.98202372 0.18261954 38
-0.19284528 0.98564494 0.97535479 56
-0.19202986 0.98238701 0.81240118 50
-0.1930511 0.98762488 0.67672807 43
-0.19071952 0.97660202 0.54744929 38
-0.19363548 0.99245459 0.44087645 34
-0.19067051 0.97816604 0.33107814 23
-0.18930215 0.97204947 0.23016369 41
-0.19077851 0.98054254 0.13397159 44
-0.0054652574 0.030737704 1.984198 75
-0.057142537 0.30230582 1.9563702 95
-0.077416711 0.40448952 2.0034087 96
-0.11461698 0.59675741 1.9886441 49
-0.15509503 0.80681807 1.9951125 95
-0.18791559 0.97668135 1.8892323 44
-0.1878027 0.97610819 1.5325361 48
-0.18933789 0.98410153 1.276049 49
-0.021921152 0.12223327 1.9810979 88
-0.037496079 0.21544786 1.993349 93
-0.095300108 0.50133079 2.0009167 97
-0.13317321 0.69933438 1.9901476 52
-0.17497893 0.91718876 1.9936218 93
-0.18603368 0.97515363 1.6939954 48
-0.18631674 0.97665113 1.390857 58
-0.18699089 0.98019892 1.1600677 58
-0.18977299 0.98082536 1.0615247 49
-0.1898859 0.98142254 0.88812768 46
-0.19087337 0.98745042 0.74399745 47
-0.19028965 0.98444408 0.61118996 39
-0.19002569 0.98400027 0.49322596 37
-0.1909133 0.98952425 0.38597345 33
-0.18611498 0.96465367 0.27799615 14
-0.18941702 0.98269087 0.18261954 38
-0.18940356 0.98631203 0.97535479 56
-0.18859953 0.9830513 0.81240118 50
-0.18960245 0.98829269 0.67672807 45
-0.18730938 0.97726178 0.54744929 38
-0.19016999 0.99312443 0.44087645 34
-0.18634163 0.97405165 0.32990581 24
-0.18590792 0.97270435 0.23016369 41
-0.18735461 0.98120254 0.13397159 43
-0.0053579295 0.030756593 1.984198 75
-0.056086943 0.30250344 1.9563702 95
-0.076004304 0.40475729 2.0034087 96
-0.1125332 0.59715384 1.9886441 49
-0.15227775 0.80735451 1.9951125 95
-0.18406081 0.9749772 1.8848437 42
-0.18387233 0.97399259 1.5284033 48
-0.18530692 0.98160607 1.272212 49
-0.021494344 0.12230905 1.9810979 88
-0.036743797 0.21557742 1.993349 93
-0.093549564 0.50166041 2.0009167 97
-0.13073125 0.69979501 1.9901476 42
-0.17177626 0.91779393 1.9936218 92
-0.18262863 0.975797 1.6939954 48
-0.18290645 0.97729546 1.390857 56
-0.18356822 0.98084557 1.1600677 60
-0.18634811 0.98148185 1.0615247 49
-0.18645895 0.98207939 0.88812768 49
-0.18664612 0.98400247 0.741256 49
-0.18602654 0.98074973 0.60887194 39
-0.18658973 0.98465759 0.49322596 37
-0.18745805 0.99018455 0.38597345 32
-0.18274659 0.9652974 0.27799615 14
-0.18598564 0.98334605 0.18261954 38
-0.18595955 0.98696721 0.97535479 56
-0.18516688 0.98370361 0.81240118 50
-0.1861515 0.98894852 0.67672807 45
-0.18389696 0.97790968 0.54744929 38
-0.18670218 0.99378216 0.44087645 34
-0.18294042 0.9746961 0.32990581 23
-0.18159875 0.96847999 0.22947389 41
-0.18392843 0.9818505 0.13397159 41
-0.0052505359 0.030775107 1.984198 73
-0.055030666 0.30269736 1.9563702 96
-0.074590974 0.40502015 2.0034087 95
-0.11044805 0.59754306 1.9886441 49
-0.14945865 0.80788118 1.9951125 95
-0.18065639 0.97561383 1.8848437 42
-0.18047133 0.97462857 1.5284033 48
-0.18187936 0.98224694 1.272212 50
-0.021067275 0.12238333 1.9810979 88
-0.035991065 0.21570438 1.993349 93
-0.091797866 0.50198388 2.0009167 97
-0.12828773 0.70024711 1.9901476 40
-0.16857152 0.91838801 1.9936218 93
-0.17875054 0.97386342 1.6897295 48
-0.17894986 0.97496367 1.3868674 56
-0.18014331 0.98148048 1.1600677 60
-0.18292096 0.98212636 1.0615247 49
-0.18302971 0.98272425 0.88812768 46
-0.18321018 0.98464805 0.741256 49
-0.18260196 0.98139316 0.60887194 40
-0.1831515 0.98530298 0.49322596 37
-0.18400051 0.99083292 0.38597345 32
-0.17937593 0.96592951 0.27799615 16
-0.18255199 0.9839893 0.18261954 39
-0.18251325 0.98761022 0.97535479 56
-0.18173198 0.98434401 0.81240118 50
-0.18269829 0.98959231 0.67672807 43
-0.18048231 0.97854567 0.54744929 38
-0.18323211 0.9944278 0.44087645 34
-0.17953698 0.9753288 0.32990581 23
-0.17821701 0.96910805 0.22947389 41
-0.18050002 0.98248661 0.13397159 42
-0.005143079 0.03079325 1.984198 73
-0.053973719 0.30288762 1.9563702 96
-0.073176734 0.40527803 2.0034087 95
-0.10836158 0.59792501 1.9886441 60
-0.14663769 0.80839795 1.9951125 95
-0.17682178 0.97388119 1.8804549 40
-0.17706816 0.97525257 1.5284033 48
-0.17844956 0.98287588 1.272212 50
-0.020639949 0.12245613 1.9810979 88
-0.035323262 0.21635574 1.9983203 91
-0.090045065 0.50230128 2.0009167 97
-0.12614761 0.70238912 1.9948403 40
-0.16536471 0.91897082 1.9936218 93
-0.17535004 0.9744814 1.6897295 51
-0.17554551 0.97558236 1.3868674 56
-0.17671619 0.98210329 1.1600677 60
-0.17949158 0.98275888 1.0615247 42
-0.17959824 0.98335719 0.88812768 49
-0.179772 0.98528159 0.741256 49
-0.17917514 0.98202455 0.60887194 39
-0.17971101 0.98593628 0.49322596 37
-0.18054074 0.99146914 0.38597345 33
-0.17600313 0.96654975 0.27799615 15
-0.17911611 0.98462051 0.18261954 38
-0.17906475 0.98824137 0.97535479 55
-0.17829488 0.98497236 0.81240118 52
-0.17924286 0.990224 0.67672807 43
-0.17706545 0.97916973 0.54744929 38
-0.17975979 0.9950614 0.44087645 34
-0.17613137 0.97594953 0.32990581 23
-0.1748331 0.96972418 0.22947389 40
-0.1770694 0.98311067 0.13397159 44
-0.0050355596 0.030811016 1.984198 77
-0.052916121 0.30307418 1.9563702 95
-0.071761608 0.40553099 2.0034087 95
-0.10627376 0.5982995 1.9886441 71
-0.14381497 0.80890489 1.9951125 91
-0.17342123 0.97449243 1.8804549 40
-0.17366281 0.97586465 1.5284033 49
-0.1750176 0.98349279 1.272212 52
-0.020212373 0.12252744 1.9810979 89
-0.034567825 0.21647772 1.9983203 91
-0.088291153 0.50261247 2.0009167 96
-0.12369505 0.70282513 1.9948403 40
-0.16215591 0.91954243 1.9936218 93
-0.1719474 0.97508758 1.6897295 51
-0.17213903 0.9761892 1.3868674 58
-0.17328696 0.98271412 1.1600677 60
-0.17606002 0.98337942 1.0615247 42
-0.17616458 0.98397815 0.88812768 46
-0.17633162 0.98590302 0.741256 49
-0.17574614 0.98264402 0.60887194 39
-0.17626837 0.98655748 0.49322596 37
-0.17707877 0.99209332 0.38597345 31
-0.17262816 0.9671582 0.27799615 15
-0.17567806 0.98523974 0.18261954 37
-0.17496109 0.98518348 0.97202992 53
-0.1748556 0.98558873 0.81240118 52
-0.17578526 0.99084359 0.67672807 43
-0.17364642 0.97978181 0.54744929 38
-0.17628528 0.99568278 0.44087645 34
-0.17272358 0.97655839 0.32990581 23
-0.17144707 0.97032851 0.22947389 41
-0.17276821 0.97880286 0.13377005 44
-0.0049279779 0.030828405 1.984198 75
-0.051857866 0.30325705 1.9563702 90
-0.070345603 0.405779 2.0034087 95
-0.10392865 0.59719545 1.9838723 86
-0.14099048 0.80940199 1.9951125 79
-0.17001857 0.97509193 1.8804549 40
-0.17025535 0.97646493 1.5284033 48
-0.17158349 0.98409778 1.272212 52
-0.019784549 0.12259724 1.9810979 88
-0.033811968 0.21659708 1.9983203 91
-0.086536169 0.50291759 2.0009167 96
-0.12124098 0.70325267 1.9948403 42
-0.15894511 0.92010289 1.9936218 93
-0.16854267 0.97568184 1.6897295 48
-0.16873044 0.97678411 1.3868674 58
-0.16985559 0.98331302 1.1600677 58
-0.17201011 0.98047537 1.0580202 49
-0.17272879 0.98458701 0.88812768 42
-0.17288911 0.9865126 0.741256 49
-0.17231502 0.98325151 0.60887194 39
-0.17282358 0.98716682 0.49322596 37
-0.17361464 0.9927054 0.38597345 31
-0.1692511 0.9677549 0.27799615 14
-0.17223786 0.985847 0.18261954 38
-0.17152108 0.98578829 0.97202992 55
-0.17141418 0.98619306 0.81240118 48
-0.17158723 0.98720372 0.67419565 43
-0.17022528 0.98038203 0.54744929 38
-0.17280862 0.99629205 0.44087645 34
-0.1693137 0.97715539 0.32990581 22
-0.16805896 0.9709211 0.22947389 41
-0.1693505 0.97940004 0.13377005 43
-0.0048203371 0.030845419 1.984198 75
-0.050927099 0.30420259 1.9613096 74
-0.068928741 0.40602213 2.0034087 93
-0.10184341 0.59755456 1.9838723 86
-0.13816428 0.8098892 1.9951125 65
-0.16661382 0.97567946 1.8804549 40
-0.1668458 0.97705328 1.5284033 48
-0.16814731 0.98469073 1.272212 50
-0.019356485 0.12266555 1.9810979 88
-0.033055697 0.21671377 1.9983203 91
-0.084780134 0.50321662 2.0009167 96
-0.11878543 0.70367157 1.9948403 46
-0.15573239 0.92065209 1.9936218 92
-0.16513588 0.97626424 1.6897295 48
-0.16531982 0.97736716 1.3868674 58
-0.16642216 0.98389995 1.1600677 58
-0.16858657 0.98106986 1.0580202 49
-0.16863164 0.98134738 0.88498992 42
-0.16944449 0.98711008 0.741256 49
-0.16888176 0.98384702 0.60887194 39
-0.16937667 0.98776406 0.49322596 37
-0.17014839 0.99330539 0.38597345 30
-0.16587196 0.9683398 0.27799615 14
-0.16879557 0.98644221 0.18261954 37
-0.16807899 0.98638105 0.97202992 55
-0.16729242 0.9828006 0.80945796 50
-0.1681402 0.9877966 0.67419565 43
-0.16680208 0.9809702 0.54744929 38
-0.16853906 0.99223357 0.43923378 33
-0.16590177 0.97774047 0.32990581 22
-0.1646688 0.97150183 0.22947389 41
-0.16593072 0.97998518 0.13377005 43
-0.0047126366 0.030862056 1.984198 77
-0.049864922 0.30437851 1.9613096 52
-0.067511037 0.40626022 2.0034087 95
-0.099756934 0.59790641 1.9838723 86
-0.13565817 0.81229341 1.999715 36
-0.16320705 0.97625506 1.8804549 40
-0.16297027 0.97485423 1.5242703 48
-0.1641805 0.98210961 1.2683752 50
-0.018928183 0.12273237 1.9810979 86
-0.032299023 0.21682785 1.9983203 93
-0.083023064 0.50350952 2.0009167 97
-0.11632843 0.70408195 1.9948403 46
-0.15251777 0.92119014 1.9936218 92
-0.16130111 0.9742617 1.6854634 48
-0.16190717 0.97793829 1.3868674 58
-0.16243298 0.98113024 1.1563925 60
-0.16516095 0.98165238 1.0580202 49
-0.16520508 0.98193008 0.88498992 46
-0.16530479 0.98357189 0.73851454 40
-0.16544649 0.98443049 0.60887194 39
