# .PCD v0.7 - Point Cloud Data file format
VERSION 0.7
FIELDS x y z intensity
SIZE 4 4 4 4
TYPE F F F F
COUNT 1 1 1 1
WIDTH 1388
HEIGHT 1
VIEWPOINT 0 0 0 1 0 0 0
POINTS 1388
DATA ascii
-2.5404155 0.68022162 1.9984947 69
-3.1626186 0.84682661 2.0087843 65
-4.0123224 1.0750957 2.007694 56
-5.3418589 1.4323431 2.0129259 5
-7.6992273 2.0658793 2.0133536 14
-10.043703 2.696836 1.5408137 94
-10.05946 2.7029495 0.51385736 94
-0.030015193 0.0085885786 1.984198 71
-0.30118486 0.082656614 1.9860058 93
-0.37381595 0.10166635 1.8859231 37
-0.4163799 0.11294785 1.4255807 46
-0.79296517 0.21497938 1.9951125 95
-1.0108582 0.27387297 1.9857829 81
-1.3097974 0.35487154 2.0656867 17
-1.5490128 0.41968828 1.9973947 76
-0.1197209 0.034064908 1.9860895 106
-0.21053994 0.061077591 1.9983203 82
-0.37335017 0.10203768 1.5266747 37
-0.68344402 0.18656318 1.980762 91
-0.89875454 0.24501257 1.9891212 92
-1.1339198 0.30912867 1.9926107 30
-1.3954296 0.380427 1.9892817 84
-1.7084776 0.46577635 1.9980052 81
-1.880394 0.50736105 1.9937341 75
-2.2918429 0.61838114 1.9957631 66
-2.9288402 0.79080451 2.0736086 13
-3.54706 0.95773143 2.0089602 50
nan nan nan 0
-6.3031387 1.7042553 2.0079575 35
-9.839591 2.6604497 2.026659 20
-10.046834 2.7183666 1.02551 71
-2.0721316 0.56220353 1.9927584 75
-2.5380256 0.68908513 1.9984947 69
-3.1596432 0.85786098 2.0087843 64
-4.0041656 1.0879047 2.0055959 54
-5.3231559 1.4472641 2.0079978 6
-7.68259 2.0901902 2.0110092 14
-10.048563 2.7357812 1.5428832 94
-10.049964 2.7380469 0.51385736 92
-0.029985029 0.0086932993 1.984198 71
-0.30089447 0.083707437 1.9860058 93
-0.37345883 0.10297059 1.8859231 37
-0.41598311 0.1144006 1.4255807 48
-0.79220992 0.21774603 1.9951125 93
-1.0122061 0.27803445 1.9901714 81
-1.3085506 0.35944143 2.0656867 17
-1.5475384 0.42509282 1.9973947 76
-0.11960126 0.034482602 1.9860895 107
-0.21032546 0.061812144 1.9983203 82
-0.37299171 0.10334028 1.5266747 37
-0.68278867 0.18894771 1.980762 91
-0.89789385 0.24814829 1.9891212 92
-1.132834 0.31308487 1.9926107 31
-1.3940932 0.38529563 1.9892817 87
-1.7068413 0.47173718 1.9980052 81
-1.8786114 0.51392186 1.9937341 73
-2.2896702 0.6263774 1.9957631 66
-2.9260619 0.80102324 2.0736086 14
-3.5394223 0.9689374 2.0066421 52
nan nan nan 0
-6.2971511 1.726247 2.0079575 32
-9.8302441 2.6947801 2.026659 20
-10.051693 2.7573729 1.0268487 74
-2.0701563 0.56943321 1.9927584 75
-2.535605 0.69794035 1.9984947 71
-3.1566298 0.86888498 2.0087843 64
-3.9872172 1.0982596 1.9993017 31
-5.3044138 1.4620719 2.0030696 5
-7.665875 2.1144097 2.0086646 12
-10.043726 2.7721579 1.543573 96
-10.049977 2.7757714 0.51426047 90
-0.029954502 0.0087979129 1.984198 71
-0.30134827 0.084968291 1.9909451 93
-0.37407774 0.10454774 1.8908184 37
-0.41558126 0.11585196 1.4255807 50
-0.79144496 0.22051002 1.9951125 95
-1.0112293 0.28156602 1.9901714 83
-1.3099988 0.3647618 2.0698195 17
-1.5460451 0.43049216 1.9973947 74
-0.11975798 0.034981538 1.9910811 107
-0.21010841 0.06254594 1.9983203 82
-0.37262875 0.10464164 1.5266747 37
-0.68212497 0.19132994 1.980762 91
-0.89702213 0.25128102 1.9891212 93
-1.1317341 0.31703728 1.9926107 32
-1.3927397 0.39015955 1.9892817 89
-1.7051842 0.47769231 1.9980052 81
-1.8768063 0.52047622 1.9937341 75
-2.2874701 0.63436604 1.9957631 66
-2.9272771 0.81235045 2.07635 17
-3.523212 0.97773248 1.999688 38
nan nan nan 0
-6.2818427 1.7456485 2.0051391 21
-9.8207779 2.7290776 2.026659 15
-10.042007 2.792443 1.0268487 76
-2.0681562 0.57665598 1.9927584 75
-2.5331533 0.70678699 1.9984947 71
-3.1535773 0.87989843 2.0087843 67
-3.8871896 1.0853198 1.9531444 17
nan nan nan 0
-7.6537671 2.139847 2.0074921 10
-10.048295 2.811203 1.5456424 84
-10.049847 2.813529 0.51466346 88
-0.029965255 0.0089154467 1.9891979 69
-0.30104983 0.086019672 1.9909451 95
-0.37371051 0.10585288 1.8908184 37
-0.41517431 0.1173019 1.4255807 50
-0.79067039 0.22327134 1.9951125 95
-1.0102403 0.28509414 1.9901714 83
-1.3087176 0.36933231 2.0698195 17
-1.5445329 0.4358862 1.9973947 76
-0.11963513 0.035399359 1.9910811 107
-0.20988882 0.063278973 1.9983203 82
-0.37347096 0.10628609 1.5315139 37
-0.68145293 0.19370984 1.980762 91
-0.89613956 0.25441068 1.9891212 92
-1.1306207 0.32098585 1.9926107 33
-1.3884699 0.39419559 1.9852921 84
-1.7035065 0.48364159 1.9980052 81
-1.8749779 0.52702433 1.9937341 75
-2.2852418 0.64234698 1.9957631 66
-2.9244235 0.82256365 2.07635 28
-3.5027182 0.98522645 1.9904157 28
-3.00407 0.84553474 1.349202 4
-6.2941813 1.7727679 2.0107758 17
-9.8111916 2.7633419 2.026659 12
-10.056164 2.8342333 1.0290797 76
-2.0697241 0.58488709 1.9960833 75
-2.5306709 0.71562499 1.9984947 71
-3.1546352 0.89207411 2.0113168 65
-3.8484411 1.0889962 1.93636 13
nan nan nan 0
-7.6462507 2.1665504 2.0074921 8
-10.043184 2.8476121 1.5463322 74
-9.8140736 2.7845011 0.50519156 34
-0.02993395 0.0090199914 1.9891979 69
-0.30074772 0.087070003 1.9909451 96
-0.37431738 0.10743773 1.8957136 37
-0.41476235 0.11875042 1.4255807 48
-0.7898863 0.22602995 1.9951125 93
-1.009239 0.2886188 1.9901714 83
-1.3101258 0.37467209 2.0739524 16
-1.5430019 0.44127497 1.9973947 76
-0.11951084 0.035816748 1.9910811 108
-0.20966665 0.064011239 1.9983203 86
-0.37309769 0.1075891 1.5315139 37
-0.68077266 0.19608736 1.980762 91
-0.89524609 0.25753725 1.9891212 92
-1.1294934 0.32493049 1.9926107 33
-1.3870856 0.39903986 1.9852921 84
-1.7018079 0.48958495 1.9980052 83
-1.8731267 0.53356606 1.9937341 73
-2.2829854 0.65032005 1.9957631 64
-2.9255557 0.83391297 2.0790915 34
-3.4736953 0.9901607 1.9765077 18
-2.9921844 0.85347259 1.3454559 4
-6.3017945 1.798678 2.0150034 17
-9.7967625 2.7962244 2.0257263 10
-10.017477 2.8611126 1.0264024 34
-2.0676699 0.59210825 1.9960833 73
-2.5281572 0.72445434 1.9984947 71
-3.1515019 0.90308046 2.0113168 67
-3.8446164 1.102423 1.93636 13
-2.9556181 0.84806532 1.1587298 7
-7.6433129 2.1945691 2.0086646 6
-9.9617901 2.8621395 1.535985 29
-9.7130661 2.7925136 0.50136244 29
-0.029902283 0.0091244243 1.9891979 71
-0.30044195 0.088119283 1.9909451 95
-0.37394008 0.10874368 1.8957136 37
-0.41434529 0.12019747 1.4255807 48
-0.78909248 0.22878578 1.9951125 95
-1.0082253 0.29213995 1.9901714 81
-1.3088101 0.37924299 2.0739524 16
-1.5445315 0.44755062 2.0012317 74
-0.11938509 0.036233701 1.9910811 108
-0.20944193 0.064742722 1.9983203 86
-0.37271985 0.10889079 1.5315139 37
-0.68008399 0.19846252 1.980762 91
-0.89434165 0.26066065 1.9891212 93
-1.1283522 0.32887116 1.9926107 34
-1.3856841 0.40387926 1.9852921 84
-1.7000885 0.49552241 1.9980052 83
-1.871253 0.54010123 1.9937341 75
-2.2769616 0.65720558 1.9926252 64
-2.922627 0.84411997 2.0790915 29
-3.389349 0.97892326 1.9324652 12
-4.4544358 1.2873884 1.9616836 10
-6.3046942 1.82333 2.0178218 9
-9.7822227 2.8290398 2.0247936 9
-9.9308901 2.8739128 1.019263 18
-2.0655904 0.59932214 1.9960833 73
-2.5256131 0.73327488 1.9984947 69
-3.1483305 0.91407579 2.0113168 67
nan nan nan 0
nan nan nan 0
-7.6402736 2.2225938 2.0098369 9
-9.9041901 2.883054 1.5290868 27
-9.6361065 2.8068411 0.498541 9
-0.02986864 0.0092339609 1.9891979 71
-0.30011699 0.089219861 1.9909451 93
-0.37451565 0.1104015 1.9006088 37
-0.41390195 0.12171533 1.4255807 48
-0.78824866 0.2316764 1.9951125 95
-1.0071478 0.29583332 1.9901714 81
-1.3047112 0.38324437 2.0698195 18
-1.5428807 0.45320863 2.0012317 71
-0.11925149 0.036671028 1.9910811 108
-0.20920323 0.065509923 1.9983203 82
-0.37231824 0.11025616 1.5315139 37
-0.67935205 0.20095381 1.980762 91
-0.89333421 0.26409277 1.9891212 93
-1.1270812 0.33320132 1.9926107 35
-1.3870134 0.41005138 1.9892817 87
-1.6981733 0.50204664 1.9980052 83
-1.8692608 0.54695606 1.9937341 75
-2.2745373 0.6655466 1.9926252 64
-2.9235265 0.85600132 2.0818331 14
-3.3389695 0.9776454 1.9069668 11
-4.4941764 1.316741 1.980414 9
-6.3071761 1.8491248 2.0206404 7
-9.7618628 2.8638146 2.0229285 9
-9.8815546 2.9008014 1.0156934 9
-2.0632739 0.60724902 1.9960833 75
-2.5227787 0.74296707 1.9984947 69
-3.1447973 0.92615777 2.0113168 67
nan nan nan 0
-3.0535035 0.90042961 1.1965115 9
-7.6316829 2.251914 2.0098369 9
-9.8270607 2.8997142 1.5194294 31
-9.6545029 2.8506289 0.4997502 5
-0.029837854 0.0093329586 1.9891979 71
-0.29981947 0.090214595 1.9909451 93
-0.37414744 0.11164283 1.9006088 37
-0.41349605 0.1230872 1.4255807 46
-0.78747606 0.23428907 1.9951125 93
-1.0061613 0.29917151 1.9901714 81
-1.3034333 0.38756886 2.0698195 20
-1.5413692 0.45832253 2.0012317 73
-0.11913569 0.037045483 1.9910811 108
-0.2089964 0.066166833 1.9983203 82
-0.37317491 0.11178631 1.5363531 37
-0.67871732 0.20308708 1.980762 93
-0.89250004 0.26689795 1.9891212 93
-1.1260287 0.33674046 1.9926107 37
-1.3857182 0.41440681 1.9892817 87
-1.693428 0.50611222 1.99433 83
-1.8674366 0.55315173 1.9937341 75
-2.2723176 0.67308569 1.9926252 66
-2.9246807 0.86687952 2.0845745 12
-3.3102238 0.98115849 1.8930587 11
-4.4855728 1.3295357 1.978541 6
-6.310534 1.8716586 2.0234587 5
-9.7386885 2.890275 2.0201306 25
-9.7721386 2.9020584 1.006323 40
-2.0577769 0.61266237 1.9927584 75
-2.520432 0.75088894 1.9984947 69
-3.1420355 0.93548441 2.0113168 65
nan nan nan 0
-2.9784079 0.88789898 1.1702285 6
-7.6249681 2.2745476 2.0098369 6
-9.7751942 2.9178243 1.513221 83
-9.6981564 2.8966727 0.50196707 6
-0.029805094 0.0094370544 1.9891979 69
-0.29950273 0.091260619 1.9909451 93
-0.37473014 0.11324281 1.905504 37
-0.41306388 0.12452982 1.4255807 46
-0.7866534 0.23703645 1.9951125 93
-1.0051109 0.30268183 1.9901714 81
-1.3020724 0.39211631 2.0698195 24
-1.5397601 0.46370009 2.0012317 78
-0.11899912 0.037481885 1.9910811 109
-0.20875248 0.066932395 1.9983203 86
-0.37276268 0.11315332 1.5363531 37
-0.67796844 0.20557334 1.980762 91
-0.891563 0.27001172 1.9891212 93
-1.1248465 0.34066904 1.9926107 38
-1.3842634 0.41924134 1.9892817 87
-1.6915618 0.51231557 1.99433 83
-1.8654945 0.55966699 1.9937341 75
-2.2736831 0.68213207 1.9957631 66
-2.9216368 0.87708336 2.0845745 12
-3.1243243 0.93793374 1.7933836 6
-3.0288153 0.90983778 1.3660593 4
-6.3082266 1.8961562 2.0248678 6
-9.7520628 2.9313216 2.0247936 23
-9.7762566 2.9404552 1.0076616 53
-2.0556262 0.61984169 1.9927584 75
-2.5177958 0.75968236 1.9984947 71
-3.1385856 0.94699425 2.0113168 67
-3.0207138 0.91200441 1.5461223 6
-2.9751337 0.89880955 1.1702285 6
-7.611927 2.3010726 2.0086646 5
-9.7739153 2.9565003 1.5146008 74
-9.67313 2.9278569 0.50136244 29
-0.029770305 0.0095462324 1.9891979 69
-0.29916623 0.092357732 1.9909451 95
-0.37431258 0.11461551 1.905504 37
-0.41260469 0.12604293 1.4255807 44
-0.7857793 0.23991808 1.9951125 91
-1.0039947 0.30636373 1.9901714 79
-1.303318 0.39770734 2.0739524 28
-1.5380502 0.46934047 2.0012317 76
-0.11886095 0.037917789 1.9910811 109
-0.20850575 0.067697071 1.9983203 84
-0.37234545 0.11451881 1.5363531 38
-0.67721039 0.20805682 1.980762 93
-0.89051962 0.27343309 1.9891212 92
-1.12353 0.3449856 1.9926107 40
-1.3826433 0.42455342 1.9892817 87
-1.6895821 0.51880687 1.99433 83
-1.8634306 0.5665006 1.9937341 73
-2.2711678 0.69046092 1.9957631 64
-2.9184027 0.88778579 2.0845745 12
-3.1081502 0.94551051 1.7864294 6
-3.0254605 0.92093277 1.3660593 6
-6.3058233 1.920662 2.0262771 5
-9.7454329 2.9701774 2.0257263 19
-9.7648935 2.9779716 1.0076616 56
-2.053231 0.62773013 1.9927584 75
-2.5148604 0.76934433 1.9984947 71
-3.1308041 0.95777738 2.0087843 67
-3.0302091 0.92758167 1.5524164 6
-2.9942377 0.91714197 1.1784419 7
-7.5844464 2.3245857 2.0039752 8
-9.772481 2.9952054 1.5159802 75
-9.7005434 2.9750097 0.50297469 7
-0.0297368 0.0096500926 1.9891979 69
-0.29884201 0.093401454 1.9909451 92
-0.37391022 0.1159214 1.905504 37
-0.41216218 0.12748244 1.4255807 44
-0.78493714 0.24265951 1.9951125 93
-1.0029192 0.30986643 1.9901714 81
-1.3019218 0.40225434 2.0739524 31
-1.5333394 0.47375998 1.9973947 76
-0.11872786 0.038332459 1.9910811 110
-0.2082682 0.068424471 1.9983203 82
-0.37314436 0.11619188 1.5411923 38
-0.67648 0.21041946 1.980762 93
-0.88960803 0.27638465 1.9891212 92
-1.1198894 0.34793565 1.9883448 50
-1.3812279 0.42913607 1.9892817 87
-1.6878524 0.52440685 1.99433 83
-1.8614419 0.57300168 1.9937341 71
-2.2687438 0.69838458 1.9957631 64
-2.9152858 0.89796746 2.0845745 12
-3.3249941 1.0241693 1.9069668 12
nan nan nan 0
-6.3036647 1.9440756 2.0276861 5
-9.7636948 3.0111644 2.0313222 10
-9.7692413 3.0147421 1.0090003 48
-2.0511379 0.63453543 1.9927584 75
-2.512295 0.77767962 1.9984947 69
-3.1276107 0.96815425 2.0087843 67
-3.0401223 0.94165355 1.5587107 5
-2.9911799 0.92706615 1.1784419 7
-7.5906239 2.3540432 2.0074921 7
-9.7714262 3.0322354 1.51736 60
-9.6901007 3.0088527 0.50297469 4
-0.029702935 0.0097538345 1.9891979 71
-0.29851416 0.094444036 1.9909451 92
-0.3735033 0.11722589 1.905504 37
-0.41171467 0.12892038 1.4255807 44
-0.78408527 0.24539796 1.9951125 95
-1.0018314 0.3133654 1.9901714 83
-1.3031954 0.40763655 2.0780854 35
-1.5316764 0.4791095 1.9973947 78
-0.11859333 0.038746662 1.9910811 111
-0.20802808 0.069151051 1.9983203 82
-0.37273651 0.11749368 1.5411923 38
-0.67574143 0.21277955 1.980762 93
-0.88863784 0.27948827 1.9891212 93
-1.118668 0.35184267 1.9883448 64
-1.3797215 0.43395489 1.9892817 87
-1.6860117 0.53029537 1.99433 83
-1.8594304 0.57949585 1.9937341 75
-2.2662921 0.70629978 1.9957631 64
-2.9121335 0.90813828 2.0845745 12
-3.2960229 1.0278561 1.8930587 13
-3.0012555 0.93650818 1.3585672 5
-6.3105788 1.9703572 2.031914 4
-9.8187704 3.0657241 2.0443788 5
-9.787179 3.0577354 1.0116775 39
-2.0489106 0.64169139 1.9927584 75
-2.5095651 0.78644443 1.9984947 69
-3.1200979 0.97777641 2.0062518 59
-3.0411475 0.95361781 1.5608087 4
-2.9969375 0.94032937 1.1817273 6
-7.605547 2.3878047 2.0133536 6
-9.7844057 3.0737467 1.5208091 46
nan nan nan 0
-0.029668707 0.0098574571 1.9891979 69
-0.29818267 0.095485471 1.9909451 95
-0.37406218 0.11883732 1.9103992 37
-0.40983844 0.12990539 1.420809 46
-0.78322393 0.24813342 1.9951125 95
-1.0007315 0.31686053 1.9901714 83
-1.3017645 0.41218305 2.0780854 37
-1.5299946 0.48445311 1.9973947 78
-0.11845735 0.039160397 1.9910811 111
-0.20778541 0.069876775 1.9983203 84
-0.37232411 0.11879405 1.5411923 37
-0.67499453 0.21513702 1.980762 93
-0.88765681 0.28258848 1.9891212 93
-1.1174331 0.35574543 1.9883448 71
-1.3781983 0.43876836 1.9892817 87
-1.6841503 0.5361774 1.99433 85
-1.8573962 0.58598298 1.9937341 75
-2.2638128 0.71420628 1.9957631 64
-2.908946 0.91829795 2.0845745 12
-3.305089 1.0433561 1.9000129 13
-3.0200713 0.9539606 1.3679323 6
-6.3082361 1.9938189 2.033323 4
-9.8173771 3.1029406 2.0462441 4
-9.771697 3.0903785 1.0112313 34
-2.0502176 0.64996797 1.9960833 77
-2.5068049 0.79519969 1.9984947 69
-3.1166658 0.98866165 2.0062518 48
-2.9166768 0.92578179 1.5020633 5
-2.9936368 0.9507848 1.1817273 6
-7.6388569 2.4275877 2.0239046 4
-9.7972136 3.1153853 1.5242581 22
-9.2689543 2.9491873 0.48604608 9
-0.029634116 0.0099609606 1.9891979 71
-0.29784754 0.096525744 1.9909451 95
-0.3736451 0.12014231 1.9103992 37
-0.40938249 0.1313352 1.420809 46
-0.78235298 0.25086588 1.9951125 95
-0.99961931 0.32035181 1.9901714 81
-1.3029977 0.41758344 2.0822184 38
-1.5282943 0.48979083 1.9973947 76
-0.11831994 0.039573651 1.9910811 111
-0.20754023 0.070601657 1.9983203 82
-0.3731041 0.12047958 1.5460315 38
-0.67423946 0.21749188 1.980762 93
-0.88666499 0.28568527 1.9891212 90
-1.1161845 0.35964382 1.9883448 79
-1.3737897 0.44265211 1.9852921 84
-1.685495 0.54309267 1.9980052 83
-1.8553394 0.5924629 1.9937341 75
-2.261306 0.72210407 1.9957631 64
-2.9017398 0.92717385 2.0818331 11
-3.4238074 1.0939903 1.9672356 30
-3.0123074 0.96308506 1.3660593 7
-6.3195148 2.0216734 2.0389597 5
-9.7877712 3.1312034 2.0425136 4
-9.76085 3.1244693 1.0112313 32
-2.0479362 0.65712059 1.9960833 75
-2.5040138 0.8039453 1.9984947 69
-3.109091 0.99821693 2.0037196 48
-2.9307117 0.9415099 1.5104554 4
-2.9768119 0.95689309 1.1767992 7
-7.6673536 2.4661436 2.033283 2
-9.8004208 3.1541162 1.5263276 17
-9.2633591 2.9830556 0.4862476 8
-0.029599166 0.010064343 1.9891979 71
-0.29750878 0.097564846 1.9909451 93
-0.37419164 0.12176101 1.9152945 37
-0.40750104 0.13230212 1.4160373 42
-0.78147256 0.25359526 1.9951125 95
-0.99849498 0.32383919 1.9901714 81
-1.301532 0.42212921 2.0822184 40
-1.5265752 0.49512261 1.9973947 76
-0.11818108 0.039986424 1.9910811 111
-0.20729253 0.071325682 1.9983203 82
-0.37268126 0.12178124 1.5460315 38
-0.67347622 0.21984409 1.980762 93
-0.88566238 0.2887786 1.9891212 92
-1.1149223 0.36353785 1.9883448 79
-1.3722361 0.44744486 1.9852921 84
-1.6835891 0.54897285 1.9980052 85
-1.85326 0.5989356 1.9937341 75
-2.2587717 0.7299931 1.9957631 64
-2.8945069 0.93601054 2.0790915 11
-3.4031067 1.1004826 1.9579635 21
-2.8942471 0.9364872 1.3173604 7
-6.3124194 2.0437202 2.0389597 3
-2.7666571 0.8957364 0.64358324 7
-9.8162117 3.1800089 1.0174782 19
-2.04563 0.66426522 1.9960833 75
-2.5011923 0.81268096 1.9984947 56
-3.109688 1.0103959 2.0062518 52
-2.9230909 0.95033091 1.5083573 4
-3.0048892 0.97750449 1.188298 8
-2.9212091 0.95084667 0.83165771 8
-9.8034773 3.1929076 1.528397 23
-2.6787946 0.87297541 0.20732884 6
-0.029563855 0.010167601 1.9891979 71
-0.29716641 0.098602742 1.9909451 93
-0.37376437 0.12306644 1.9152945 37
-0.40703672 0.13372377 1.4160373 40
-0.78058255 0.25632158 1.9951125 95
-0.99735856 0.32732263 1.9901714 83
-1.3000507 0.42666984 2.0822184 44
-1.5248377 0.50044835 1.9973947 76
-0.11804079 0.040398709 1.9910811 111
-0.20704229 0.072048835 1.9983203 82
-0.3734481 0.12347633 1.5508708 38
-0.6727047 0.22219361 1.980762 91
-0.88464898 0.29186839 1.9891212 92
-1.1136465 0.36742744 1.9883448 85
-1.3706659 0.45223212 1.9852921 87
-1.6816626 0.55484635 1.9980052 85
-1.851158 0.6054011 1.9937341 75
-2.2562096 0.73787326 1.9957631 66
-2.8713522 0.93960631 2.0653841 12
-3.3150346 1.0847982 1.9116029 14
-2.886555 0.94514179 1.3154874 6
nan nan nan 0
-2.6328063 0.86256564 0.61746985 8
-9.5826349 3.1413426 0.99650633 5
-2.0397513 0.67023611 1.9927584 75
-2.4983401 0.82140684 1.9984947 39
-3.1102378 1.0225911 2.0087843 65
-2.9068222 0.95627385 1.5020633 6
-2.7054038 0.89053506 1.0798808 8
-2.6316392 0.86676311 0.75897402 9
-9.8722296 3.253459 1.5401238 13
-2.6757309 0.88232082 0.20732884 6
-0.029528184 0.010270736 1.9891979 71
-0.2968204 0.099639446 1.9909451 95
-0.37429848 0.12469228 1.9201897 37
-0.4051502 0.1346726 1.4112656 42
-0.77968305 0.25904477 1.9951125 95
-0.99620992 0.33080205 1.9901714 83
-1.301224 0.43209207 2.0863512 50
-1.5230815 0.50576794 1.9973947 76
-0.11789905 0.040810499 1.9910811 111
-0.20678952 0.07277111 1.9983203 84
-0.37301481 0.12477915 1.5508708 38
-0.67192495 0.22454044 1.980762 91
-0.88362473 0.2949546 1.9891212 92
-1.1123571 0.37131253 1.9883448 87
-1.3690789 0.45701391 1.9852921 84
-1.6797155 0.56071305 1.9980052 83
-1.8490336 0.61185914 1.9937341 75
-2.2536204 0.74574441 1.9957631 64
-2.848207 0.94305182 2.0516768 13
-3.3070221 1.0949708 1.9092849 14
-2.8260288 0.93625849 1.2911379 6
-2.6641977 0.88316005 0.91442174 5
-2.7556732 0.91348356 0.6426506 6
-9.590519 3.1810446 0.99829119 3
-2.0373993 0.67735207 1.9927584 75
-2.4954576 0.83012271 1.9984947 28
-3.0452867 1.0130291 1.9707979 39
nan nan nan 0
-2.6619539 0.88654345 1.0650967 8
-2.9006655 0.96660715 0.82814074 7
-9.8843021 3.2957323 1.543573 11
-2.6868525 0.89639884 0.20793343 8
-0.029451195 0.010358693 1.984198 71
-0.29647079 0.10067493 1.9909451 95
-0.37386099 0.12599806 1.9201897 37
-0.4046776 0.136086 1.4112656 40
-0.77877408 0.26176479 1.9951125 95
-0.99504906 0.33427748 1.9901714 81
-1.2997077 0.43663153 2.0863512 54
-1.5213068 0.51108146 1.9973947 78
-0.11775587 0.041221801 1.9910811 112
-0.20653425 0.07349249 1.9983203 84
-0.37257695 0.12608045 1.5508708 38
-0.67113703 0.22688453 1.980762 93
-0.88258976 0.29803723 1.9891212 93
-1.1110542 0.37519315 1.9883448 87
-1.3674753 0.46179008 1.9852921 84
-1.6777481 0.56657296 1.9980052 85
-1.8468866 0.61830974 1.9937341 75
-2.2510035 0.7536065 1.9957631 64
-2.8250732 0.9463473 2.0379696 14
-3.2821755 1.0994717 1.8976947 24
-2.6864805 0.90044528 1.2330739 7
-2.6565504 0.8909291 0.91301256 5
-9.7710419 3.2769279 2.0481093 2
-9.8343077 3.3000555 1.0223866 8
-2.0350223 0.68445975 1.9927584 75
-2.4925449 0.83882838 1.9984947 28
-2.9436667 0.99065024 1.9100198 12
nan nan nan 0
-2.6140907 0.88075167 1.0486698 8
-2.8972735 0.97672647 0.82814074 7
-9.8915071 3.3365462 1.5463322 5
-9.2728758 3.1296754 0.48846447 25
-0.029414857 0.010461435 1.984198 71
-0.29611757 0.1017092 1.9909451 95
-0.37341887 0.1273023 1.9201897 37
-0.40420014 0.13749775 1.4112656 42
-0.77785563 0.2644816 1.9951125 93
-0.99387622 0.33774883 1.9901714 81
-1.2981757 0.44116572 2.0863512 54
-1.5195135 0.51638865 1.9973947 80
-0.11788406 0.041729677 1.9960728 112
-0.20627645 0.074212983 1.9983203 86
-0.3721346 0.12738024 1.5508708 38
-0.67034107 0.22922586 1.980762 93
-0.88154405 0.3011162 1.9891212 92
-1.1097379 0.37906915 1.9883448 87
-1.3658551 0.46656063 1.9852921 87
-1.6757601 0.57242584 1.9980052 83
-1.844717 0.62475282 1.9937341 75
-2.2483592 0.76145935 1.9957631 64
-2.8019516 0.94949287 2.0242622 14
-3.2195761 1.0910162 1.8652424 13
-2.6525881 0.89939684 1.2199627 8
-2.6806822 0.90944421 0.92146772 5
-9.8014107 3.3252192 2.0565028 3
-9.8132973 3.3311617 1.021494 8
-2.0326209 0.69155914 1.9927584 75
-2.4857755 0.84622127 1.9955517 37
-2.9401906 1.0009196 1.9100198 12
-3.8160214 1.2998198 1.9510463 14
-2.6735799 0.91119945 1.0716674 7
-2.7006261 0.92094344 0.77890337 8
-2.7932549 0.95307511 0.50333077 8
-9.2666235 3.1636388 0.488666 27
-0.029378161 0.010564048 1.984198 71
-0.29576075 0.10274222 1.9909451 93
-0.37393478 0.12893701 1.9250849 37
-0.40371773 0.13890785 1.4112656 42
-0.77692765 0.26719522 1.9951125 93
-0.99269122 0.34121603 1.9901714 81
-1.2966279 0.44569451 2.0863512 52
-1.5177017 0.52168959 1.9973947 76
-0.11773768 0.042140916 1.9960728 111
-0.20601614 0.074932568 1.9983203 82
-0.37287623 0.12909001 1.55571 38
-0.66953683 0.23156439 1.980762 95
-0.88048756 0.30419153 1.9891212 92
-1.1084079 0.38294056 1.9883448 87
-1.3642181 0.47132555 1.9852921 87
-1.6737517 0.57827187 1.9980052 85
-1.8425249 0.63118827 1.9937341 75
-2.2456875 0.76930296 1.9957631 66
-2.7907093 0.95655608 2.0187793 16
-3.2283206 1.1065574 1.8721964 13
-4.5920706 1.5749009 2.0497162 2
-2.6774914 0.91879606 0.92146772 5
-2.7645419 0.94866806 0.64638114 6
-9.8392887 3.3783338 1.0250638 8
-2.0337255 0.69986522 1.9960833 75
-2.4828064 0.85489315 1.9955517 52
-3.0059769 1.0350379 1.9530709 17
-3.8200426 1.316089 1.9552425 12
-2.6168075 0.90205795 1.0519552 7
-2.6973951 0.93036473 0.77890337 8
-2.677561 0.92404658 0.48677519 8
nan nan nan 0
-0.029341105 0.010666532 1.984198 71
-0.29540029 0.103774 1.9909451 93
-0.37348244 0.1302415 1.9250849 37
-0.40323037 0.14031623 1.4112656 42
-0.77599025 0.26990557 1.9951125 93
-0.99149406 0.34467909 1.9901714 81
-1.2977222 0.45114192 2.0904844 48
-1.5158715 0.52698421 1.9973947 76
-0.11758987 0.04255164 1.9960728 112
-0.20575331 0.075651243 1.9983203 82
-0.37242338 0.13039081 1.55571 37
-0.66872442 0.23390009 1.980762 93
-0.8794204 0.3072632 1.9891212 92
-1.1070644 0.38680729 1.9883448 87
-1.3625646 0.47608468 1.9852921 84
-1.671723 0.58411086 1.9980052 83
-1.8403105 0.63761604 1.9937341 75
-2.2429883 0.77713716 1.9957631 66
-2.7755008 0.96218282 2.0105548 18
-3.2872255 1.1395862 1.9069668 15
nan nan nan 0
nan nan nan 0
-2.6823213 0.93093175 0.6305266 7
-9.9356413 3.4502337 1.0353266 3
-2.03127 0.70695996 1.9960833 73
-2.4798071 0.86355454 1.9955517 69
-3.0674887 1.0682096 1.9935898 39
-3.8111398 1.3279221 1.9531444 13
-2.5735095 0.89719528 1.037171 4
-7.5267916 2.6255224 2.0133536 5
-9.8560257 3.439945 1.5463322 17
-2.6363418 0.92064881 0.20632118 6
-0.029303696 0.010768887 1.984198 71
-0.29503626 0.1048045 1.9909451 95
-0.37398577 0.13188311 1.9299802 37
-0.40273812 0.14172292 1.4112656 40
-0.77504337 0.27261263 1.9951125 93
-0.9902848 0.34813794 1.9901714 81
-1.2961395 0.45566908 2.0904844 52
-1.5140226 0.53227234 1.9973947 76
-0.11744061 0.042961847 1.9960728 112
-0.205488 0.076368995 1.9983203 80
-0.37196594 0.13169001 1.55571 38
-0.6679039 0.23623297 1.980762 93
-0.87834251 0.31033105 1.9891212 93
-1.1057074 0.39066932 1.9883448 85
-1.3608944 0.48083803 1.9852921 84
-1.6696739 0.58994269 1.9980052 83
-1.8380735 0.644036 1.9937341 73
-2.2402623 0.78496194 1.9957631 66
-2.7602875 0.96771502 2.0023305 26
-3.216336 1.1276025 1.8698784 15
-4.5722151 1.6038519 2.0459704 3
nan nan nan 0
-9.7289715 3.4146605 2.0490417 3
-2.6545894 0.93222237 0.34503993 8
-2.02879 0.71404612 1.9960833 75
-2.4767776 0.87220544 1.9955517 69
-3.0230763 1.0645902 1.9682654 29
-3.7936394 1.3366925 1.9468503 13
-2.5614543 0.90303266 1.0338857 4
-7.5267491 2.655014 2.0156984 5
-9.8299484 3.4693832 1.5442629 14
-2.6755099 0.94481796 0.20813498 7
-0.029306613 0.010886876 1.9891979 73
-0.29466864 0.10583372 1.9909451 95
-0.37352312 0.13318776 1.9299802 37
-0.40224099 0.14312787 1.4112656 40
-0.77408701 0.27531642 1.9951125 95
-0.98906362 0.35159257 1.9901714 81
-1.294541 0.46019068 2.0904844 50
-1.5121554 0.53755409 1.9973947 73
-0.11728993 0.043371528 1.9960728 112
-0.20522016 0.077085823 1.9983203 82
-0.3726882 0.13341163 1.5605491 38
-0.66869998 0.23914406 1.9854547 91
-0.87725389 0.31339511 1.9891212 93
-1.104337 0.39452654 1.9883448 85
-1.3592077 0.48558548 1.9852921 84
-1.664412 0.59462678 1.99433 83
-1.8358142 0.6504482 1.9937341 73
-2.2375083 0.79277706 1.9957631 66
-2.7450693 0.97315282 1.9941061 33
-3.4169838 1.2113569 1.9834617 38
-4.5796967 1.6244516 2.0515895 2
-2.6677232 0.94678378 0.92146772 6
-9.7169933 3.4486003 2.0490417 3
-2.6184683 0.92981768 0.34191647 7
-2.0262852 0.72112358 1.9960833 75
-2.4737182 0.88084561 1.9955517 69
-2.9990349 1.0679052 1.9556034 22
-3.7761245 1.3453572 1.9405563 14
-2.6428039 0.94209677 1.0650967 8
-7.5357485 2.6878026 2.0203876 5
-9.8784113 3.5253131 1.5532304 10
-2.6674902 0.95247138 0.20793343 7
-0.029268432 0.010989109 1.9891979 71
-0.2942974 0.10686167 1.9909451 95
-0.37401375 0.13483621 1.9348755 36
-0.40173891 0.14453109 1.4112656 40
-0.7731213 0.27801681 1.9951125 95
-0.98783034 0.35504287 1.9901714 83
-1.2929268 0.46470666 2.0904844 42
-1.5102699 0.54282916 1.9973947 74
-0.11713782 0.043780684 1.9960728 112
-0.20544876 0.077991828 2.0032918 86
-0.37222025 0.13471174 1.5605491 37
-0.66786116 0.2414768 1.9854547 91
-0.87615454 0.31645539 1.9891212 93
-1.1029531 0.39837903 1.9883448 83
-1.3575045 0.49032706 1.9852921 84
-1.6623261 0.60043305 1.99433 83
-1.8335327 0.65685242 1.9937341 73
-2.2347276 0.80058265 1.9957631 64
-2.7337835 0.97990721 1.988623 38
-3.4335866 1.2307514 1.9950519 37
-4.5565434 1.6341677 2.0440972 2
-2.5966709 0.93178558 0.90032977 7
-9.6956482 3.4791796 2.0471766 4
-2.6902003 0.96587765 0.34905583 6
-2.0237556 0.72819221 1.9960833 73
-2.470628 0.88947523 1.9955517 69
-2.9587812 1.0652239 1.9328115 23
-3.8824236 1.3985209 1.9951055 33
-2.6306138 0.94811368 1.0618113 7
-7.52632 2.7140908 2.0203876 5
-9.8380966 3.5496893 1.5490916 14
-2.6970432 0.97365183 0.20934415 8
-0.029229894 0.011091207 1.9891979 69
-0.2939226 0.10788831 1.9909451 93
-0.37449741 0.13648969 1.9397707 37
-0.40123197 0.14593254 1.4112656 39
-0.77214611 0.2807138 1.9951125 95
-0.98658502 0.35848889 1.9901714 83
-1.2912968 0.46921697 2.0904844 39
-1.5083659 0.54809773 1.9973947 76
-0.11698429 0.0441893 1.9960728 112
-0.20517528 0.078708492 2.0032918 86
-0.37292898 0.13644247 1.5653883 37
-0.66701424 0.24380659 1.9854547 91
-0.87504464 0.31951183 1.9891212 90
-1.0991058 0.40133199 1.9840788 87
-1.3557847 0.49506265 1.9852921 84
-1.6602201 0.60623199 1.99433 83
-1.8312286 0.6632486 1.9937341 75
-2.2319193 0.8083784 1.9957631 64
-2.7028272 0.97947133 1.9694327 32
-3.433435 1.2442389 1.9973699 22
-4.5246611 1.6405814 2.0328591 7
-6.3590112 2.3069491 2.077008 2
-9.6511202 3.501276 2.0406482 2
-2.6212757 0.95147365 0.34280887 5
-2.0212014 0.73525202 1.9960833 75
-2.4675083 0.89809388 1.9955517 71
-2.9631479 1.0784945 1.9378763 27
-3.8860478 1.4151707 1.9993017 37
nan nan nan 0
-7.5578995 2.7553294 2.0309386 4
-9.8396025 3.5891001 1.5511609 25
-2.5481403 0.92996335 0.20309669 6
-0.029191002 0.011193171 1.9891979 69
-0.2935442 0.10891363 1.9909451 95
-0.3740187 0.13779607 1.9397707 37
-0.40072012 0.14733221 1.4112656 39
-0.77116156 0.28340736 1.9951125 95
-0.9853276 0.36193052 1.9901714 81
-1.289651 0.47372156 2.0904844 38
-1.5064435 0.55335951 1.9973947 78
-0.11682932 0.044597384 1.9960728 112
-0.20489928 0.079424217 2.0032918 86
-0.37245041 0.1377434 1.5653883 37
-0.66454047 0.24553531 1.980762 93
-0.87392396 0.32256436 1.9891212 90
-1.0976982 0.40516615 1.9840788 85
-1.3540481 0.49979219 1.9852921 84
-1.6580939 0.61202353 1.99433 83
-1.8289022 0.66963679 1.9937341 67
-2.2290838 0.81616437 1.9957631 58
-2.6993918 0.98890001 1.9694327 32
-2.6178997 0.95904857 1.5453546 2
-4.5624347 1.6723202 2.0515895 6
-6.3058801 2.312614 2.062916 3
-9.6849594 3.5518568 2.0499744 2
-9.7991085 3.5956607 1.0281873 7
-2.0186224 0.74230283 1.9960833 73
-2.4643586 0.90670156 1.9955517 71
-2.9957798 1.1022292 1.9606682 39
-3.8810842 1.4287269 1.9993017 28
nan nan nan 0
-7.5619178 2.7867367 2.0344553 4
-9.827014 3.6234248 1.5511609 15
-2.5448785 0.93885237 0.20309669 6
-0.029151753 0.011294998 1.9891979 71
-0.29316223 0.10993763 1.9909451 93
-0.37448961 0.13945624 1.9446659 37
-0.40020338 0.14873008 1.4112656 38
-0.77016753 0.2860975 1.9951125 95
-0.9840582 0.36536777 1.9901714 81
-1.2879896 0.47822043 2.0904844 37
-1.5045028 0.55861461 1.9973947 78
-0.11667294 0.045004923 1.9960728 112
-0.20412388 0.079943627 1.9983203 86
-0.37196732 0.13904265 1.5653883 38
-0.6636793 0.2478535 1.980762 93
-0.87279272 0.32561296 1.9891212 93
-1.0962772 0.40899536 1.9840788 85
-1.3522953 0.50451565 1.9852921 84
-1.6591237 0.61899269 1.9980052 83
-1.8265536 0.67601681 1.9937341 67
-2.2262213 0.82394034 1.9957631 42
-2.7233722 1.0084811 1.988623 40
-2.5979178 0.96202707 1.5360825 2
-4.5956936 1.7027316 2.0684466 5
-6.2707801 2.3246071 2.054461 3
-9.6126251 3.5634458 2.0378504 5
-9.8051739 3.6367712 1.0299721 25
-2.0160191 0.74934459 1.9960833 73
-2.4611783 0.91529834 1.9955517 69
-3.0282815 1.1262048 1.9834601 37
-3.8590589 1.4359348 1.9909095 18
nan nan nan 0
-7.5065956 2.7961493 2.0227323 6
-9.8235865 3.6611643 1.5525405 14
-2.6539316 0.98962253 0.20793343 5
-0.029112147 0.011396688 1.9891979 71
-0.2927767 0.11096028 1.9909451 93
-0.37400055 0.1407626 1.9446659 37
-0.40107992 0.1506514 1.4160373 39
-0.7691642 0.28878415 1.9951125 95
-0.98277682 0.36880055 1.9901714 83
-1.2863123 0.48271346 2.0904844 35
-1.5025436 0.56386292 1.9973947 78
-0.11651513 0.045411915 1.9960728 112
-0.20384358 0.080655664 1.9983203 86
-0.37147969 0.14034022 1.5653883 38
-0.66281015 0.25016868 1.980762 93
-0.87165076 0.3286576 1.9891212 93
-1.0948429 0.41281959 1.9840788 85
-1.350526 0.509233 1.9852921 84
-1.6569529 0.6247803 1.9980052 83
-1.8241826 0.68238848 1.9937341 75
-2.2269773 0.83307022 1.9989008 30
-2.7433319 1.0267757 2.0050719 63
-2.5157108 0.94158381 1.49204 3
-4.5680141 1.710634 2.0590816 5
-6.3120427 2.3649969 2.069962 3
-9.5863285 3.5918076 2.0350525 5
-9.7924204 3.6709752 1.0299721 23
-2.013391 0.75637728 1.9960833 73
-2.4579682 0.9238838 1.9955517 69
-3.0202963 1.1352518 1.9809276 37
-3.8582711 1.4509943 1.9930075 17
-5.162993 1.9426954 2.0079978 5
-7.4740448 2.8137724 2.0168707 9
-9.8153811 3.6971784 1.5532304 35
-9.7049732 3.6575251 0.5120436 5
-0.029072188 0.011498239 1.9891979 71
-0.2923876 0.1119816 1.9909451 95
-0.37445855 0.14242931 1.9495611 36
-0.40055162 0.15205051 1.4160373 38
-0.76815146 0.29146728 1.9951125 95
-0.98148346 0.37222883 1.9901714 81
-1.2846197 0.48720053 2.0904844 34
-1.5005661 0.56910431 1.9973947 76
-0.1163559 0.045818351 1.9960728 112
-0.2035608 0.081366725 1.9983203 84
-0.37216264 0.14208478 1.5702275 38
-0.66193283 0.25248078 1.980762 93
-0.87049824 0.33169821 1.9891212 93
-1.0933952 0.41663879 1.9840788 89
-1.3487403 0.51394409 1.9852921 84
-1.6547619 0.63056034 1.9980052 83
-1.8217897 0.68875194 1.9937341 75
-2.2240562 0.84083867 1.9989008 19
-2.7397311 1.0363455 2.0050719 63
-2.5041213 0.94722462 1.487404 4
-4.5793581 1.7331327 2.0665736 6
-6.2723441 2.3751235 2.0600977 3
-9.5461693 3.6148109 2.0294569 6
-9.8121462 3.7174857 1.0330956 14
-2.0107386 0.76340073 1.9960833 73
-2.4547284 0.9324581 1.9955517 69
-3.012285 1.1442567 1.9783952 38
-3.8531828 1.4644532 1.9930075 23
-5.1473522 1.9573489 2.0047126 5
-7.4232907 2.8242886 2.0063198 15
-9.8116732 3.7349415 1.55461 58
-9.7061539 3.6967142 0.51264822 7
-0.028991584 0.011582896 1.984198 71
-0.2919949 0.11300154 1.9909451 95
-0.37395909 0.14373556 1.9495611 36
-0.40141284 0.15398276 1.420809 38
-0.76712942 0.29414687 1.9951125 95
-0.98017824 0.37565258 1.9901714 81
-1.2829111 0.49168175 2.0904844 31
-1.4985704 0.57433885 1.9973947 78
-0.11619526 0.046224233 1.9960728 112
-0.20327555 0.082076788 1.9983203 82
-0.37166435 0.143383 1.5702275 38
-0.66265762 0.25541049 1.9854547 93
-0.86933511 0.3347348 1.9891212 92
-1.0943682 0.42139012 1.9883448 87
-1.3469381 0.51864892 1.9852921 87
-1.6525507 0.63633275 1.9980052 85
-1.8193744 0.69510692 1.9937341 75
-2.2211075 0.84859699 1.9989008 19
-2.7282853 1.0429164 1.999589 48
-2.4345889 0.93065 1.4503156 6
-4.5559607 1.7424828 2.0590816 8
-6.2416134 2.3884311 2.0530517 5
-9.5197287 3.6428444 2.026659 6
-9.7991085 3.7517138 1.0330956 15
-2.0080616 0.77041483 1.9960833 73
-2.4514585 0.94102103 1.9955517 69
-3.0082724 1.1547645 1.9783952 36
-3.8480475 1.4778945 1.9930075 31
-5.1404881 1.9753046 2.0047126 18
-7.4360709 2.8589051 2.0121813 14
-9.8124409 3.7745013 1.5566794 69
-2.610785 1.0047984 0.20652272 8
-0.028950978 0.011684025 1.984198 71
-0.29159871 0.11402009 1.9909451 93
-0.37440419 0.14540875 1.9544563 37
-0.40087292 0.15538301 1.420809 39
-0.76609796 0.29682282 1.9951125 95
-0.97886097 0.37907177 1.9901714 81
-1.2811869 0.49615696 2.0904844 29
-1.4965566 0.5795663 1.9973947 76
-0.1160332 0.046629548 1.9960728 112
-0.20298779 0.082785852 1.9983203 82
-0.3723335 0.14513639 1.5750667 38
-0.66176206 0.25772202 1.9854547 93
-0.86816138 0.3377673 1.9891212 95
-1.0928906 0.42520764 1.9883448 85
-1.3451194 0.52334744 1.9852921 87
-1.6503193 0.64209729 1.9980052 85
-1.8169369 0.70145351 1.9937341 75
-2.2181318 0.85634488 1.9989008 36
-2.6622195 1.0283271 1.9557256 39
-2.4023972 0.92796862 1.4340894 6
-4.5282292 1.7500196 2.0497162 9
-6.2019167 2.398093 2.0431874 7
-9.5069542 3.6760523 2.026659 8
-9.8045321 3.7930839 1.0348804 53
-2.0053601 0.77741957 1.9960833 77
-2.4481587 0.9495725 1.9955517 69
-3.0082426 1.1668174 1.9809276 36
-3.8470957 1.4929595 1.9951055 37
-5.1335626 1.9932362 2.0047126 26
-7.4169855 2.8813243 2.0098369 14
-9.8084373 3.8123186 1.5580591 91
-2.7841995 1.082713 0.21418089 10
-0.028910015 0.011785012 1.984198 71
-0.29119891 0.11503727 1.9909451 93
-0.37389433 0.14671478 1.9544563 37
-0.40032807 0.15678138 1.420809 39
-0.76505721 0.29949522 1.9951125 95
-0.97753179 0.38248628 1.9901714 81
-1.2794473 0.50062609 2.0904844 27
-1.4945244 0.58478671 1.9973947 78
-0.11586972 0.047034293 1.9960728 112
-0.20269758 0.083493903 1.9983203 82
-0.37182462 0.14643519 1.5750667 38
-0.66085833 0.26003045 1.9854547 93
-0.86697704 0.34079573 1.9891212 93
-1.0913997 0.42901996 1.9883448 87
-1.3432844 0.52803963 1.9852921 84
-1.6480682 0.64785415 1.9980052 85
-1.8144773 0.70779151 1.9937341 75
-2.2115026 0.86266774 1.9957631 54
-2.6001847 1.0148096 1.9146035 26
-2.4197783 0.9444024 1.4456795 5
-4.5048194 1.7590704 2.0422242 9
-6.1622291 2.4075069 2.033323 8
-9.4894896 3.707428 2.0257263 10
-9.8005085 3.8309109 1.0357729 78
-2.002634 0.78441489 1.9960833 75
-2.4448292 0.95811236 1.9955517 71
-3.0081654 1.1788841 1.9834601 48
-3.8460863 1.508036 1.9972036 37
-5.1265731 2.0111434 2.0047126 20
-7.4068823 2.907197 2.0098369 20
-9.8088999 3.8519638 1.5601286 91
-3.5011384 1.3756038 0.24541819 33
-0.028868701 0.011885854 1.984198 71
-0.29079556 0.11605305 1.9909451 93
-0.37432644 0.14839433 1.9593515 37
-0.39977837 0.15817782 1.420809 40
-0.76400709 0.30216393 1.9951125 95
-0.97619069 0.38589621 1.9901714 81
-1.2776921 0.50508916 2.0904844 26
-1.492474 0.59000003 1.9973947 78
-0.11570484 0.047438469 1.9960728 113
-0.20240492 0.084200941 1.9983203 82
-0.37247986 0.14819728 1.579906 38
-0.65834314 0.26169822 1.980762 93
-0.86578214 0.34381995 1.9891212 93
-1.0898955 0.43282703 1.9883448 87
-1.3414329 0.53272533 1.9852921 87
-1.6457965 0.65360302 1.9980052 83
-1.8119956 0.71412098 1.9937341 75
-2.2084777 0.87038213 1.9957631 69
-2.5732868 1.0146766 1.8981547 27
-2.4164672 0.95284325 1.4456795 5
-4.4770894 1.7662778 2.0328591 10
-6.1404009 2.4237182 2.0290954 9
-9.471921 3.7387259 2.0247936 8
-9.800972 3.8705852 1.0371114 67
-1.9998839 0.79140067 1.9960833 75
-2.4414697 0.96664059 1.9955517 69
-3.0080402 1.1909643 1.9859924 43
-3.8450189 1.5231239 1.9993017 38
-5.1195221 2.0290263 2.0047126 21
-7.3921704 2.9312422 2.0086646 24
-9.8092022 3.8916581 1.5621979 98
-3.4684544 1.3767576 0.24420899 19
-0.028827038 0.011986552 1.984198 71
-0.2903887 0.11706741 1.9909451 95
-0.37475136 0.15007868 1.9642467 37
-0.39922377 0.15957236 1.420809 46
-0.76294768 0.30482897 1.9951125 95
-0.97483772 0.38930139 1.9901714 83
-1.2759212 0.50954604 2.0904844 26
-1.4904054 0.59520614 1.9973947 76
-0.11553854 0.047842063 1.9960728 113
-0.20210975 0.084906951 1.9983203 86
-0.37196028 0.14949657 1.579906 38
-0.65742558 0.26399463 1.980762 93
-0.86457676 0.34683999 1.9891212 92
-1.0883781 0.43662885 1.9883448 87
-1.3395654 0.5374046 1.9852921 84
-1.6435052 0.65934396 1.9980052 83
-1.8094918 0.72044164 1.9937341 75
-2.2018094 0.8766458 1.9926252 69
-2.616344 1.0422219 1.9310523 28
-2.3678539 0.94323808 1.4201813 5
-4.4493647 1.7733133 2.023494 10
-6.114079 2.4380298 2.0234587 9
-9.4542494 3.7699468 2.0238609 9
-9.8059044 3.9121554 1.0388963 68
-2.000577 0.79976296 1.9994081 73
-2.438081 0.97515696 1.9955517 69
-3.0078681 1.2030582 1.9885249 41
-3.8438923 1.5382224 2.0013998 46
-5.1167917 2.0486395 2.006355 27
-7.3818936 2.9570279 2.0086646 23
-9.8093491 3.9314017 1.5642674 87
-3.4682643 1.3907157 0.24441054 8
-0.028825011 0.01210456 1.9891979 71
-0.2899783 0.11808033 1.9909451 95
-0.3742252 0.1513859 1.9642467 38
-0.40004921 0.16152418 1.4255807 52
-0.76187897 0.30749029 1.9951125 95
-0.97347283 0.39270186 1.9901714 83
-1.2741346 0.51399678 2.0904844 26
-1.4883187 0.60040504 1.9973947 76
-0.11537083 0.04824508 1.9960728 114
-0.20181213 0.085611925 1.9983203 84
-0.37260157 0.15126726 1.5847452 38
-0.6565001 0.26628789 1.980762 93
-0.86336076 0.34985584 1.9891212 92
-1.0844301 0.43944576 1.9840788 85
-1.3376813 0.5420773 1.9852921 84
-1.6411934 0.66507685 1.9980052 83
-1.8069659 0.72675353 1.9937341 75
-2.198736 0.88432622 1.9926252 69
-2.643723 1.0638361 1.952984 39
-2.3686569 0.95315152 1.4224993 5
-4.4216452 1.7801765 2.0141287 11
-6.0877318 2.4521875 2.0178218 9
-9.4364767 3.8010905 2.0229285 8
-9.8060446 3.9519448 1.0402349 70
-1.9977731 0.80674142 1.9994081 73
-2.4346619 0.98366159 1.9955517 62
-3.0156417 1.2183954 1.9961221 50
-3.8427067 1.5533315 2.0034976 43
-5.1139879 2.0682588 2.0079978 32
-7.3670211 2.9809544 2.0074921 23
-9.8093376 3.9711943 1.5663369 85
-3.4356058 1.3915606 0.24320135 7
-0.028782584 0.012205103 1.9891979 71
-0.28956434 0.11909183 1.9909451 93
-0.37463704 0.1530765 1.969142 38
-0.39948297 0.16291963 1.4255807 60
-0.76080096 0.31014785 1.9951125 95
-0.97209615 0.39609748 1.9901714 83
-1.2723327 0.5184412 2.0904844 25
-1.4862137 0.6055966 1.9973947 76
-0.11520173 0.048647504 1.9960728 114
-0.20151207 0.086315863 1.9983203 82
-0.37207127 0.15256695 1.5847452 38
-0.65556657 0.26857787 1.980762 93
-0.86213428 0.35286736 1.9891212 92
-1.0828894 0.44322842 1.9840788 85
-1.3357809 0.54674333 1.9852921 84
-1.6388619 0.67080158 1.9980052 83
-1.8044182 0.73305666 1.9937341 75
-2.1956358 0.89199585 1.9926252 71
-2.6942248 1.0951011 1.9913646 45
-2.3858361 0.96975482 1.4340894 5
-4.3982263 1.7886146 2.0066366 14
-6.0658045 2.4679987 2.0135944 13
-9.4140511 3.8303039 2.0210633 7
-9.8060284 3.9917834 1.0415735 66
-1.9949448 0.81370997 1.9994081 75
-2.4312134 0.99215412 1.9955517 56
-2.9993956 1.2240278 1.9885249 36
-3.8372612 1.5667356 2.0034976 38
-5.1111088 2.0878832 2.0096405 32
-7.3520713 3.004813 2.0063198 26
-9.809166 4.0110335 1.5684063 89
nan nan nan 0
-0.028739803 0.0123055 1.9891979 71
-0.2891469 0.12010187 1.9909451 93
-0.37410039 0.15438329 1.969142 38
-0.39891183 0.16431308 1.4255807 62
-0.75971377 0.31280169 1.9951125 93
-0.9707076 0.3994883 1.9901714 83
-1.267913 0.52180827 2.0863512 22
-1.4840908 0.61078072 1.9973947 78
-0.11503122 0.049049336 1.9960728 115
-0.20120955 0.087018743 1.9983203 82
-0.37269855 0.15434615 1.5895844 38
-0.65462512 0.27086461 1.980762 93
-0.8608973 0.35587463 1.9891212 92
-1.0813358 0.44700572 1.9840788 85
-1.3338642 0.55140275 1.9852921 84
-1.6365104 0.6765182 1.9980052 83
-1.8051474 0.74070454 1.9972385 75
-2.1925085 0.89965463 1.9926252 71
-2.6865175 1.102911 1.988623 42
-2.894722 1.1883895 1.7238427 13
-4.3833795 1.8004335 2.0028906 21
-6.0394039 2.4818637 2.0079575 13
-9.3915358 3.8594077 2.0191979 9
-9.8104572 4.0335631 1.0433584 41
-1.9920923 0.82066876 1.9994081 75
-2.4277356 1.0006347 1.9955517 56
-2.971189 1.2246327 1.9733303 17
-3.8275735 1.5783905 2.0013998 38
-5.1081548 2.1075127 2.0112832 34
-7.3415375 3.030458 2.0063198 25
-9.7996826 4.0471401 1.5690961 90
-9.7007322 4.0082569 0.51708186 19
-0.028696673 0.012405746 1.9891979 71
-0.28872591 0.12111045 1.9909451 93
-0.37449905 0.15607998 1.9740372 38
-0.39833584 0.16570455 1.4255807 62
-0.75861722 0.31545168 1.9951125 95
-0.96930718 0.40287429 1.9901714 83
-1.2660838 0.52623093 2.0863512 22
-1.4819497 0.61595744 1.9973947 78
-0.1148593 0.049450573 1.9960728 115
-0.20090456 0.087720573 1.9983203 82
-0.37215751 0.15564618 1.5895844 38
-0.65526772 0.2738134 1.9854547 93
-0.85964984 0.35887757 1.9891212 93
-1.0797688 0.45077759 1.9840788 87
-1.3319314 0.55605549 1.9852921 84
-1.6341391 0.6822266 1.9980052 85
-1.8025509 0.74700111 1.9972385 75
-2.1893547 0.90730238 1.9926252 71
-2.674926 1.1090789 1.9831401 39
-3.3693657 1.397012 1.9950519 19
-4.3727856 1.8139471 2.0010173 22
-6.0129795 2.495574 2.0023208 13
-9.3643951 3.8865173 2.0164001 9
-9.8101168 4.073513 1.044697 31
-1.9892156 0.82761747 1.9994081 64
-2.424228 1.0091028 1.9955517 60
nan nan nan 0
-3.8178511 1.5899967 1.9993017 40
-5.1051264 2.127147 2.0129259 37
-7.3264284 3.0541959 2.0051475 16
-9.8220596 4.0965729 1.5746146 93
-9.6636286 4.0324745 0.51607424 26
-0.028653193 0.01250584 1.9891979 71
-0.28830138 0.12211756 1.9909451 95
-0.37395191 0.15738627 1.9740372 38
-0.397755 0.16709399 1.4255807 60
-0.7575115 0.31809783 1.9951125 95
-0.96789503 0.40625536 1.9901714 83
-1.2642393 0.53064722 2.0863512 24
-1.4797906 0.62112665 1.9973947 73
-0.11468598 0.049851205 1.9960728 115
-0.20059714 0.088421315 1.9983203 84
-0.37277064 0.15743373 1.5944235 38
-0.65430802 0.276099 1.9854547 93
-0.85839188 0.3618761 1.9891212 93
-1.0781888 0.45454392 1.9840788 85
-1.3299823 0.56070137 1.9852921 82
-1.6317476 0.68792659 1.9980052 83
-1.7999324 0.75328869 1.9972385 75
-2.1861744 0.91493917 1.9926252 71
-2.6671813 1.1167943 1.9803987 39
-2.37555 0.99468559 1.4340894 4
-4.3749795 1.8327825 2.0047636 21
-5.9953837 2.5128393 1.9995023 16
-9.341712 3.9153841 2.014535 9
-9.8279848 4.1212125 1.0478204 24
-1.9863144 0.83455604 1.9994081 46
-2.4206908 1.0175588 1.9955517 69
-2.4975653 1.0498767 1.6770365 3
-3.8080938 1.6015542 1.9972036 36
-5.0976696 2.144954 2.0129259 38
-7.315722 3.0797513 2.0051475 13
-9.8305206 4.1404448 1.5780638 89
-9.7185516 4.095283 0.51909721 20
-0.028609367 0.012605782 1.9891979 71
-0.28787333 0.12312317 1.9909451 95
-0.37433735 0.15908898 1.9789324 37
-0.39716929 0.16848139 1.4255807 60
-0.75639647 0.3207401 1.9951125 95
-0.96647102 0.40963146 1.9901714 83
-1.2623793 0.53505701 2.0863512 24
-1.4776134 0.62628824 1.9973947 73
-0.11451127 0.050251227 1.9960728 115
-0.2007748 0.089338675 2.0032918 86
-0.37337571 0.15922748 1.5992627 38
-0.65334022 0.27838129 1.9854547 91
-0.85712343 0.36487022 1.9891212 93
-1.0765954 0.45830473 1.9840788 85
-1.3307902 0.56652099 1.9892817 80
-1.6293364 0.6936183 1.9980052 83
-1.7972919 0.75956702 1.9972385 73
-2.1829674 0.92256474 1.9926252 69
-2.6594157 1.1244694 1.9776572 37
-2.3475809 0.99261975 1.4201813 4
-4.3685551 1.848043 2.0047636 29
-5.9865756 2.533752 1.9995023 16
-9.3189402 3.9441397 2.0126698 8
-9.804369 4.1516099 1.0469282 19
-1.9833893 0.84148455 1.9994081 31
-2.4208446 1.0275818 1.9984947 71
-2.4264202 1.0299513 1.6339853 3
-3.7983027 1.613063 1.9951055 36
-5.0901518 2.162735 2.0129259 36
-7.3183475 3.1109741 2.0086646 11
-9.8160086 4.1747346 1.5780638 89
-3.2866752 1.398494 0.23776001 7
-0.028565191 0.01270557 1.9891979 69
-0.28744182 0.12412729 1.9909451 93
-0.37377971 0.1603947 1.9789324 37
-0.39657879 0.16986674 1.4255807 58
-0.75527233 0.32337844 1.9951125 95
-0.96503526 0.41300258 1.9901714 81
-1.2605039 0.5394603 2.0863512 24
-1.4754183 0.63144231 1.9973947 76
-0.11433517 0.050650638 1.9960728 114
-0.20046173 0.090038963 2.0032918 86
-0.37281767 0.16052982 1.5992627 38
-0.65236449 0.28066018 1.9854547 93
-0.85584456 0.36785993 1.9891212 93
-1.0749892 0.46205997 1.9840788 87
-1.3288044 0.57116288 1.9892817 78
-1.6269053 0.69930148 1.9980052 83
-1.7913496 0.76443636 1.9937341 75
-2.1797338 0.93017912 1.9926252 69
-2.6516285 1.1321037 1.9749157 38
-2.3481762 1.0025479 1.4224993 3
-4.3663411 1.8651017 2.0066366 32
-5.9776945 2.5546334 1.9995023 16
-9.291563 3.9708533 2.0098717 10
-9.8813972 4.2249656 1.0558523 62
-1.9804399 0.84840268 1.9994081 22
-2.4060977 1.0312489 1.9896654 69
-2.2841187 0.9789716 1.5453503 4
-3.7926488 1.6263117 1.9951055 36
-5.0825715 2.1804898 2.0129259 36
-7.3163772 3.1403353 2.0110092 11
-10.065296 4.3223081 1.6180731 62
-9.7310362 4.1807795 0.52091098 14
-0.028520666 0.012805204 1.9891979 71
-0.2870068 0.12512989 1.9909451 93
-0.37415183 0.16210334 1.9838277 36
-0.39598343 0.17125005 1.4255807 58
-0.75413889 0.32601285 1.9951125 95
-0.96358776 0.41636866 1.9901714 81
-1.2586131 0.54385698 2.0863512 24
-1.4732052 0.63658869 1.9973947 76
-0.11415767 0.051049437 1.9960728 114
-0.20014621 0.090738162 2.0032918 88
-0.37340853 0.16233177 1.6041019 38
-0.65138084 0.28293565 1.9854547 93
-0.85455531 0.37084514 1.9891212 92
-1.0733697 0.46580955 1.9840788 87
-1.3268026 0.5757978 1.9892817 70
-1.6244544 0.70497614 1.9980052 83
-1.7886703 0.77068472 1.9937341 71
-2.1764736 0.93778217 1.9926252 69
-2.6476605 1.1413527 1.9749157 39
-2.2144766 0.95461786 1.3483224 3
-4.3598042 1.8803319 2.0066366 30
-5.9687405 2.5754838 1.9995023 17
-9.2596054 3.9954782 2.0061414 11
-10.090628 4.3561497 1.0777166 44
-1.9774662 0.85531056 1.9994081 22
-2.3876448 1.0332203 1.9778926 56
-2.2490344 0.97324103 1.5250909 6
-3.7827842 1.6377376 1.9930075 39
-5.0705957 2.1963413 2.0112832 35
-7.3276691 3.1755185 2.0168707 14
-10.07741 4.369236 1.6222119 62
-3.3776648 1.4651437 0.2421937 6
-0.028475793 0.012904681 1.9891979 71
-0.28656825 0.12613097 1.9909451 93
-0.3735837 0.16340838 1.9838277 36
-0.39538324 0.17263123 1.4255807 56
-0.75299633 0.32864332 1.9951125 95
-0.95993268 0.41877174 1.9857829 81
-1.2567071 0.54824704 2.0863512 25
-1.4709741 0.64172715 1.9973947 78
-0.11424249 0.051567186 2.0010643 115
-0.19982825 0.091436245 2.0032918 82
-0.37283963 0.16363423 1.6041019 38
-0.64880896 0.28451461 1.980762 93
-0.85325563 0.37382585 1.9891212 92
-1.0717372 0.46955347 1.9840788 85
-1.3247846 0.58042574 1.9892817 61
-1.6219836 0.71064228 1.9980052 83
-1.7859694 0.7769236 1.9937341 71
-2.1696169 0.94382083 1.9894875 69
-2.6436603 1.1505879 1.9749157 39
nan nan nan 0
-4.3532138 1.8955389 2.0066366 26
-5.9597139 2.5963027 1.9995023 21
-9.232091 4.0218902 2.0033436 10
-10.070794 4.3893566 1.0772703 42
-1.9744687 0.86220795 1.9994081 37
-2.3692076 1.0350755 1.96612 44
-2.2258701 0.97245574 1.5124288 6
-3.7770443 1.6509321 1.9930075 33
-5.0628982 2.2140274 2.0112832 30
-7.3031807 3.1952326 2.0133536 18
-10.102924 4.4222579 1.6284204 64
nan nan nan 0
-0.028430574 0.013004002 1.9891979 71
-0.28612623 0.12713051 1.9909451 92
-0.3739424 0.16512282 1.9887229 36
-0.39477822 0.17401032 1.4255807 56
-0.75184453 0.33126974 1.9951125 93
