# .PCD v0.7 - Point Cloud Data file format
VERSION 0.7
FIELDS x y z intensity
SIZE 4 4 4 4
TYPE F F F F
COUNT 1 1 1 1
WIDTH 1376
HEIGHT 1
VIEWPOINT 0 0 0 1 0 0 0
POINTS 1376
DATA ascii
-0.37276232 0.064082719 1.8418661 37
-0.4252378 0.072816506 1.4255807 48
-0.80982286 0.1385527 1.9951125 95
-1.0346923 0.17685008 1.9901714 83
-1.2904663 0.22057293 1.9954264 38
-1.5819184 0.2703943 1.9973947 74
-0.12241901 0.02251881 1.9860895 101
-0.21539629 0.040767428 1.9983203 86
-0.37268978 0.06454695 1.4928002 35
-0.69979519 0.12098048 1.9854547 67
-0.91798991 0.15838367 1.9891212 92
-1.2173001 0.2100323 2.0907271 35
-1.4223261 0.24541219 1.9852921 84
-1.7417043 0.30052355 1.99433 78
-1.9166222 0.3255409 1.9902295 75
-2.3441215 0.39815664 1.9989008 39
-2.9454522 0.50082481 2.0434525 19
-3.6439328 0.61959356 2.0205503 54
-4.6761112 0.79593986 2.0047636 40
-6.4508891 1.0991915 2.0121851 32
-9.7527008 1.6618011 1.969769 68
-9.7444458 1.6621447 0.97865796 77
-2.1162241 0.36248776 1.9927584 75
-2.5920775 0.44446346 1.9984947 69
-3.2311828 0.5540548 2.0113168 64
-4.1655564 0.71502203 2.0412626 58
-5.3343191 0.91660064 1.9718586 23
-7.8514061 1.3505259 2.0121813 27
-9.755724 1.6798428 1.4711423 77
nan nan nan 0
-0.030718917 0.0058094636 1.9891979 71
-0.3082591 0.054833554 1.9909451 93
-0.37353921 0.065559618 1.8467613 36
-0.42498103 0.074300423 1.4255807 48
-0.80933422 0.14137867 1.9951125 93
-1.0340687 0.18046075 1.9901714 83
-1.2924607 0.22555996 1.9995594 37
-1.5809648 0.27591458 1.9973947 74
-0.12234366 0.022924643 1.9860895 102
-0.21525991 0.041481484 1.9983203 86
-0.37247369 0.06578248 1.4928002 35
-0.69939023 0.12330042 1.9854547 67
-0.91743147 0.16158709 1.9891212 92
-1.2165594 0.21428019 2.0907271 34
-1.4214609 0.25037554 1.9852921 84
-1.744037 0.30688512 1.9980052 78
-1.918988 0.33283868 1.9937341 75
-2.3427176 0.40633672 1.9989008 37
-2.9478059 0.51181865 2.0461938 19
-3.6417477 0.63230956 2.0205503 57
-4.6734462 0.81144208 2.0047636 42
-6.4472089 1.1205773 2.0121851 33
-9.7710381 1.7000444 1.9744322 68
-9.7582083 1.6995668 0.98044276 41
-2.1149459 0.36987257 1.9927584 75
-2.5905101 0.45350879 1.9984947 69
-3.2293274 0.56476671 2.0113168 65
-4.1631622 0.72883159 2.0412626 58
-5.4382362 0.95303386 2.0096405 38
-7.8468843 1.3765546 2.0121813 26
-9.813509 1.7233198 1.4801099 73
nan nan nan 0
-0.030699482 0.005911299 1.9891979 71
-0.30807555 0.055855475 1.9909451 95
-0.37331977 0.066797957 1.8467613 36
-0.42473233 0.075709306 1.4255807 48
-0.80886096 0.14406174 1.9951125 93
-1.0334646 0.18388885 1.9901714 83
-1.2917056 0.22984467 1.9995594 35
-1.5800411 0.28115571 1.9973947 76
-0.12226698 0.023330221 1.9860895 102
-0.21512118 0.042195082 1.9983203 86
-0.37225348 0.067017287 1.4928002 35
-0.69897747 0.12561901 1.9854547 69
-0.91689062 0.16462852 1.9891212 92
-1.2158422 0.21831328 2.0907271 35
-1.4206228 0.25508791 1.9852921 84
-1.7430097 0.31266686 1.9980052 74
-1.9178737 0.33920044 1.9937341 75
-2.345191 0.41478127 2.0020387 34
-2.9502099 0.52232003 2.0489354 17
-3.639631 0.64438254 2.0205503 58
-4.6752944 0.82774347 2.0066366 42
-6.4387331 1.1411138 2.0107758 31
-9.9491434 1.7650436 2.0098717 54
-10.017299 1.7789384 1.0045382 24
-2.1137078 0.37688392 1.9927584 73
-2.5889921 0.46209675 1.9984947 71
-3.2274373 0.57547241 2.0113168 65
-4.1651902 0.74343061 2.0433607 58
-5.4396949 0.97189313 2.0112832 38
-7.8470607 1.403424 2.0133536 25
-9.9881039 1.788143 1.5056331 70
nan nan nan 0
-0.030678662 0.0060184244 1.9891979 71
-0.3078787 0.056930516 1.9909451 95
-0.37308431 0.068100683 1.8467613 37
-0.42446545 0.077191427 1.4255807 46
-0.80835319 0.14688432 1.9951125 95
-1.0328164 0.1874952 1.9901714 83
-1.2936641 0.23485482 2.0036924 32
-1.5790501 0.2866694 1.9973947 73
-0.12246478 0.023833994 1.9910811 102
-0.21496508 0.042983256 1.9983203 86
-0.37200534 0.068381213 1.4928002 36
-0.69851232 0.12818004 1.9854547 67
-0.91845232 0.16822043 1.9936218 92
-1.2150726 0.22255604 2.0907271 34
-1.4197237 0.26004526 1.9852921 84
-1.741852 0.31905326 1.9980052 71
-1.9166781 0.345893 1.9937341 75
-2.3437288 0.42296496 2.0020387 32
-2.9524834 0.5333584 2.0516768 17
-3.6373594 0.65708327 2.0205503 53
-4.6722293 0.84487367 2.0066366 41
-6.4061837 1.1595783 2.0023208 30
-9.9574232 1.8023868 2.0126698 54
-10.006128 1.8130066 1.004092 19
-2.1123791 0.38425985 1.9927584 73
-2.587363 0.47113121 1.9984947 69
-3.2253063 0.58729774 2.0113168 67
-4.162437 0.75869179 2.0433607 58
-5.4360962 0.99182409 2.0112832 38
-7.8418641 1.4321754 2.0133536 24
-10.020453 1.8318638 1.5111516 78
nan nan nan 0
-0.030657465 0.0061254762 1.9891979 69
-0.3076781 0.058004867 1.9909451 93
-0.37384531 0.069588989 1.8516566 37
-0.42419341 0.078672625 1.4255807 46
-0.80783552 0.14970511 1.9951125 95
-1.0321558 0.19109924 1.9901714 81
-1.2956036 0.23988147 2.0078254 30
-1.5780399 0.29217955 1.9973947 73
-0.12238084 0.024261329 1.9910811 102
-0.21481372 0.043733362 1.9983203 84
-0.37176442 0.069679342 1.4928002 36
-0.69806063 0.13061751 1.9854547 67
-0.91785955 0.17142539 1.9936218 92
-1.2142885 0.22679606 2.0907271 34
-1.4188073 0.26499942 1.9852921 84
-1.7407277 0.32513148 1.9980052 68
-1.9154589 0.35258135 1.9937341 75
-2.3422379 0.43114355 2.0020387 30
-2.9547157 0.54441893 2.0544183 16
-3.6350436 0.66977602 2.0205503 53
-4.6692519 0.86117768 2.0066366 41
-6.3737922 1.1767074 1.9938655 17
-9.9993773 1.8460519 2.021996 55
-10.019328 1.8515435 1.0058768 38
-2.1110251 0.3916311 1.9927584 75
-2.5857029 0.48015994 1.9984947 69
-3.2232366 0.59855258 2.0113168 65
-4.1329913 0.76824021 2.0307724 46
-5.4326015 1.0107936 2.0112832 38
-7.8368173 1.45954 2.0133536 23
-10.018866 1.867738 1.5118414 77
-9.5814266 1.7879199 0.48685223 3
-0.030635897 0.006232453 1.9891979 69
-0.30747375 0.059078515 1.9909451 95
-0.37360016 0.070893534 1.8516566 37
-0.42391622 0.080152854 1.4255807 46
-0.80730802 0.15252407 1.9951125 95
-1.0314823 0.19470099 1.9901714 79
-1.2947584 0.24440251 2.0078254 28
-1.5770104 0.29768616 1.9973947 73
-0.12229541 0.024688371 1.9910811 103
-0.21465975 0.044482939 1.9983203 80
-0.37151891 0.070976615 1.4928002 36
-0.69760042 0.13305341 1.9854547 67
-0.91725558 0.17462827 1.9936218 92
-1.2134894 0.23103333 2.0907271 34
-1.4178736 0.26995039 1.9852921 84
-1.7429125 0.33183989 2.0016804 57
-1.9142166 0.35926539 1.9937341 75
-2.3407187 0.43931684 2.0020387 30
-2.9569073 0.55550158 2.0571599 16
-3.6326835 0.68246067 2.0205503 53
-4.6662169 0.87747115 2.0066366 42
-6.3696456 1.1989489 1.9938655 17
-9.9880447 1.8800362 2.0210633 53
-10.012804 1.8865063 1.0058768 31
-2.1133142 0.39969152 1.9960833 75
-2.5840111 0.48918277 1.9984947 69
-3.2211275 0.6098001 2.0113168 65
-4.1169066 0.78012741 2.0244782 16
-5.42904 1.0297507 2.0112832 38
-7.8364501 1.4877932 2.0145259 23
-10.012285 1.902699 1.5118414 77
nan nan nan 0
-0.030613955 0.0063393544 1.9891979 69
-0.30726567 0.060151439 1.9909451 95
-0.37335038 0.072197214 1.8516566 37
-0.42363387 0.081632115 1.4255807 48
-0.80677074 0.15534115 1.9951125 93
-1.0284438 0.19784777 1.9857829 81
-1.2966605 0.2494522 2.0119584 26
-1.5759616 0.30318916 1.9973947 73
-0.12220848 0.02511511 1.9910811 103
-0.21450317 0.045231968 1.9983203 78
-0.37250349 0.072513461 1.4976394 36
-0.69713181 0.13548768 1.9854547 67
-0.91664046 0.17782903 1.9936218 90
-1.2126756 0.2352678 2.0907271 34
-1.4198816 0.27547207 1.9892817 84
-1.7417436 0.33792174 2.0016804 50
-1.9129509 0.36594504 1.9937341 75
-2.3353472 0.44675329 1.9989008 31
-2.9590569 0.5666061 2.0599012 16
-3.6302793 0.69513685 2.0205503 55
-4.663126 0.89375401 2.0066366 40
-6.3701329 1.2220798 1.9952747 19
-9.9910698 1.9167408 2.0229285 50
-9.7567329 1.8735497 0.98312008 9
-2.1082397 0.40635917 1.9927584 75
-2.5822875 0.49819967 1.9984947 69
-3.2189791 0.62104017 2.0113168 65
-4.0963335 0.79105121 2.0160861 16
-5.4254122 1.0486953 2.0112832 38
-7.8312092 1.5151386 2.0145259 22
-10.015306 1.93952 1.513221 79
-9.6569948 1.8718795 0.49047977 35
-0.030549072 0.0064365854 1.984198 69
-0.30705383 0.061223626 1.9909451 93
-0.37409508 0.073696911 1.8565518 37
-0.42481187 0.083398163 1.4303524 50
-0.80622351 0.15815638 1.9951125 93
-1.0277469 0.2014365 1.9857829 83
-1.2957819 0.25397688 2.0119584 24
-1.5748937 0.30868843 1.9973947 74
-0.12212007 0.025541544 1.9910811 102
-0.21434397 0.04598045 1.9983203 80
-0.37224811 0.073813297 1.4976394 36
-0.69496185 0.13758513 1.980762 69
-0.91601413 0.18102762 1.9936218 92
-1.2092885 0.23899373 2.0864613 34
-1.4189112 0.28042674 1.9892817 87
-1.7405534 0.34399951 2.0016804 43
-1.9081613 0.37193796 1.9902295 73
-2.3337736 0.45490247 1.9989008 31
-2.9570611 0.57693166 2.0599012 16
-3.6278307 0.70780468 2.0205503 55
-4.6599774 0.91002589 2.0066366 40
-6.3940768 1.2498299 2.0037298 32
-9.9891386 1.9525466 2.0238609 50
-9.7305822 1.9037704 0.98133516 4
-2.1068082 0.41371584 1.9927584 73
-2.580533 0.50721055 1.9984947 71
-3.2167919 0.63227278 2.0113168 65
-4.084641 0.80359304 2.0118899 21
-5.4217181 1.0676271 2.0112832 38
-7.8258724 1.5424653 2.0145259 21
-10.013335 1.9754267 1.5139109 80
-9.6160927 1.8988024 0.48906907 36
-0.030526418 0.0065431828 1.984198 69
-0.30683824 0.062295076 1.9909451 93
-0.37383556 0.075002298 1.8565518 37
-0.42451817 0.084880523 1.4303524 50
-0.80566657 0.16096966 1.9951125 93
-1.0270376 0.20502277 1.9857829 81
-1.2976471 0.25904939 2.0160913 21
-1.5738066 0.31418395 1.9973947 76
-0.12203017 0.025967667 1.9910811 102
-0.21418218 0.046728365 1.9983203 86
-0.3732211 0.075361274 1.5024786 36
-0.69447732 0.14001016 1.980762 71
-0.91537666 0.18422401 1.9936218 92
-1.2084469 0.24321349 2.0864613 34
-1.4179238 0.28537795 1.9892817 87
-1.739342 0.3500731 2.0016804 39
-1.9068514 0.37859643 1.9902295 67
-2.3321712 0.46304607 1.9989008 32
-2.9591303 0.58806521 2.0626428 15
-3.6253378 0.72046387 2.0205503 53
-4.6567726 0.92628664 2.0066366 41
-6.4084959 1.2758887 2.0093668 32
-9.9870806 1.9883624 2.0247936 47
-9.8117905 1.9552437 0.98936695 4
-2.1053514 0.42106745 1.9927584 73
-2.5787468 0.51621521 1.9984947 71
-3.2145653 0.64349765 2.0113168 65
-4.081811 0.81784612 2.0118899 51
-5.4133282 1.0856173 2.0096405 38
-7.8204408 1.5697733 2.0145259 20
-10.016089 2.0123186 1.5152906 85
-9.6192017 1.9343271 0.48947209 35
-0.030503392 0.0066497 1.984198 69
-0.30661893 0.063365757 1.9909451 91
-0.37357152 0.076306768 1.8565518 37
-0.42421931 0.086361855 1.4303524 52
-0.80509979 0.16378097 1.9951125 93
-1.0263156 0.20860654 1.9857829 81
-1.2994925 0.26413795 2.0202241 19
-1.5727003 0.31967565 1.9973947 76
-0.12193878 0.026393475 1.9910811 102
-0.21401775 0.047475718 1.9983203 86
-0.37295574 0.076663606 1.5024786 36
-0.69398439 0.14243348 1.980762 71
-0.91472799 0.18741815 1.9936218 92
-1.2075906 0.24743026 2.0864613 33
-1.4169189 0.29032567 1.9892817 87
-1.7381094 0.3561424 2.0016804 38
-1.9055182 0.38525024 1.9902295 67
-2.3305409 0.47118407 1.9989008 32
-2.9570596 0.59839094 2.0626428 15
-3.6228008 0.7331143 2.0205503 53
-4.6535106 0.94253623 2.0066366 31
-6.4134064 1.3001571 2.0121851 34
-9.9848928 2.0241878 2.0257263 47
-9.9318018 2.0152295 1.0009685 21
-2.1038687 0.4284139 1.9927584 73
-2.5769291 0.52521348 1.9984947 69
-3.2122993 0.65471464 2.0113168 65
-4.0744848 0.83118236 2.0097921 57
-5.4141331 1.1054516 2.0112832 37
-7.8149137 1.5970621 2.0145259 19
-10.013854 2.0482612 1.5159802 85
-9.6123905 1.9678926 0.48947209 35
-0.030479994 0.0067561362 1.984198 69
-0.30639586 0.064435676 1.9909451 93
-0.37330285 0.077610314 1.8565518 37
-0.42391527 0.087842122 1.4303524 52
-0.80452317 0.16659029 1.9951125 93
-1.0255812 0.2121878 1.9857829 81
-1.3013183 0.26924261 2.0243571 17
-1.5715747 0.32516345 1.9973947 78
-0.12184591 0.026818961 1.9910811 102
-0.21385072 0.048222493 1.9983203 86
-0.37268588 0.077964999 1.5024786 36
-0.69348294 0.14485508 1.980762 73
-0.91406816 0.19061001 1.9936218 90
-1.2041664 0.2511116 2.0821953 33
-1.4129463 0.29465458 1.9852921 84
-1.7401743 0.36289945 2.0053556 37
-1.9041618 0.39189941 1.9902295 73
-2.328882 0.47931632 1.9989008 34
-2.954953 0.60870945 2.0626428 16
-3.6158812 0.74486202 2.0182323 57
-4.6456523 0.95783812 2.0047636 31
-6.4041305 1.3215666 2.0107758 32
-9.9825773 2.0600221 2.026659 47
-9.9734783 2.0599589 1.0054306 42
-2.1023605 0.43575516 1.9927584 73
-2.5750799 0.53420544 1.9984947 69
-3.2099943 0.66592366 2.0113168 65
-4.0715585 0.84539986 2.0097921 56
-5.4102411 1.1243436 2.0112832 37
-7.8092914 1.6243317 2.0145259 17
-10.011492 2.0842128 1.5166701 85
-9.6445904 2.0095868 0.49108434 36
-0.030456226 0.0068624895 1.984198 69
-0.30616906 0.065504804 1.9909451 95
-0.37302968 0.078912914 1.8565518 36
-0.42360607 0.089321338 1.4303524 52
-0.80393672 0.16939761 1.9951125 93
-1.0248343 0.21576646 1.9857829 81
-1.3058778 0.27494299 2.0326231 17
-1.57043 0.33064729 1.9973947 78
-0.12175155 0.027244117 1.9910811 103
-0.2136811 0.048968676 1.9983203 88
-0.37364173 0.079527386 1.5073178 36
-0.69128513 0.14691609 1.9760692 77
-0.91126704 0.19334751 1.9891212 90
-1.2032825 0.2553134 2.0821953 33
-1.4119092 0.29958487 1.9852921 84
-1.7388968 0.36897159 2.0053556 37
-1.9027822 0.39854378 1.9902295 73
-2.3271945 0.48744267 1.9989008 35
-2.95281 0.6190204 2.0626428 16
-3.6132591 0.75747919 2.0182323 54
-4.6422806 0.97404867 2.0047636 41
-6.3994784 1.3439131 2.0107758 32
-9.9753256 2.0948551 2.026659 43
-9.9808464 2.0978334 1.0067692 38
-2.1008267 0.44309109 1.9927584 75
-2.5731995 0.54319096 1.9984947 69
-3.2076504 0.67712456 2.0113168 65
-4.068583 0.8596071 2.0097921 56
-5.3970428 1.141268 2.0079978 31
-7.8035741 1.6515813 2.0145259 18
-10.013845 2.1211994 1.5180497 88
-9.61308 2.0380597 0.49007672 32
-0.03047448 0.0069790939 1.9891979 69
-0.30593854 0.066573128 1.9909451 95
-0.37275195 0.080214545 1.8565518 36
-0.42329168 0.090799451 1.4303524 50
-0.80334055 0.17220283 1.9951125 93
-1.0240749 0.21934246 1.9857829 81
-1.3076617 0.28008905 2.0367558 17
-1.5692664 0.3361271 1.9973947 76
-0.1216557 0.027668944 1.9910811 103
-0.21350886 0.049714264 1.9983203 86
-0.37336183 0.080831155 1.5073178 36
-0.69076806 0.14932823 1.9760692 77
-0.9105866 0.19652726 1.9891212 92
-1.1998346 0.25896183 2.0779295 32
-1.4108549 0.30451155 1.9852921 87
-1.7375983 0.37503922 2.0053556 36
-1.9013795 0.40518332 1.9902295 75
-2.325479 0.49556315 1.9989008 38
-2.9506314 0.62932384 2.0626428 14
-3.6105928 0.77008718 2.0182323 49
-4.6388521 0.99024731 2.0047636 41
-6.3947482 1.3662432 2.0107758 33
-9.9727564 2.1306891 2.0275917 43
-9.783535 2.0920472 0.98936695 20
-2.0992672 0.45042169 1.9927584 75
-2.5712876 0.5521698 1.9984947 71
-3.2052672 0.68831724 2.0113168 65
-4.0655575 0.87380385 2.0097921 59
nan nan nan 0
-7.8025131 1.6798339 2.0156984 16
-10.016063 2.1582277 1.5194294 88
-9.5863733 2.0673904 0.4892706 28
-0.030449931 0.0070854276 1.9891979 69
-0.3057043 0.067640655 1.9909451 95
-0.37346432 0.081732981 1.861447 37
-0.42297214 0.092276461 1.4303524 42
-0.80273455 0.17500596 1.9951125 93
-1.0256437 0.22342575 1.9901714 81
-1.3094256 0.2852509 2.040889 16
-1.5680835 0.34160283 1.9973947 76
-0.12155839 0.028093433 1.9910811 103
-0.21333404 0.050459243 1.9983203 84
-0.37430578 0.082404464 1.512157 36
-0.69024253 0.15173855 1.9760692 77
-0.90989506 0.19970459 1.9891212 90
-1.1938287 0.26203018 2.0693977 32
-1.4127272 0.31008068 1.9892817 87
-1.7329675 0.38037544 2.0016804 36
-1.8999536 0.41181791 1.9902295 73
-2.3199308 0.50285292 1.9957631 39
-2.9484165 0.63961965 2.0626428 14
-3.6035533 0.78174657 2.0159142 38
-4.6353674 1.0064338 2.0047636 41
-6.3899403 1.3885567 2.0107758 32
-9.9652586 2.1654875 2.0275917 40
-9.5961189 2.0870261 0.97285718 14
-2.097682 0.45774674 1.9927584 75
-2.5693448 0.56114191 1.9984947 69
-3.2028451 0.69950151 2.0113168 65
-4.0624828 0.88799 2.0097921 59
-4.8168888 1.0537717 1.8043048 2
-7.7966018 1.7070594 2.0156984 15
-10.018143 2.1952972 1.5208091 88
-9.5644588 2.09763 0.488666 25
-0.030425012 0.0071916748 1.9891979 71
-0.30546635 0.068707347 1.9909451 95
-0.37317672 0.08303611 1.861447 37
-0.42264748 0.093752347 1.4303524 42
-0.80211878 0.17780696 1.9951125 95
-1.0248576 0.22700456 1.9901714 81
-1.3111694 0.29042852 2.0450218 16
-1.5668817 0.34707436 1.9973947 74
-0.12145958 0.02851758 1.9910811 103
-0.2131566 0.051203616 1.9983203 84
-0.37401584 0.083710536 1.512157 37
-0.68970871 0.15414703 1.9760692 79
-0.90919238 0.2028795 1.9891212 90
-1.1903613 0.26562774 2.0651317 31
-1.4086947 0.31435367 1.9852921 84
-1.7316291 0.38642234 2.0016804 36
-1.8985045 0.41844743 1.9902295 73
-2.3181612 0.51094794 1.9957631 48
-2.9461658 0.64990759 2.0626428 15
-3.6008024 0.79432058 2.0159142 18
-4.6318259 1.0226082 2.0047636 41
-6.3850546 1.4108534 2.0107758 32
-9.9624348 2.2013195 2.0285242 37
-9.5061131 2.1022298 0.96527165 38
-2.0960715 0.46506622 1.9927584 73
-2.5673704 0.5701071 1.9984947 69
-3.2003839 0.71067727 2.0113168 65
-4.0593581 0.90216529 2.0097921 58
-4.8131804 1.0705793 1.8043048 2
-7.8000841 1.7363765 2.018043 16
-10.020085 2.2324073 1.5221887 90
-9.5375729 2.1266539 0.48785985 26
-0.030357443 0.0072870562 1.984198 71
-0.30522466 0.069773205 1.9909451 95
-0.37387773 0.084562957 1.8663422 37
-0.42086071 0.094898485 1.4255807 52
-0.80149323 0.1806058 1.9951125 95
-1.0240591 0.2305806 1.9901714 83
-1.3101476 0.29500362 2.0450218 16
-1.5656606 0.35254169 1.9973947 74
-0.12107774 0.028873732 1.9860895 104
-0.21297656 0.051947355 1.9983203 84
-0.37372139 0.085015573 1.512157 36
-0.68916643 0.15655361 1.9760692 83
-0.90847868 0.20605193 1.9891212 90
-1.18434 0.26862746 2.0565999 31
-1.4075887 0.319269 1.9852921 84
-1.7302697 0.39246449 2.0016804 36
-1.8970321 0.42507192 1.9902295 75
-2.3163636 0.51903671 1.9957631 54
-2.9438794 0.66018772 2.0626428 15
-3.5936849 0.80591547 2.0135961 18
-4.6282277 1.0387701 2.0047636 41
-6.3800907 1.4331328 2.0107758 32
-9.9594841 2.2371581 2.0294569 34
-9.5035744 2.1364913 0.96571779 40
-2.0944352 0.47238004 1.9927584 73
-2.5653648 0.57906544 1.9984947 71
-3.1978836 0.72184438 2.0113168 65
-4.0517569 0.9153294 2.007694 58
nan nan nan 0
-7.798717 1.7646662 2.0192153 15
-10.021893 2.269558 1.5235683 90
-9.5300913 2.1599333 0.48785985 23
-0.030330531 0.0073982729 1.984198 71
-0.30496684 0.07089144 1.9909451 95
-0.37356526 0.085932717 1.8663422 37
-0.42051005 0.096440382 1.4255807 52
-0.80082589 0.18354221 1.9951125 95
-1.0232069 0.23433241 1.9901714 83
-1.3118006 0.30043176 2.0491548 16
-1.5643579 0.35827777 1.9973947 74
-0.1209711 0.02931731 1.9860895 104
-0.21278472 0.05272761 1.9983203 84
-0.37340727 0.086384766 1.512157 36
-0.68858796 0.15907849 1.9760692 87
-0.90768081 0.20953873 1.9891212 90
-1.1782173 0.27199963 2.0480678 31
-1.4063525 0.32467139 1.9852921 87
-1.72875 0.39910534 2.0016804 36
-1.8954616 0.43202204 1.9902295 73
-2.3144457 0.52752316 1.9957631 60
-2.9455168 0.67190313 2.0653841 14
-3.5907068 0.81908154 2.0135961 27
-4.6289086 1.0567582 2.0066366 38
-6.374795 1.4565073 2.0107758 32
-9.9556093 2.2764783 2.0303895 32
-9.5050116 2.1751888 0.96661025 41
-2.0926058 0.48041862 1.9927584 75
-2.5631225 0.58891147 1.9984947 71
-3.1992903 0.73508346 2.0138493 65
-4.0482125 0.93088025 2.007694 60
-4.4554391 1.0253406 1.6794608 2
-7.7966199 1.7956889 2.0203876 14
-10.023158 2.3084979 1.524948 90
-9.5221109 2.1948483 0.48785985 70
-0.030304521 0.0075041009 1.984198 71
-0.30471754 0.071955539 1.9909451 95
-0.37425447 0.087468006 1.8712374 37
-0.42017084 0.097907655 1.4255807 52
-0.80018038 0.18633649 1.9951125 93
-1.0223827 0.23790266 1.9901714 83
-1.3107438 0.30500901 2.0491548 16
-1.5630977 0.36373621 1.9973947 76
-0.12086803 0.0297394 1.9860895 104
-0.21259937 0.053470042 1.9983203 84
-0.3743279 0.087975539 1.5169963 37
-0.68802851 0.16148116 1.9760692 87
-0.90698093 0.21254756 1.9891212 90
-1.1722305 0.27471507 2.039536 31
-1.4052681 0.32933325 1.9852921 84
-1.727417 0.40483588 2.0016804 37
-1.893942 0.4386358 1.9902295 75
-2.3125901 0.53559887 1.9957631 60
-2.9431534 0.68218082 2.0653841 14
-3.587826 0.8316105 2.0135961 48
-4.6251922 1.0729097 2.0066366 38
-6.3649993 1.4776659 2.0093668 33
-9.9480047 2.3094797 2.0303895 31
-9.4880428 2.2044423 0.96571779 41
-2.0910013 0.48735532 1.9927584 75
-2.5611553 0.59740782 1.9984947 71
-3.1968348 0.74568862 2.0138493 65
-4.0451031 0.94429952 2.007694 59
-4.4290214 1.0347378 1.6712472 2
-7.7906222 1.8215336 2.0203876 13
-10.024683 2.3457277 1.5263276 91
-9.5241194 2.2303514 0.48826292 69
-0.030278143 0.0076098377 1.984198 71
-0.30446449 0.073018767 1.9909451 95
-0.37394691 0.088773862 1.8712374 37
-0.42127988 0.099717818 1.4303524 52
-0.79952508 0.1891285 1.9951125 93
-1.0215461 0.24146998 1.9901714 85
-1.3096712 0.3095825 2.0491548 16
-1.5618185 0.36919022 1.9973947 78
-0.12076348 0.030161126 1.9860895 104
-0.21241145 0.054211825 1.9983203 84
-0.37401852 0.089281648 1.5169963 37
-0.6874606 0.16388182 1.9760692 91
-0.90623349 0.21571222 1.9891212 90
-1.1661903 0.27759731 2.0310042 31
-1.40411 0.33423653 1.9852921 84
-1.7259934 0.41086322 2.0016804 37
-1.8923993 0.44524422 1.9902295 75
-2.3107064 0.54366803 1.9957631 62
-2.9407539 0.69245017 2.0653841 14
-3.5849011 0.84412926 2.0135961 61
-4.621419 1.089048 2.0066366 53
-6.3598022 1.4998748 2.0093668 32
-9.9398832 2.3441906 2.0303895 28
-9.4802904 2.2375484 0.96571779 38
-2.0892875 0.49465132 1.9927584 73
-2.5590544 0.60634434 1.9984947 71
-3.1942124 0.75684315 2.0138493 67
-4.0373664 0.95736659 2.0055959 39
-4.5218744 1.0730903 1.7057437 3
-7.7842164 1.8487167 2.0203876 13
-10.030888 2.3841414 1.528397 93
-9.5211372 2.2647395 0.48846447 77
-0.030251393 0.0077154823 1.984198 71
-0.30420777 0.074081093 1.9909451 95
-0.37363473 0.090078637 1.8712374 37
-0.42092922 0.10118775 1.4303524 50
-0.79885995 0.19191821 1.9951125 91
-1.0206969 0.24503437 1.9901714 81
-1.3113186 0.31480908 2.0532877 15
-1.5605203 0.37463972 1.9973947 74
-0.12065747 0.030582486 1.9860895 104
-0.21222092 0.054952946 1.9983203 84
-0.37492698 0.090883084 1.5218356 37
-0.6868844 0.16628051 1.9760692 89
-0.90547502 0.21887425 1.9891212 90
-1.1601441 0.28044075 2.0224724 32
-1.4029347 0.33913577 1.9852921 84
-1.7245487 0.41688558 2.0016804 38
-1.8908335 0.45184723 1.9902295 75
-2.3087945 0.55173057 1.9957631 62
-2.9383192 0.70271111 2.0653841 14
-3.5776236 0.85560721 2.0112782 61
-4.6175895 1.1051732 2.0066366 51
-6.3545284 1.5220656 2.0093668 32
-9.9268618 2.3777289 2.0294569 28
-9.4724226 2.270627 0.96571779 33
-2.087548 0.5019412 1.9927584 75
-2.5569224 0.61527336 1.9984947 71
-3.1915512 0.76798838 2.0138493 65
-4.0339999 0.97145385 2.0055959 39
nan nan nan 0
-7.7777157 1.8758775 2.0203876 13
-10.032132 2.4214652 1.5297767 93
-9.5180302 2.299134 0.488666 84
-0.030224279 0.0078210318 1.984198 71
-0.30394733 0.075142533 1.9909451 96
-0.37331805 0.091382317 1.8712374 37
-0.42057344 0.10265645 1.4303524 50
-0.79818523 0.19470558 1.9951125 93
-1.0198355 0.24859576 1.9901714 81
-1.3102119 0.31938455 2.0532877 15
-1.5592031 0.38008466 1.9973947 74
-0.12054998 0.031003471 1.9860895 104
-0.2120278 0.055693407 1.9983203 86
-0.37460747 0.092191271 1.5218356 37
-0.6862998 0.16867717 1.9760692 87
-0.90470546 0.2220336 1.9891212 92
-1.1540924 0.28324538 2.0139403 32
-1.4017423 0.34403086 1.9852921 84
-1.7197905 0.42209476 1.9980052 40
-1.8892449 0.45844468 1.9902295 75
-2.3068547 0.55978638 1.9957631 64
-2.9358482 0.71296346 2.0653841 13
-3.5746152 0.86809027 2.0112782 60
-4.6137037 1.1212848 2.0066366 51
-6.3538375 1.5453714 2.0107758 34
-9.9137297 2.4112043 2.0285242 26
-9.4547615 2.3013229 0.96482545 32
-2.0857832 0.50922507 1.9927584 75
-2.554759 0.62419492 1.9984947 69
-3.1888509 0.77912426 2.0138493 65
-4.0305843 0.98552918 2.0055959 41
-5.2115149 1.2752466 1.9554318 8
-7.7711205 1.9030154 2.0203876 13
-10.033237 2.4588263 1.5311563 95
-9.529355 2.3371041 0.48947209 73
-0.030196793 0.0079264864 1.984198 71
-0.30368319 0.076203048 1.9909451 95
-0.37299678 0.09268488 1.8712374 37
-0.42021257 0.10412391 1.4303524 50
-0.79750073 0.19749059 1.9951125 95
-1.0189614 0.25215414 1.9901714 81
-1.3118206 0.32463208 2.0574207 16
-1.5578668 0.38552499 1.9973947 73
-0.12044102 0.031424079 1.9860895 104
-0.21183211 0.056433182 1.9983203 88
-0.37428337 0.093498334 1.5218356 37
-0.68570679 0.17107178 1.9760692 87
-0.90392488 0.22519027 1.9891212 92
-1.150566 0.28664169 2.0096743 32
-1.400533 0.34892175 1.9852921 84
-1.7183067 0.42809537 1.9980052 49
-1.887633 0.46503663 1.9902295 73
-2.3048866 0.56783545 1.9957631 64
-2.9374013 0.724208 2.0681257 13
-3.571563 0.88056266 2.0112782 60
-4.6097612 1.1373827 2.0066366 52
-6.3484044 1.567541 2.0107758 34
-9.9004822 2.4446177 2.0275917 25
-9.4563389 2.3367012 0.96571779 31
-2.0839932 0.51650274 1.9927584 75
-2.5525646 0.63310891 1.9984947 69
-3.1861119 0.79025072 2.0138493 60
-4.0315247 1.0006859 2.007694 59
-5.2253647 1.2979842 1.9620026 9
-7.7644305 1.9301301 2.0203876 12
-10.034205 2.4962254 1.5325359 96
-9.5211391 2.3703532 0.48947209 72
-0.030168939 0.0080318451 1.984198 71
-0.30341533 0.077262633 1.9909451 95
-0.37365824 0.094235405 1.8761326 37
-0.41984656 0.10559008 1.4303524 48
-0.79680645 0.20027319 1.9951125 95
-1.0180751 0.25570944 1.9901714 81
-1.3106794 0.32920924 2.0574207 17
-1.5565116 0.3909606 1.9973947 73
-0.1206104 0.031918865 1.9910811 104
-0.21163383 0.057172269 1.9983203 86
-0.37395471 0.094804257 1.5218356 37
-0.6851055 0.17346431 1.9760692 87
-0.90313333 0.22834419 1.9891212 92
-1.1445013 0.28937751 2.0011425 30
-1.3993064 0.3538084 1.9852921 87
-1.7168018 0.43409073 1.9980052 57
-1.8859984 0.47162282 1.9902295 73
-2.3028905 0.57587755 1.9957631 64
-2.9348555 0.73445702 2.0681257 12
-3.5684676 0.89302438 2.0112782 61
-4.605763 1.1534668 2.0066366 52
-6.3428941 1.5896915 2.0107758 35
-9.8871241 2.4779675 2.026659 22
-9.4481249 2.3696959 0.96571779 29
-2.0821774 0.52377403 1.9927584 73
-2.550339 0.64201516 1.9984947 69
-3.1833339 0.80136752 2.0138493 37
-4.0280066 1.0147525 2.007694 58
-5.1337976 1.2942816 1.9307915 4
-7.7576461 1.9572213 2.0203876 11
-10.035033 2.5336604 1.5339155 96
-9.5321827 2.4084692 0.49027824 52
-0.03014072 0.008137105 1.984198 71
-0.3031438 0.078321278 1.9909451 93
-0.37332702 0.095539138 1.8761326 37
-0.41947541 0.10705498 1.4303524 48
-0.79610252 0.20305334 1.9951125 93
-1.0171763 0.25926164 1.9901714 81
-1.3122492 0.33447739 2.0615535 17
-1.5551375 0.39639145 1.9973947 76
-0.12049825 0.032339677 1.9910811 104
-0.21143298 0.057910662 1.9983203 86
-0.37362152 0.096109018 1.5218356 37
-0.68449581 0.1758547 1.9760692 91
-0.90233076 0.23149531 1.9891212 92
-1.1409582 0.29272267 1.9968767 28
-1.3980628 0.35869074 1.9852921 84
-1.7152761 0.44008085 1.9980052 68
-1.8843404 0.4782033 1.9902295 75
-2.3008661 0.58391261 1.9957631 64
-2.9322739 0.74469715 2.0681257 12
-3.5653288 0.90547526 2.0112782 61
-4.6062016 1.170679 2.0085096 51
-6.3373065 1.6118227 2.0107758 35
-9.8736534 2.5112543 2.0257263 24
-9.4639273 2.4088037 0.96794891 26
-2.0839546 0.53196263 1.9960833 75
-2.5480826 0.6509136 1.9984947 69
-3.1763401 0.81140745 2.0113168 19
-4.0244403 1.0288066 2.007694 58
-5.1292486 1.312194 1.9307915 3
-7.7460575 1.9830831 2.0192153 12
-10.040521 2.572361 1.535985 94
-9.6543818 2.4752283 0.49571958 46
-0.030112132 0.0082422663 1.984198 71
-0.30286855 0.079378977 1.9909451 93
-0.37299123 0.096841715 1.8761326 37
-0.41909915 0.10851856 1.4303524 52
-0.79538888 0.20583101 1.9951125 93
-1.016265 0.26281065 1.9901714 81
-1.3110735 0.33905596 2.0615535 17
-1.5537443 0.40181747 1.9973947 76
-0.12038463 0.032760099 1.9910811 104
-0.21122953 0.058648348 1.9983203 86
-0.37328374 0.097412616 1.5218356 37
-0.68387777 0.17824298 1.9760692 91
-0.90151721 0.23464361 1.9891212 92
-1.1399295 0.29670355 1.9968767 28
-1.3968023 0.36356869 1.9852921 84
-1.7137295 0.4460656 1.9980052 71
-1.8826597 0.48477799 1.9902295 71
-2.2988141 0.59194058 1.9957631 64
-2.9296565 0.75492817 2.0681257 12
-3.5621464 0.91791499 2.0112782 61
-4.602087 1.1867505 2.0085096 47
-6.3316417 1.6339341 2.0107758 35
-9.8648272 2.5457044 2.0257263 23
-9.65798 2.4941235 0.98668975 14
-2.0820849 0.53923374 1.9960833 75
-2.5457947 0.65980417 1.9984947 71
-3.1734886 0.8224901 2.0113168 19
-4.0208244 1.0428483 2.007694 57
-5.3440447 1.3870375 2.0096405 4
-7.7343836 2.0088878 2.018043 13
-10.041065 2.609885 1.5373646 94
-9.9019394 2.575568 0.5064007 53
-0.030083179 0.0083473269 1.984198 71
-0.30258963 0.080435701 1.9909451 92
-0.37363553 0.098402523 1.8810278 37
-0.4187178 0.10998083 1.4303524 50
-0.79466558 0.20860618 1.9951125 93
-1.0153415 0.26635647 1.9901714 81
-1.309882 0.3436304 2.0615535 17
-1.5523322 0.4072386 1.9973947 78
-0.12026954 0.033180118 1.9910811 105
-0.21102354 0.059385315 1.9983203 84
-0.37294146 0.09871503 1.5218356 37
-0.68325144 0.18062907 1.9760692 91
-0.90069264 0.23778909 1.9891212 92
-1.1363652 0.30001509 1.9926107 29
-1.3955246 0.36844224 1.9852921 87
-1.712162 0.45204493 1.9980052 74
-1.8844067 0.49224815 1.9937341 71
-2.2967339 0.59996134 1.9957631 64
-2.9270034 0.76515001 2.0681257 12
-3.5589204 0.93034369 2.0112782 61
-4.5979166 1.2028075 2.0085096 47
-6.3258991 1.6560258 2.0107758 35
-9.8558807 2.5801234 2.0257263 22
-9.6492138 2.5278206 0.98668975 8
-2.0801899 0.5464983 1.9960833 73
-2.5434761 0.66868657 1.9984947 71
-3.170598 0.83356255 2.0113168 36
-4.0171599 1.0568773 2.007694 57
-5.3391705 1.4056832 2.0096405 4
-7.7226238 2.0346353 2.0168707 14
-10.041471 2.6474435 1.5387442 92
-10.04747 2.6509008 0.51284975 94
-0.030053858 0.008452286 1.984198 71
-0.30230701 0.081491441 1.9909451 90
-0.37328979 0.099706143 1.8810278 37
-0.41688818 0.11105723 1.4255807 48
-0.7939325 0.21137883 1.9951125 95
-1.0120906 0.26928306 1.9857829 81
-1.3113942 0.34892425 2.0656867 17
-1.5509013 0.41265476 1.9973947 78
-0.12015299 0.033599734 1.9910811 105
-0.21081495 0.06012157 1.9983203 84
-0.37259462 0.10001624 1.5218356 37
-0.68261677 0.18301295 1.9760692 93
-0.89985716 0.24093163 1.9891212 92
-1.135311 0.3039799 1.9926107 29
-1.3942301 0.37331128 1.9852921 84
-1.7105736 0.45801875 1.9980052 74
-1.8826768 0.49882293 1.9937341 75
-2.2946255 0.60797477 1.9957631 66
-2.9243147 0.77536249 2.0681257 12
-3.5513694 0.94162565 2.0089602 62
-4.5757661 1.2140942 2.0010173 37
-6.3200803 1.6780972 2.0107758 36
-9.8420668 2.6132507 2.0247936 20
nan nan nan 0
-2.0782697 0.55375624 1.9960833 75
-2.5411267 0.67756081 1.9984947 71
-3.1676691 0.84462488 2.0113168 64
-4.0222163 1.0732335 2.0118899 58
-5.3387942 1.4255302 2.0112832 5
-7.7060823 2.0590701 2.0145259 14
-10.041738 2.6850374 1.5401238 91
-10.057459 2.6911221 0.51365584 96
-0.030024171 0.0085571427 1.984198 71
-0.3020207 0.082546197 1.9909451 93
-0.37392226 0.10127483 1.8859231 37
-0.41649795 0.11251175 1.4255807 48
-0.79318982 0.21414886 1.9951125 95
-1.0111443 0.27281427 1.9857829 81
-1.3101681 0.35349974 2.0656867 17
-1.5494514 0.41806591 1.9973947 78
-0.12003497 0.034018945 1.9910811 106
-0.2106038 0.060857084 1.9983203 84
-0.3722432 0.10131623 1.5218356 37
-0.68197381 0.18539463 1.9760692 89
-0.89901066 0.24407126 1.9891212 92
-1.134243 0.30794102 1.9926107 30
-1.3929186 0.37817577 1.9852921 84
-1.7089645 0.46398696 1.9980052 78
-1.8809242 0.50539166 1.9937341 75
-2.2924891 0.61598086 1.9957631 64
-2.9256287 0.78665125 2.0708671 13
-3.5480611 0.95401645 2.0089602 62
-4.0835404 1.0987631 1.7968569 3
-6.3095522 1.6989011 2.0093668 36
-9.8328848 2.6475902 2.0247936 20
-10.059293 2.7104354 1.0264024 70
-2.076324 0.56100732 1.9960833 75
-2.5387459 0.686427 1.9984947 71
-3.1647015 0.85567701 2.0113168 65
-4.0140648 1.0860817 2.0097921 56
-5.3337855 1.4441574 2.0112832 6
-7.689465 2.0834148 2.0121813 14
-10.041862 2.7226651 1.5415035 93
-10.043182 2.7249045 0.51345432 96
-0.029994119 0.0086618941 1.984198 71
-0.30098197 0.083392292 1.9860058 93
-0.37356645 0.10257946 1.8859231 37
-0.41610268 0.11396492 1.4255807 48
-0.79243755 0.21691629 1.9951125 95
-1.0101858 0.27634218 1.9857829 81
-1.3116404 0.35881346 2.0698195 17
-1.5479826 0.42347199 1.9973947 76
-0.11991549 0.034437738 1.9910811 106
-0.21039009 0.06159186 1.9983203 80
-0.37309974 0.10294963 1.5266747 37
-0.68132246 0.18777402 1.9760692 89
-0.89815319 0.24720789 1.9891212 90
-1.1331612 0.31189841 1.9926107 30
-1.39159 0.38303566 1.9852921 87
-1.704066 0.46904984 1.99433 80
-1.8791487 0.51195425 1.9937341 75
-2.2903252 0.62397933 1.9957631 66
-2.9228649 0.79685891 2.0708671 14
-3.5361607 0.96406513 2.004324 61
nan nan nan 0
-6.3035836 1.720915 2.0093668 33
-9.8235826 2.6818969 2.0247936 20
-10.04977 2.7455323 1.0264024 70
-2.074353 0.56825167 1.9960833 75
-2.5363345 0.69528466 1.9984947 71
-3.1616955 0.86671865 2.0113168 65
-3.9971185 1.0964849 2.0034976 38
-5.3332653 1.4640168 2.0129259 6
-7.6727724 2.1076686 2.0098369 14
-10.041848 2.7603264 1.5428832 95
-10.052878 2.7652457 0.51426047 88
-0.029963698 0.0087665394 1.984198 71
-0.30068907 0.084442414 1.9860058 93
-0.37418702 0.10415596 1.8908184 37
-0.41570234 0.1154167 1.4255807 44
-0.79167545 0.21968111 1.9951125 95
-1.0115236 0.28050691 1.9901714 81
-1.31038 0.36338973 2.0698195 17
-1.546495 0.42887285 1.9973947 76
-0.11979455 0.034856111 1.9910811 107
-0.2101738 0.06232588 1.9983203 82
-0.37273812 0.10425136 1.5266747 37
-0.68066287 0.19015114 1.9760692 89
-0.89728481 0.25034153 1.9891212 90
-1.1320655 0.31585199 1.9926107 31
-1.3902444 0.38789091 1.9852921 84
-1.7024183 0.47499532 1.99433 80
-1.8773502 0.51851058 1.9937341 75
-2.2881331 0.63197029 1.9957631 66
-2.9240956 0.80817062 2.0736086 14
-3.5285037 0.97522247 2.0020061 44
-3.7764027 1.0444475 1.6713637 2
-6.2975378 1.7429081 2.0093668 18
-9.8141623 2.7161713 2.0247936 19
-10.054525 2.7845836 1.0277411 75
-2.0723569 0.57548904 1.9960833 75
-2.5338919 0.70413387 1.9984947 71
-3.1586506 0.87774968 2.0113168 65
-3.8926966 1.0824646 1.9552425 16
nan nan nan 0
-7.6606855 2.1331346 2.0086646 9
-10.041693 2.7980206 1.5442629 91
-10.043165 2.8003199 0.51426047 88
-0.029932916 0.0088710804 1.984198 71
-0.30039245 0.085491501 1.9860058 95
-0.37382114 0.10546147 1.8908184 37
-0.41529691 0.11686707 1.4255807 46
-0.79090381 0.22244324 1.9951125 95
-1.0105383 0.2840361 1.9901714 81
-1.3091036 0.36796162 2.0698195 17
-1.5449885 0.43426856 1.9973947 74
-0.11967215 0.035274059 1.9910811 107
-0.20995496 0.063059144 1.9983203 82
-0.37237191 0.10555184 1.5266747 37
-0.67999494 0.19252594 1.9760692 89
-0.89640552 0.25347209 1.9891212 90
-1.1309562 0.31980169 1.9926107 32
-1.388882 0.39274135 1.9852921 84
-1.7007499 0.48093492 1.99433 81
-1.8755288 0.52506059 1.9937341 75
-2.285913 0.63995355 1.9957631 64
-2.9252832 0.81950063 2.07635 24
-3.508014 0.98275292 1.9927338 28
-2.9960265 0.83988565 1.3454559 4
-6.3006535 1.7674714 2.0121851 13
-9.809351 2.7517395 2.0257263 12
-10.054331 2.8223553 1.0286335 79
-2.066741 0.58170766 1.9927584 75
-2.5314186 0.71297455 1.9984947 71
-3.1555674 0.8887701 2.0113168 65
-3.8364744 1.0812719 1.9300659 14
-2.9685264 0.83720815 1.1620151 5
-7.6485152 2.1585422 2.0074921 7
-10.041396 2.8357475 1.5456424 69
-10.023712 2.8326426 0.51385736 73
-0.029901769 0.0089755114 1.984198 71
-0.30083874 0.086755015 1.9909451 96
-0.37345076 0.10676571 1.8908184 37
-0.41488644 0.11831601 1.4255807 48
-0.79012257 0.22520266 1.9951125 95
-1.0095407 0.28756177 1.9901714 81
-1.3105174 0.37329996 2.0739524 17
-1.5434632 0.43965891 1.9973947 74
-0.11954829 0.035691578 1.9910811 107
-0.20973358 0.063791633 1.9983203 84
-0.37321013 0.10719834 1.5315139 37
-0.67931879 0.1948984 1.9760692 91
-0.8955152 0.25659961 1.9891212 92
-1.1298329 0.32374752 1.9926107 33
-1.3875026 0.39758709 1.9852921 84
-1.6990606 0.48686874 1.99433 83
-1.8736845 0.53160423 1.9937341 75
-2.2836652 0.64792895 1.9957631 64
-2.9264274 0.83084887 2.0790915 32
-3.4832535 0.98894238 1.9811436 18
-2.9930763 0.8503387 1.3454559 4
-6.2990599 1.790766 2.0135944 11
-9.7996855 2.7859635 2.0257263 10
-10.03484 2.8547091 1.0277411 52
-2.0646977 0.58891845 1.9927584 75
-2.5289142 0.72180647 1.9984947 71
-3.1524458 0.89977968 2.0113168 67
-3.8501329 1.0996428 1.9384581 14
-2.9610453 0.84626734 1.1603724 4
-7.640934 2.1852274 2.0074921 6
-10.021914 2.8680563 1.5442629 24
nan nan nan 0
-0.029870253 0.0090798326 1.984198 71
-0.30053407 0.087804615 1.9909451 95
-0.37405378 0.10835204 1.8957136 37
-0.41447094 0.11976351 1.4255807 46
-0.78933156 0.22795933 1.9951125 95
-1.0085307 0.29108396 1.9901714 83
-1.3092065 0.3778722 2.0739524 17
-1.5419191 0.44504392 1.9973947 76
-0.11942297 0.036108661 1.9910811 108
-0.20950961 0.064523354 1.9983203 84
-0.37283367 0.10850043 1.5315139 37
-0.68029147 0.19775021 1.980762 93
-0.8946141 0.25972399 1.9891212 92
-1.128696 0.32768941 1.9926107 34
-1.3861063 0.40242797 1.9852921 84
-1.6973509 0.49279663 1.99433 83
-1.8718175 0.53814131 1.9937341 75
-2.285131 0.65697205 1.9989008 66
-2.9235094 0.84105885 2.0790915 33
-3.4797802 1.0010951 1.9811436 18
-4.3666821 1.2570732 1.9242231 8
-6.3019905 1.8153988 2.0164127 15
-9.7899017 2.8201542 2.0257263 8
-9.9578209 2.8704085 1.021494 25
-2.0626295 0.59612191 1.9927584 75
-2.5263793 0.73062968 1.9984947 71
-3.1492858 0.91077834 2.0113168 67
-3.8855076 1.1244303 1.9573406 15
-3.0624034 0.88681024 1.1981541 7
-7.6332598 2.2118859 2.0074921 10
-10.030867 2.9085379 1.547022 22
-9.6678295 2.8051014 0.4997502 15
-0.029838379 0.0091840439 1.984198 71
-0.30022576 0.088853136 1.9909451 95
-0.37367326 0.10965706 1.8957136 37
-0.41405031 0.12120956 1.4255807 46
-0.78853112 0.2307132 1.9951125 95
-1.0075085 0.29460263 1.9901714 83
-1.3078794 0.38243991 2.0739524 18
-1.5403563 0.45042354 1.9973947 76
-0.1192962 0.036525305 1.9910811 108
-0.20928311 0.065254286 1.9983203 84
-0.37245268 0.10980121 1.5315139 37
-0.67959702 0.2001237 1.980762 93
-0.89370209 0.26284519 1.9891212 92
-1.1275452 0.33162731 1.9926107 35
-1.3846931 0.40726393 1.9852921 84
-1.6956203 0.49871847 1.99433 83
-1.8699276 0.54467195 1.9937341 75
-2.2828236 0.66494459 1.9989008 64
-2.9245701 0.85242885 2.0818331 17
-3.2636037 0.95125073 1.8652424 9
-4.4156733 1.2878845 1.9466994 8
-6.3094301 1.8414178 2.0206404 7
-9.775281 2.8529336 2.0247936 8
-9.8808146 2.8856051 1.0152471 19
-2.0605361 0.60331827 1.9927584 75
-2.5238137 0.7394439 1.9984947 71
-3.1460874 0.9217658 2.0113168 65
-3.838007 1.1252179 1.93636 12
-3.0411634 0.89217705 1.1915834 6
-7.6254921 2.2385175 2.0074921 10
-9.8971148 2.9072456 1.5290868 29
-9.657979 2.8388314 0.4997502 7
-0.029806137 0.0092881434 1.984198 71
-0.29991376 0.089900583 1.9909451 93
-0.37426415 0.11125097 1.9006088 37
-0.4136247 0.12265413 1.4255807 48
-0.78772092 0.23346429 1.9951125 93
-1.006474 0.2981177 1.9901714 83
-1.3065366 0.38700292 2.0739524 19
-1.5387745 0.45579761 1.9973947 76
-0.11916798 0.036941506 1.9910811 108
-0.20905405 0.06598442 1.9983203 84
-0.37327233 0.11146062 1.5363531 37
-0.67889434 0.2024947 1.980762 91
-0.89277905 0.2659632 1.9891212 90
-1.1263807 0.33556113 1.9926107 36
-1.383263 0.41209492 1.9852921 84
-1.6938691 0.5046342 1.99433 83
-1.8680149 0.55119592 1.9937341 75
-2.2804885 0.67290908 1.9989008 66
-2.9215767 0.86263239 2.0818331 12
-3.2475164 0.95887345 1.8582883 9
-4.4600568 1.3177397 1.9673029 8
-6.3075647 1.8647906 2.0220494 5
-9.7652636 2.8870385 2.0247936 15
-9.7942743 2.8974743 1.0081078 19
-2.0584176 0.61050719 1.9927584 73
-2.5212171 0.74824911 1.9984947 71
-3.1428509 0.93274206 2.0113168 65
nan nan nan 0
-3.0380306 0.90278721 1.1915834 6
-7.6222901 2.2665071 2.0086646 8
-9.7682438 2.9064679 1.5118414 65
-9.6384344 2.8696754 0.49934715 5
-0.029773533 0.0093921302 1.984198 71
-0.29959813 0.090946928 1.9909451 93
-0.37387356 0.11255671 1.9006088 37
-0.41319403 0.1240972 1.4255807 48
-0.78690118 0.23621254 1.9951125 93
-1.0031327 0.30094075 1.9857829 81
-1.3051777 0.39156124 2.0739524 23
-1.5371741 0.46116617 1.9973947 76
-0.11903831 0.037357252 1.9910811 108
-0.20882246 0.066713758 1.9983203 84
-0.372881 0.1127629 1.5363531 37
-0.67818338 0.20486325 1.980762 91
-0.89184523 0.26907796 1.9891212 92
-1.1252025 0.33949089 1.9926107 38
-1.3818161 0.4169209 1.9852921 84
-1.6920972 0.51054388 1.99433 83
-1.8660796 0.55771309 1.9937341 75
-2.2781258 0.68086535 1.9989008 66
-2.9185479 0.87282532 2.0818331 12
-3.129549 0.93593067 1.7957015 7
-3.0475318 0.91198182 1.3735515 3
-6.3377824 1.897806 2.033323 5
-9.7504196 2.9196987 2.0238609 27
-9.7793293 2.9302156 1.0076616 57
-2.0562739 0.61768872 1.9927584 73
-2.51859 0.75704521 1.9984947 71
-3.1395757 0.94370705 2.0113168 67
-3.0564368 0.91929841 1.5629067 7
-3.0212941 0.90930343 1.1866553 7
-7.6282949 2.2973046 2.0121813 6
-9.7675219 2.9434059 1.513221 58
-9.7192392 2.9307063 0.50317621 5
-0.029740568 0.0094960015 1.984198 71
-0.29927883 0.09199217 1.9909451 95
-0.37445232 0.11415811 1.905504 37
-0.41275835 0.12553875 1.4255807 46
-0.7860719 0.23895788 1.9951125 93
-1.0020761 0.3044405 1.9857829 81
-1.3064954 0.39693278 2.0780854 25
-1.5355551 0.46652913 1.9973947 76
-0.11890717 0.037772547 1.9910811 109
-0.20858832 0.067442276 1.9983203 84
-0.37248507 0.11406381 1.5363531 37
-0.67746407 0.20722929 1.980762 91
-0.89090061 0.27218941 1.9891212 92
-1.1215166 0.34265447 1.9883448 39
-1.3803525 0.42174175 1.9852921 84
-1.6903049 0.51644725 1.99433 83
-1.8641213 0.56422359 1.9937341 75
-2.2757354 0.68881345 1.9989008 66
-2.9194851 0.88421965 2.0845745 12
-3.0626633 0.92758667 1.7609313 7
-3.0221467 0.91589117 1.3641863 7
-6.344892 1.9240942 2.0375507 6
-9.7448702 2.955142 2.0247936 23
-9.7738075 2.96578 1.0081078 64
-2.0541053 0.62486267 1.9927584 75
-2.5159321 0.76583213 1.9984947 71
-3.1362627 0.95466036 2.0113168 67
-3.0097933 0.91673785 1.5419261 6
-3.00455 0.91571391 1.1817273 6
-7.6434755 2.3310082 2.018043 5
-9.7619247 2.9789281 1.5139109 57
-9.6802816 2.9558611 0.50196707 5
-0.02970724 0.0095997583 1.984198 73
-0.29895592 0.093036287 1.9909451 95
-0.37405154 0.1154645 1.905504 37
-0.4123176 0.12697878 1.4255807 46
-0.78523302 0.24170034 1.9951125 91
-1.0010073 0.30793652 1.9857829 81
-1.3051018 0.4014909 2.0780854 31
-1.5339172 0.47188637 1.9973947 73
-0.1187746 0.038187377 1.9910811 110
-0.20835163 0.068169974 1.9983203 86
-0.37208465 0.11536333 1.5363531 37
-0.67673665 0.20959282 1.980762 93
-0.88994503 0.27529761 1.9891212 92
-1.1203135 0.34656721 1.9883448 46
-1.3788718 0.42655757 1.9852921 84
-1.6917305 0.5233463 1.9980052 81
-1.8621405 0.57072711 1.9937341 75
-2.2733169 0.69675297 1.9989008 64
-2.9163806 0.89440513 2.0845745 12
-3.2203555 0.98763233 1.8490162 10
-3.0144992 0.92507488 1.3623133 7
-6.4023409 1.965945 2.0572793 2
-9.7673674 2.9992337 2.0313222 14
-9.7729168 3.0028045 1.0090003 51
-2.0519116 0.632029 1.9927584 75
-2.5132434 0.7746098 1.9984947 69
-3.1287911 0.96433246 2.0087843 67
-3.0282595 0.93392605 1.5524164 6
-3.0058477 0.9275887 1.18337 6
-7.6492257 2.3619769 2.02156 5
-9.7798548 3.0217566 1.5180497 68
-9.6508121 2.983731 0.50116092 6
-0.02967355 0.0097033968 1.984198 71
-0.29862931 0.094079264 1.9909451 95
-0.37461805 0.11707329 1.9103992 37
-0.41187188 0.12841727 1.4255807 44
-0.78438449 0.24443986 1.9951125 95
-0.99992639 0.31142884 1.9857829 81
-1.3036925 0.4060441 2.0780854 33
-1.5353215 0.4781912 2.0012317 73
-0.11864058 0.038601745 1.9910811 110
-0.20811239 0.068896845 1.9983203 86
-0.37287977 0.11703821 1.5411923 38
-0.67600089 0.2119538 1.980762 93
-0.88897866 0.27840242 1.9891212 92
-1.1190971 0.3504757 1.9883448 58
-1.3773744 0.43136811 1.9852921 84
-1.6898934 0.52924836 1.9980052 81
-1.860137 0.57722372 1.9937341 75
-2.2671533 0.70353043 1.9957631 66
-2.9132409 0.9045797 2.0845745 12
-3.3692019 1.046162 1.9324652 15
-2.9979701 0.93146521 1.3566941 5
-6.3862777 1.9854331 2.054461 2
-9.7709103 3.0376847 2.0341198 9
-9.7766409 3.041338 1.0103388 37
-2.0496929 0.63918769 1.9927584 75
-2.5143826 0.78458184 2.0014381 69
-3.125406 0.97524804 2.0087843 64
-3.0683036 0.95801765 1.5733969 5
-2.9980841 0.93666714 1.1817273 8
-7.6641302 2.3959148 2.0274215 4
-9.7881536 3.0617905 1.5208091 54
nan nan nan 0
-0.029639497 0.009806918 1.984198 71
-0.2982991 0.095121101 1.9909451 93
-0.37420711 0.11838023 1.9103992 37
-0.41142112 0.1298542 1.4255807 44
-0.78352642 0.24717636 1.9951125 95
-1.0011179 0.31563768 1.9901714 83
-1.3049511 0.41143861 2.0822184 36
-1.533643 0.48354754 2.0012317 74
-0.11850511 0.039015647 1.9910811 110
-0.20787062 0.069622867 1.9983203 82
-0.37246895 0.11833909 1.5411923 37
-0.67525691 0.2143122 1.980762 93
-0.89007729 0.28216192 1.9936218 92
-1.1153805 0.35359174 1.9840788 67
-1.3758603 0.43617341 1.9852921 87
-1.6880356 0.53514397 1.9980052 83
-1.8581107 0.58371329 1.9937341 75
-2.2646837 0.71143997 1.9957631 66
-2.9100654 0.9147433 2.0845745 12
-3.369756 1.0592449 1.9347832 15
-2.9947004 0.94192439 1.3566941 5
-6.2877874 1.9789096 2.0262771 7
-9.769619 3.0747225 2.0359852 8
-9.7802162 3.0799339 1.0116775 32
-2.0474494 0.64633852 1.9927584 75
-2.5116286 0.79335392 2.0014381 71
-3.1178715 0.98485321 2.0062518 50
-2.9480982 0.93179214 1.5167495 5
-3.0038013 0.94997466 1.1850127 7
-7.6649885 2.425586 2.0297663 3
-9.8057337 3.1049082 1.524948 27
-9.2677898 2.9363523 0.48584458 9
-0.029646263 0.0099247489 1.9891979 71
-0.29796526 0.096161775 1.9909451 93
-0.37379161 0.11968573 1.9103992 37
-0.40954265 0.13083494 1.420809 44
-0.78265887 0.24990986 1.9951125 95
-1.00001 0.3191303 1.9901714 81
-1.303507 0.41599122 2.0822184 38
-1.5319457 0.48889801 2.0012317 78
-0.1183682 0.039429069 1.9910811 110
-0.20762633 0.070348047 1.9983203 82
-0.37325099 0.12002366 1.5460315 38
-0.6745047 0.21666798 1.980762 93
-0.8890869 0.28526714 1.9936218 93
-1.1141397 0.357483 1.9840788 75
-1.3743294 0.4409734 1.9852921 84
-1.6861573 0.54103309 1.9980052 83
-1.8560619 0.59019572 1.9937341 69
-2.2621868 0.71934086 1.9957631 64
-2.9108396 0.92616367 2.087316 13
-3.4082549 1.0844337 1.9579635 22
-3.0134816 0.95940417 1.3660593 8
-6.3036957 2.0081265 2.033323 5
-9.7869081 3.1177518 2.0415809 4
-9.7836399 3.1185915 1.0130161 20
-2.0451806 0.65348154 1.9927584 73
-2.5088439 0.80211627 2.0014381 69
-3.1144147 0.99573064 2.0062518 44
-2.9275367 0.93654561 1.5083573 4
-3.0004668 0.96045411 1.1850127 7
-2.971947 0.95189667 0.84338087 8
-9.8136978 3.1451628 1.5277071 21
-9.2574835 2.9686852 0.48584458 9
-0.029611442 0.010028172 1.9891979 73
-0.29762778 0.097201288 1.9909451 92
-0.37434018 0.12130376 1.9152945 37
-0.40908343 0.13226372 1.420809 44
-0.78178173 0.25264034 1.9951125 93
-0.99888992 0.32261908 1.9901714 81
-1.3020468 0.42053875 2.0822184 39
-1.5271791 0.49325716 1.9973947 78
-0.11822984 0.039842006 1.9910811 111
-0.20737951 0.071072377 1.9983203 82
-0.37282977 0.12132582 1.5460315 38
-0.67374426 0.21902113 1.980762 93
-0.88808572 0.28836888 1.9936218 92
-1.1128849 0.36136988 1.9840788 77
-1.3727818 0.445768 1.9852921 84
-1.6842586 0.54691553 1.9980052 83
-1.8539904 0.59667099 1.9937341 67
-2.2596617 0.72723293 1.9957631 64
-2.9036086 0.93503696 2.0845745 13
-3.4466178 1.1099037 1.9811436 27
-2.8953891 0.93295044 1.3173604 9
nan nan nan 0
nan nan nan 0
-9.7821722 3.1557817 1.0139085 13
-2.0428872 0.66061658 1.9927584 73
-2.5060289 0.81086892 2.0014381 64
-3.1068182 1.0052686 2.0037196 44
-2.9242496 0.94675899 1.5083573 4
-2.9926035 0.96946651 1.18337 8
-2.9639821 0.96076608 0.8422085 9
-9.8356352 3.1900954 1.5325359 13
-9.2898312 3.0148609 0.48765835 9
-0.029576255 0.010131475 1.9891979 71
-0.29728666 0.098239608 1.9909451 93
-0.37391445 0.1226097 1.9152945 37
-0.40861928 0.13369088 1.420809 44
-0.78089511 0.25536773 1.9951125 93
-0.99775767 0.3261039 1.9901714 81
-1.300571 0.42508122 2.0822184 42
-1.525448 0.49858505 1.9973947 78
-0.11836396 0.040348355 1.9960728 111
-0.20713016 0.071795829 1.9983203 84
-0.37240398 0.1226265 1.5460315 38
-0.67297566 0.22137161 1.980762 91
-0.88500488 0.29078734 1.9891212 92
-1.1116167 0.36525241 1.9840788 83
-1.3712174 0.45055723 1.9852921 87
-1.6791184 0.55173308 1.99433 83
-1.8518964 0.60313904 1.9937341 75
-2.2571096 0.7351163 1.9957631 62
-2.8844247 0.93998438 2.0736086 13
-3.2531748 1.0601571 1.8768326 12
-2.8877075 0.94161445 1.3154874 8
nan nan nan 0
-2.7179177 0.88677472 0.63425708 7
-9.7805662 3.1929996 1.0148009 5
-2.0441177 0.6689049 1.9960833 75
-2.5031834 0.81961167 2.0014381 46
-3.1073873 1.0174489 2.0062518 65
-2.9079883 0.95272171 1.5020633 5
-2.8635516 0.93871665 1.1373748 9
nan nan nan 0
-9.8432598 3.2305858 1.5352951 11
-9.288744 3.0503876 0.4880614 9
-0.02954071 0.010234653 1.9891979 71
-0.29694191 0.099276736 1.9909451 95
