# .PCD v0.7 - Point Cloud Data file format
VERSION 0.7
FIELDS x y z intensity
SIZE 4 4 4 4
TYPE F F F F
COUNT 1 1 1 1
WIDTH 1351
HEIGHT 1
VIEWPOINT 0 0 0 1 0 0 0
POINTS 1351
DATA ascii
2.8931677 -0.19773854 1.9858816 20
3.71857 -0.25415614 2.0367765 31
4.6305189 -0.31729841 1.9635568 39
2.7953777 -0.19203766 0.91301256 61
2.8129959 -0.19324802 0.62679613 88
2.8466148 -0.19605678 0.3486096 35
2.1306911 -0.14823991 1.9827838 77
2.6033726 -0.18158379 1.9837791 34
3.2101841 -0.22391234 1.9758627 27
4.0984678 -0.28659022 1.9867133 52
2.7799892 -0.19488075 1.0585259 32
2.8123741 -0.19764429 0.77069718 90
2.8304605 -0.19941184 0.48746499 36
3.2141149 -0.2270052 0.22365284 85
0.031145921 -0.0027080029 1.9891979 80
0.3121976 -0.023728291 1.9909451 107
0.42798012 -0.031543013 2.0866275 87
0.60456043 -0.04416078 1.9838723 86
0.81551915 -0.059440646 1.9859076 91
1.0445431 -0.07596045 1.9857829 85
1.3001196 -0.094552003 1.9871606 87
1.5942383 -0.11594688 1.9897208 76
0.12373271 -0.010570087 1.9810979 88
0.2183259 -0.019782523 1.9983203 93
0.50637215 -0.037957076 1.9912384 95
0.70820606 -0.052856755 1.9854547 89
0.92682076 -0.068859212 1.9846202 96
1.1616677 -0.086313933 1.975547 91
1.4363693 -0.10673036 1.9813027 89
1.7558199 -0.13047221 1.9869798 80
1.9533262 -0.14000842 2.0042477 37
2.3444307 -0.16804571 1.9769365 67
2.8882892 -0.20753668 1.9831401 26
3.7220786 -0.2674523 2.0390942 31
4.6293836 -0.33346003 1.9635568 39
2.7946901 -0.20179416 0.91301256 31
2.8172033 -0.20341977 0.6277287 86
2.8459132 -0.20599213 0.3486096 35
2.1301606 -0.15567651 1.9827838 75
2.6027229 -0.19067015 1.9837791 33
3.209383 -0.23511662 1.9758627 27
4.0974422 -0.30089477 1.9867133 59
2.7792919 -0.20458357 1.0585259 33
2.811667 -0.20746012 0.77069718 68
2.8346863 -0.20965604 0.48815483 46
3.2182853 -0.23859254 0.22385439 85
0.031136278 -0.0028167057 1.9891979 78
0.3121129 -0.024817921 1.9909451 107
0.42786741 -0.03303675 2.0866275 87
0.60440266 -0.046270821 1.9838723 84
0.81530672 -0.06228698 1.9859076 91
1.0442717 -0.079606116 1.9857829 91
1.2997817 -0.099089682 1.9871606 87
1.593824 -0.12151109 1.9897208 76
0.12369506 -0.01100193 1.9810979 88
0.2182555 -0.020544503 1.9983203 93
0.50498259 -0.039625943 1.9863992 95
0.70801717 -0.055328533 1.9854547 91
0.92657471 -0.072093993 1.9846202 96
1.1613593 -0.090368383 1.975547 91
1.4359878 -0.11174357 1.9813027 89
1.7553538 -0.13660038 1.9869798 81
1.9492694 -0.14655857 2.0007432 37
2.3438296 -0.17622827 1.9769365 67
2.8875473 -0.21761741 1.9831401 37
3.7211223 -0.28044313 2.0390942 31
4.628191 -0.34961757 1.9635568 42
2.7939689 -0.21154824 0.91301256 28
2.8164763 -0.21325243 0.6277287 77
2.8451767 -0.21592498 0.3486096 34
2.1296041 -0.16311121 1.9827838 75
2.6020412 -0.19975418 1.9837791 33
3.2085426 -0.24631801 1.9758627 38
4.0963669 -0.31519568 1.9867133 62
2.7785606 -0.21428385 1.0585259 76
2.8157716 -0.21764798 0.77186948 34
2.8339369 -0.21954967 0.48815483 93
3.222414 -0.25021175 0.22405592 85
0.031126255 -0.0029253745 1.9891979 78
0.31202433 -0.025907246 1.9909451 106
0.42774951 -0.034530081 2.0866275 87
0.60423744 -0.0483803 1.9838723 82
0.81508434 -0.065132551 1.9859076 91
1.0439875 -0.083250828 1.9857829 89
1.2994279 -0.10362618 1.9871606 78
1.5933901 -0.12707385 1.9897208 76
0.1236559 -0.011433639 1.9810979 88
0.21818246 -0.021306232 1.9983203 93
0.50484121 -0.041388419 1.9863992 93
0.70781976 -0.057799637 1.9854547 91
0.92631739 -0.075327903 1.9846202 95
1.1610367 -0.094421729 1.975547 93
1.4355891 -0.11675542 1.9813027 89
1.7548662 -0.14272688 1.9869798 81
1.948746 -0.15336189 2.0007432 38
2.3432002 -0.18440869 1.9769365 67
2.8826013 -0.22736672 1.9803987 38
3.7245374 -0.29377893 2.0414124 31
4.6269422 -0.36577085 1.9635568 42
2.7979956 -0.2216786 0.91442174 28
2.8157146 -0.22308245 0.6277287 49
2.84937 -0.22624938 0.34905583 34
2.1290219 -0.17054392 1.9827838 75
2.5972991 -0.20851231 1.9808358 33
3.2119608 -0.25786144 1.9783952 68
4.095242 -0.32949275 1.9867133 59
2.7730885 -0.22360197 1.0568832 93
2.8149948 -0.22747552 0.77186948 31
2.8331532 -0.22944064 0.48815483 89
3.2314799 -0.26226684 0.22445896 86
0.031115856 -0.0030340077 1.9891979 80
0.311932 -0.026996257 1.9909451 106
0.42762637 -0.036022998 2.0866275 87
0.60406488 -0.050489187 1.9838723 84
0.814852 -0.067977332 1.9859076 91
1.0436906 -0.086894512 1.9857829 89
1.2990582 -0.10816138 1.9871606 78
1.5929368 -0.13263504 1.9897208 76
0.12361524 -0.01186521 1.9810979 88
0.21810676 -0.022067701 1.9983203 91
0.50469363 -0.043150391 1.9863992 93
0.70761365 -0.060270038 1.9854547 91
0.92604876 -0.078560904 1.9846202 95
1.1607001 -0.098473929 1.975547 91
1.4351728 -0.12176585 1.9813027 89
1.7577351 -0.14913826 1.9906548 81
1.9481988 -0.16016334 2.0007432 38
2.3425424 -0.19258687 1.9769365 67
2.8776231 -0.23708415 1.9776572 35
3.723489 -0.30677822 2.0414124 30
4.6256375 -0.38191968 1.9635568 43
2.797205 -0.23144409 0.91442174 28
2.8198147 -0.23331487 0.62866133 32
2.848563 -0.23619415 0.34905583 34
2.1284137 -0.17797455 1.9827838 75
2.5965552 -0.21757729 1.9808358 38
3.211041 -0.26907167 1.9783952 68
4.0940671 -0.34378582 1.9867133 58
2.7722912 -0.23328049 1.0568832 93
2.8190274 -0.23770876 0.77304178 31
2.8323355 -0.23932879 0.48815483 54
3.2255666 -0.27312368 0.22425744 83
0.031105075 -0.0031426037 1.9891979 80
0.31183586 -0.028084939 1.9909451 106
0.42851233 -0.037604567 2.0915227 85
0.60388494 -0.052597459 1.9838723 84
0.81460977 -0.070821285 1.9859076 93
1.0433809 -0.090537146 1.9857829 89
1.2986727 -0.11269529 1.9871606 87
1.5956578 -0.13847178 1.9935577 71
0.12357307 -0.012296634 1.9810979 88
0.21802841 -0.022828901 1.9983203 91
0.50453997 -0.044911839 1.9863992 91
0.70739901 -0.062739708 1.9854547 89
0.92576897 -0.081792936 1.9846202 95
1.1603494 -0.10252492 1.975547 89
1.434739 -0.1267748 1.9813027 89
1.7572039 -0.15527298 1.9906548 81
1.9476278 -0.16696286 2.0007432 38
2.3418558 -0.20076269 1.9769365 67
2.8726115 -0.24676958 1.9749157 35
3.7268095 -0.32015297 2.0437305 28
4.6242762 -0.39806381 1.9635568 44
2.7963798 -0.24120675 0.91442174 38
2.8189828 -0.24315643 0.62866133 31
2.8477213 -0.24613602 0.34905583 40
2.1315 -0.18572719 1.9861088 75
2.5957801 -0.22663964 1.9808358 48
3.2100823 -0.28027865 1.9783952 68
4.0883212 -0.35767916 1.9846153 55
2.7714598 -0.24295618 1.0568832 93
2.8181803 -0.24754754 0.77304178 31
2.8314826 -0.24921401 0.48815483 34
nan nan nan 0
0.031093916 -0.0032511614 1.9891979 80
0.31173593 -0.029173277 1.9909451 107
0.42837846 -0.039100125 2.0915227 83
0.60369766 -0.054705087 1.9838723 86
0.81435758 -0.07366436 1.9859076 91
1.0430584 -0.094178669 1.9857829 89
1.2954687 -0.11697473 1.9830275 87
1.5951648 -0.14404084 1.9935577 71
0.1235294 -0.012727911 1.9810979 88
0.21794739 -0.023589823 1.9983203 93
0.50438011 -0.046672743 1.9863992 93
0.70717567 -0.065208606 1.9854547 89
0.92547774 -0.085023969 1.9846202 95
1.1599844 -0.10657468 1.975547 91
1.437289 -0.13205796 1.9852921 89
1.7566513 -0.16140582 1.9906548 81
1.9470332 -0.17376034 2.0007432 37
2.3411405 -0.20893608 1.9769365 67
2.8717327 -0.25679538 1.9749157 43
3.7300823 -0.3335546 2.0460486 27
4.622858 -0.41420314 1.9635568 44
2.795521 -0.25096646 0.91442174 92
2.8230095 -0.25343424 0.62959397 31
2.8468447 -0.25607494 0.34905583 37
2.1308386 -0.19316639 1.9861088 75
2.5909479 -0.23533361 1.9778926 39
3.2090845 -0.29148224 1.9783952 68
4.0870476 -0.37194791 1.9846153 54
2.7705951 -0.25262889 1.0568832 93
2.8172991 -0.25738332 0.77304178 31
2.8355269 -0.25954765 0.4888446 33
nan nan nan 0
0.031082377 -0.0033596796 1.9891979 78
0.31163222 -0.030261261 1.9909451 106
0.42823938 -0.040595211 2.0915227 87
0.60350305 -0.056812052 1.9838723 86
0.8140955 -0.076506555 1.9859076 91
1.0427233 -0.097819053 1.9857829 87
1.2950525 -0.12149604 1.9830275 84
1.5946523 -0.14960812 1.9935577 73
0.12348421 -0.01315903 1.9810979 86
0.21786372 -0.024350457 1.9983203 93
0.50546616 -0.048553407 1.9912384 93
0.70694381 -0.067676708 1.9854547 89
0.92517537 -0.088253975 1.9846202 95
1.1596054 -0.11062314 1.975547 91
1.4368193 -0.13707423 1.9852921 91
1.7560772 -0.16753671 1.9906548 81
1.9428636 -0.18022625 1.9972385 37
2.3403971 -0.21710691 1.9769365 67
2.8708189 -0.26681802 1.9749157 64
3.7333059 -0.34698293 2.0483663 27
4.6213841 -0.4303374 1.9635568 44
2.7946279 -0.26072314 0.91442174 92
2.8221076 -0.26328686 0.62959397 31
2.8508916 -0.26647416 0.34950203 32
2.1301513 -0.20060323 1.9861088 75
2.5901103 -0.24437626 1.9778926 36
3.2080472 -0.30268225 1.9783952 68
4.0812058 -0.38578498 1.9825172 54
2.7696962 -0.26229852 1.0568832 93
2.8163836 -0.26721597 0.77304178 31
2.8346038 -0.26944387 0.4888446 33
2.8495219 -0.27136377 0.20914263 93
0.03107046 -0.003468157 1.9891979 78
0.31152469 -0.031348877 1.9909451 106
0.42809507 -0.042089794 2.0915227 85
0.60330105 -0.058918327 1.9838723 86
0.81382346 -0.079347812 1.9859076 91
1.0447599 -0.10169034 1.9901714 89
1.2946205 -0.12601587 1.9830275 84
1.5909296 -0.15486299 1.9897208 74
0.12343753 -0.013589991 1.9810979 88
0.21777739 -0.025110796 1.9983203 93
0.50529361 -0.050317518 1.9912384 95
0.70670319 -0.070143998 1.9854547 87
0.92486167 -0.091482908 1.9846202 96
1.159212 -0.11467024 1.975547 91
1.436332 -0.14208885 1.9852921 91
1.7554816 -0.17366552 1.9906548 81
1.9422227 -0.18700702 1.9972385 37
2.3396251 -0.2252751 1.9769365 66
2.8698699 -0.27683741 1.9749157 66
3.7320719 -0.36001247 2.0483663 26
4.619854 -0.44646639 1.9635568 43
2.7937007 -0.27047661 0.91442174 93
2.8211715 -0.27313626 0.62959397 31
2.8499441 -0.27642402 0.34950203 31
2.1294382 -0.20803763 1.9861088 75
2.5892415 -0.25341594 1.9778926 36
3.2069712 -0.3138786 1.9783952 68
4.0798345 -0.40002868 1.9825172 55
2.7734637 -0.27242664 1.0585259 93
2.8154337 -0.27704534 0.77304178 64
2.8336458 -0.27933687 0.4888446 33
2.8535292 -0.28179982 0.20934415 35
0.031058166 -0.0035765918 1.9891979 80
0.31218618 -0.032516789 1.9958843 104
0.42794552 -0.043583866 2.0915227 85
0.60309172 -0.06102388 1.9838723 86
0.81354147 -0.082188107 1.9859076 91
1.0443985 -0.10533661 1.9901714 87
1.2941728 -0.13053417 1.9830275 87
1.5903794 -0.16041543 1.9897208 74
0.12338934 -0.014020786 1.9810979 86
0.21768841 -0.025870828 1.9983203 93
0.50636607 -0.052210093 1.9960775 95
0.7064541 -0.072610423 1.9854547 87
0.92453676 -0.094710715 1.9846202 96
1.1588048 -0.11871595 1.975547 91
1.4358273 -0.14710172 1.9852921 89
1.7548647 -0.17979226 1.9906548 81
1.9380096 -0.19343132 1.9937341 37
2.3388245 -0.23344055 1.9769365 60
2.8688862 -0.28685346 1.9749157 66
3.7352011 -0.37347844 2.0506845 25
4.6136546 -0.46212789 1.9616836 43
2.7927394 -0.2802268 0.91442174 92
2.8202004 -0.28298232 0.62959397 31
2.8489616 -0.28637052 0.34950203 31
2.1286988 -0.21546948 1.9861088 73
2.5883412 -0.26245254 1.9778926 44
3.2058561 -0.3250711 1.9783952 68
4.0784135 -0.41426751 1.9825172 58
2.772496 -0.28210619 1.0585259 93
2.8144495 -0.28687134 0.77304178 92
2.8326538 -0.28922641 0.4888446 34
2.847558 -0.29125041 0.20914263 32
0.031045493 -0.0036849836 1.9891979 80
0.31207076 -0.033606324 1.9958843 104
0.42779076 -0.045077413 2.0915227 85
0.60287505 -0.063128695 1.9838723 84
0.8113066 -0.084824197 1.9813049 90
1.0440245 -0.10898161 1.9901714 87
1.2937093 -0.13505089 1.9830275 87
1.5898098 -0.16596591 1.9897208 76
0.12333965 -0.014451409 1.9810979 86
0.21759677 -0.026630543 1.9983203 93
0.5061807 -0.053977322 1.9960775 95
0.70448035 -0.074893489 1.980762 89
0.92420048 -0.097937368 1.9846202 96
1.1609768 -0.12303509 1.979813 93
1.435305 -0.15211278 1.9852921 91
1.7542264 -0.18591678 1.9906548 81
1.9373225 -0.20019504 1.9937341 37
2.3379953 -0.24160314 1.9769365 39
2.8678675 -0.29686597 1.9749157 66
3.7338746 -0.38651448 2.0506845 25
4.6120133 -0.47822976 1.9616836 43
2.7917445 -0.28997359 0.91442174 92
2.8191957 -0.29282495 0.62959397 31
2.8528984 -0.29682887 0.34994826 32
2.127934 -0.22289872 1.9861088 73
2.5874093 -0.27148595 1.9778926 66
3.2047017 -0.33625963 1.9783952 68
4.0769424 -0.42850134 1.9825172 58
2.7761908 -0.29227671 1.0601686 93
2.8134308 -0.29669389 0.77304178 92
2.8365514 -0.29963267 0.48953444 34
2.846524 -0.30118847 0.20914263 32
0.031032439 -0.0037933299 1.9891979 78
0.31195158 -0.034695446 1.9958843 106
0.42763084 -0.046570405 2.0915227 85
0.60116613 -0.065071948 1.9791006 86
0.81100559 -0.087655671 1.9813049 86
1.0436376 -0.11262527 1.9901714 87
1.2932299 -0.13956596 1.9830275 87
1.5892208 -0.17151436 1.9897208 74
0.12328845 -0.014881857 1.9810979 86
0.21750247 -0.027389936 1.9983203 93
0.50598925 -0.055743892 1.9960775 95
0.70421463 -0.077352136 1.980762 89
0.92385298 -0.10116284 1.9846202 96
1.1605402 -0.12708689 1.979813 93
1.4347653 -0.157122 1.9852921 91
1.7535669 -0.19203903 1.9906548 81
1.9366119 -0.20695636 1.9937341 38
2.3371377 -0.24976279 1.9769365 31
2.8668134 -0.30687487 1.9749157 66
3.7369077 -0.40001732 2.0530026 24
4.6103158 -0.49432579 1.9616836 43
2.7954853 -0.30022907 0.91583097 92
2.8181565 -0.30266395 0.62959397 32
2.851845 -0.30678555 0.34994826 31
2.1271427 -0.23032524 1.9861088 73
2.5824275 -0.2800802 1.9749495 71
3.2035084 -0.34744409 1.9783952 66
4.07091 -0.44223976 1.9804192 57
2.7751536 -0.30196562 1.0601686 93
2.81721 -0.30703938 0.77421409 90
2.8354881 -0.30953228 0.48953444 34
2.8504217 -0.31166592 0.20934415 29
0.031019008 -0.0039016302 1.9891979 80
0.31182852 -0.035784151 1.9958843 106
0.42746568 -0.048062831 2.0915227 85
0.60093528 -0.067170016 1.9791006 84
0.81069469 -0.090486072 1.9813049 86
1.0432383 -0.11626756 1.9901714 87
1.292735 -0.14407933 1.9830275 84
1.5886124 -0.17706072 1.9897208 76
0.12323575 -0.015312123 1.9810979 89
0.21740556 -0.028148992 1.9983203 93
0.50579154 -0.057509787 1.9960775 95
0.70394033 -0.079809822 1.980762 89
0.92349422 -0.10438707 1.9846202 96
1.1600896 -0.13113718 1.979813 91
1.4342082 -0.16212931 1.9852921 91
1.7528857 -0.19815895 1.9906548 83
1.9358778 -0.21371512 1.9937341 38
2.3362515 -0.2579194 1.9769365 31
2.8698812 -0.31733966 1.9776572 61
3.7354887 -0.41305912 2.0530026 22
4.608562 -0.51041573 1.9616836 41
2.7944202 -0.30998531 0.91583097 92
2.8170826 -0.31249931 0.62959397 75
2.8507564 -0.31673849 0.34994826 30
2.1263258 -0.23774895 1.9861088 60
2.5814342 -0.28909284 1.9749495 71
3.202276 -0.35862431 1.9783952 66
4.0693412 -0.45644718 1.9804192 54
2.7740824 -0.3116509 1.0601686 93
2.8161209 -0.3168714 0.77421409 92
2.8343906 -0.31942812 0.48953444 34
2.8542807 -0.32217419 0.20954567 29
0.0310052 -0.0040098829 1.9891979 80
0.31170174 -0.03687242 1.9958843 106
0.42729527 -0.049554672 2.0915227 81
0.60069722 -0.069267258 1.9791006 82
0.8103739 -0.09331537 1.9813049 88
1.0428261 -0.11990843 1.9901714 89
1.2922242 -0.14859094 1.9830275 87
1.5879847 -0.18260494 1.9897208 76
0.12318155 -0.015742201 1.9810979 89
0.21730599 -0.028907711 1.9983203 93
0.50558776 -0.059274979 1.9960775 95
0.70365751 -0.082266547 1.980762 89
0.92312425 -0.10761003 1.9846202 96
1.1596247 -0.13518584 1.979813 91
1.4336334 -0.16713464 1.9852921 91
1.7521833 -0.20427647 1.9906548 83
1.93512 -0.22047131 1.9937341 37
2.3353372 -0.26607287 1.9769365 38
2.8646014 -0.32688138 1.9749157 61
3.734024 -0.42609587 2.0530026 22
4.6067524 -0.52649957 1.9616836 42
2.7933211 -0.31973779 0.91583097 92
2.8208554 -0.32288954 0.6305266 88
2.8545811 -0.32725474 0.35039446 30
2.1254833 -0.24516976 1.9861088 54
2.5804093 -0.29810196 1.9749495 73
3.2010047 -0.36980015 1.9783952 66
4.0677233 -0.47064906 1.9804192 53
2.777669 -0.32187593 1.0618113 93
2.8149974 -0.32669955 0.77421409 90
2.8332584 -0.32932001 0.48953444 34
2.8581014 -0.33271325 0.20974723 28
0.030991014 -0.0041180868 1.9891979 80
0.31079984 -0.037866082 1.9909451 105
0.42711967 -0.051045913 2.0915227 81
0.60193485 -0.071539983 1.9838723 82
0.81198329 -0.096373841 1.9859076 88
1.0424012 -0.12354784 1.9901714 87
1.2916976 -0.15310073 1.9830275 87
1.5873376 -0.18814693 1.9897208 76
0.12312585 -0.016172091 1.9810979 88
0.21720374 -0.029666074 1.9983203 93
0.50412905 -0.060888555 1.9912384 95
0.7050792 -0.084928684 1.9854547 91
0.92274296 -0.11083168 1.9846202 95
1.1591458 -0.13923286 1.979813 89
1.4330412 -0.17213795 1.9852921 91
1.7514597 -0.21039148 1.9906548 83
1.9343387 -0.2272248 1.9937341 37
2.3343942 -0.27422309 1.9769365 50
2.8634429 -0.33687872 1.9749157 66
3.7325139 -0.43912745 2.0530026 17
4.6048861 -0.54257685 1.9616836 43
2.7921879 -0.32948637 0.91583097 92
2.819711 -0.3327342 0.6305266 88
2.8534212 -0.33721709 0.35039446 30
2.1246145 -0.25258759 1.9861088 38
2.5793529 -0.30710748 1.9749495 71
3.1996944 -0.38097149 1.9783952 68
4.0660553 -0.48484516 1.9804192 53
2.7765281 -0.33156988 1.0618113 90
2.8138399 -0.33652377 0.77421409 90
2.8320913 -0.33920792 0.48953444 35
2.8618829 -0.34328282 0.20994875 28
0.03097645 -0.0042262408 1.9891979 78
0.31066579 -0.038950745 1.9909451 104
0.42693892 -0.052536525 2.0915227 83
0.60168147 -0.073640697 1.9838723 84
0.81164187 -0.099207602 1.9859076 90
1.0419636 -0.12718575 1.9901714 87
1.2911553 -0.15760866 1.9830275 87
1.5866711 -0.19368663 1.9897208 76
0.12306865 -0.01660178 1.9810979 88
0.21709886 -0.030424077 1.9983203 93
0.5039134 -0.062647924 1.9912384 95
0.70477849 -0.08738935 1.9854547 91
0.92018932 -0.1137847 1.9801195 95
1.1586528 -0.14327818 1.979813 89
1.4324318 -0.17713915 1.9852921 89
1.7507147 -0.21650393 1.9906548 83
1.9335335 -0.2339755 1.9937341 36
2.3334227 -0.28236997 1.9769365 67
2.8622494 -0.34687197 1.9749157 66
3.7265604 -0.4516207 2.0506845 17
4.6029649 -0.55864763 1.9616836 43
2.7957828 -0.33980969 0.91724014 92
2.8234086 -0.34316745 0.63145918 88
2.852227 -0.34717533 0.35039446 30
2.1237197 -0.26000232 1.9861088 38
2.5782654 -0.31610924 1.9749495 71
3.1983452 -0.39213818 1.9783952 68
4.0643382 -0.49903539 1.9804192 54
2.7847285 -0.34241244 1.0650967 49
2.8126481 -0.34634385 0.77421409 93
2.8308902 -0.34909171 0.48953444 92
2.8606672 -0.35327056 0.20994875 28
0.03096151 -0.0043343431 1.9891979 78
0.31052792 -0.040034931 1.9909451 104
0.42675295 -0.054026499 2.0915227 83
0.60142076 -0.075740509 1.9838723 86
0.81129062 -0.10204016 1.9859076 93
1.0391363 -0.13052352 1.9857829 87
1.2905972 -0.16211468 1.9830275 89
1.5891662 -0.19962354 1.9935577 76
0.12300994 -0.017031269 1.9810979 88
0.21699135 -0.031181708 1.9983203 93
0.50369167 -0.064406529 1.9912384 93
0.70446914 -0.089848958 1.9854547 91
0.91978645 -0.11699606 1.9801195 95
1.1555583 -0.14699262 1.975547 91
1.4318047 -0.18213819 1.9852921 89
1.749948 -0.22261374 1.9906548 81
1.9327052 -0.24072337 1.9937341 36
2.3324227 -0.29051343 1.9769365 67
2.8610213 -0.35686094 1.9749157 67
3.724961 -0.46462607 2.0506845 18
4.6009865 -0.57471156 1.9616836 40
2.7945795 -0.34956673 0.91724014 92
2.8221936 -0.35302091 0.63145918 88
2.8509977 -0.35712937 0.35039446 30
2.1227992 -0.26741391 1.9861088 39
2.5771461 -0.3251071 1.9749495 71
3.1969569 -0.40330011 1.9783952 68
4.0625715 -0.51321959 1.9804192 55
2.7835162 -0.35213086 1.0650967 49
2.8114223 -0.35615969 0.77421409 90
2.8296542 -0.35897124 0.48953444 95
2.864373 -0.36388364 0.21015027 27
0.030903092 -0.0044355891 1.984198 80
0.31038627 -0.041118633 1.9909451 104
0.42656174 -0.055515818 2.0915227 81
0.60115272 -0.077839397 1.9838723 84
0.81092948 -0.10487147 1.9859076 91
1.0386744 -0.13414997 1.9857829 85
1.2928144 -0.16697919 1.9871606 84
1.5884596 -0.20516953 1.9935577 74
0.12294975 -0.017460551 1.9810979 88
0.21635306 -0.031860501 1.993349 93
0.5034638 -0.066164352 1.9912384 93
0.70415127 -0.092307471 1.9854547 91
0.9193725 -0.120206 1.9801195 95
1.1550382 -0.15102537 1.975547 91
1.4311601 -0.187135 1.9852921 91
1.7491603 -0.22872083 1.9906548 81
1.9318531 -0.24746829 1.9937341 35
2.3313944 -0.2986533 1.9769365 67
2.8597581 -0.36684561 1.9749157 67
3.7233164 -0.47762579 2.0506845 17
4.5989523 -0.59076846 1.9616836 40
2.7981007 -0.35993156 0.91864938 90
2.8209441 -0.36287004 0.63145918 89
2.8546729 -0.36771524 0.35084066 30
2.1218529 -0.27482224 1.9861088 46
2.5759957 -0.33410105 1.9749495 71
3.1955295 -0.41445711 1.9783952 68
4.0607553 -0.52739745 1.9804192 58
2.7775872 -0.36123595 1.063454 57
2.8101618 -0.36597124 0.77421409 90
2.8283842 -0.36884636 0.48953444 95
2.863085 -0.37387994 0.21015027 26
0.030888211 -0.0045380429 1.984198 78
0.3102482 -0.042147689 1.9909451 104
0.4263753 -0.056930047 2.0915227 81
0.60089123 -0.079832464 1.9838723 82
0.81057727 -0.10756003 1.9859076 91
1.0382237 -0.1375936 1.9857829 85
1.2922535 -0.17126541 1.9871606 84
1.5877705 -0.21043593 1.9935577 74
0.12289429 -0.017846722 1.9810979 88
0.21625189 -0.032540031 1.993349 91
0.50325346 -0.067745693 1.9912384 91
0.70385778 -0.094519161 1.9854547 89
0.92112714 -0.12354361 1.9846202 96
1.1545311 -0.15485479 1.975547 91
1.4305317 -0.19187987 1.9852921 91
1.7484332 -0.23421486 1.9906548 81
1.9310218 -0.2538732 1.9937341 35
2.3303914 -0.30638289 1.9769365 67
2.858526 -0.37632686 1.9749157 66
3.7173197 -0.4893918 2.0483663 17
4.5970736 -0.60521358 1.9616836 45
2.7969561 -0.36872026 0.91864938 58
2.819725 -0.37222266 0.63145918 89
2.8534379 -0.37717971 0.35084066 34
2.1209297 -0.28185704 1.9861088 52
2.5748737 -0.34264156 1.9749495 71
3.1942117 -0.42449409 1.9783952 68
4.0545797 -0.5395534 1.9783211 58
nan nan nan 0
2.8138165 -0.37544066 0.77538645 90
2.8272114 -0.37773019 0.48953444 93
2.8618965 -0.38287273 0.21015027 26
0.030872185 -0.0046458356 1.984198 78
0.31009918 -0.043230396 1.9909451 105
0.42617399 -0.058418024 2.0915227 79
0.60060894 -0.081929475 1.9838723 82
0.81019688 -0.11038882 1.9859076 93
1.0377371 -0.14121686 1.9857829 85
1.2916478 -0.17577519 1.9871606 80
1.5870262 -0.21597701 1.9935577 74
0.12282805 -0.018297033 1.9810979 88
0.21613117 -0.033332419 1.993349 93
0.50300175 -0.069589756 1.9912384 93
0.70350665 -0.097098298 1.9854547 89
0.9206903 -0.1267582 1.9846202 96
1.1539835 -0.15888393 1.975547 91
1.4298532 -0.1968722 1.9852921 89
1.7475631 -0.24062163 1.9906548 81
1.9301239 -0.26061219 1.9937341 35
2.3293076 -0.31451559 1.9769365 67
2.8571949 -0.38630271 1.9749157 66
3.7111986 -0.50177115 2.0460486 17
4.5948248 -0.62205863 1.9616836 46
2.7955859 -0.37896913 0.91864938 58
2.818409 -0.38206303 0.63145918 86
2.8521037 -0.38713777 0.35084066 86
2.1236329 -0.28976357 1.9894335 52
2.5736618 -0.35162741 1.9749495 71
3.1926343 -0.43619859 1.9783952 68
4.0525751 -0.55441052 1.9783211 55
nan nan nan 0
2.8124213 -0.38575131 0.77538645 83
2.830714 -0.3887637 0.49022424 93
2.8654232 -0.39404011 0.21035179 27
0.030855779 -0.004753571 1.984198 78
0.30994642 -0.044312581 1.9909451 105
0.42596745 -0.059905291 2.0915227 79
0.60031933 -0.084025495 1.9838723 84
0.80980664 -0.11321626 1.9859076 93
1.0372379 -0.14483836 1.9857829 87
1.2910265 -0.18028279 1.9871606 78
1.5862628 -0.22151545 1.9935577 74
0.12276343 -0.018725671 1.9810979 88
0.21601349 -0.034086652 1.993349 93
0.50275576 -0.071345136 1.9912384 93
0.70316333 -0.099553406 1.9854547 91
0.92024219 -0.12997124 1.9846202 96
1.1534219 -0.16291112 1.975547 91
1.4291573 -0.20186211 1.9852921 89
1.7467126 -0.24672027 1.9906548 71
1.9292023 -0.26734796 1.9937341 35
2.3281956 -0.32264447 1.9769365 67
2.855829 -0.39627382 1.9749157 67
3.7050364 -0.51411366 2.0437305 15
4.5926251 -0.63809383 1.9616836 46
2.7942457 -0.38872525 0.91864938 89
2.8219233 -0.39257568 0.63239181 84
2.8556676 -0.39777815 0.35128686 88
2.1226084 -0.29717469 1.9894335 48
2.5724187 -0.36060905 1.9749495 71
3.1910923 -0.44734031 1.9783952 68
4.0506153 -0.56855327 1.9783211 53
5.3598223 -0.75327128 1.9718586 29
2.815871 -0.39624339 0.77655876 39
2.8293397 -0.39864233 0.49022424 93
2.8640301 -0.40403992 0.21035179 27
0.030838996 -0.0048612487 1.984198 78
0.30978984 -0.045394227 1.9909451 104
0.42575577 -0.061391827 2.0915227 81
0.60002232 -0.086120486 1.9838723 84
0.80940646 -0.11604232 1.9859076 91
1.0367259 -0.14845812 1.9857829 87
1.2903892 -0.18478823 1.9871606 87
1.5854799 -0.22705118 1.9935577 71
0.12269732 -0.019154081 1.9810979 88
0.21589321 -0.034840472 1.993349 93
0.50250363 -0.07309965 1.9912384 95
0.7028116 -0.10200729 1.9854547 91
0.91978294 -0.13318267 1.9846202 95
1.1528461 -0.16693631 1.975547 89
1.4284439 -0.20684958 1.9852921 91
1.7491959 -0.25330186 1.99433 59
1.9282575 -0.27408051 1.9937341 35
2.327055 -0.33076942 1.9769365 67
2.8544285 -0.40624011 1.9749157 67
3.6988332 -0.52641928 2.0414124 15
4.5903697 -0.65412116 1.9616836 45
2.792872 -0.39847666 0.91864938 90
2.8205359 -0.40242368 0.63239181 66
2.8542619 -0.40774387 0.35128686 88
2.121558 -0.30458215 1.9894335 46
2.5711443 -0.36958626 1.9749495 73
3.1895115 -0.4584766 1.9783952 69
4.0486059 -0.58268905 1.9783211 53
5.361835 -0.77264959 1.9735013 29
2.8144705 -0.4060702 0.77655876 39
2.8328323 -0.40922421 0.49091408 93
2.8576579 -0.41331965 0.21015027 38
0.030864816 -0.0049764146 1.9891979 80
0.3096295 -0.046475321 1.9909451 104
0.42553887 -0.062877625 2.0915227 81
0.59824038 -0.087997019 1.9791006 82
0.8089965 -0.11886697 1.9859076 91
1.0362015 -0.15207607 1.9857829 85
1.2897364 -0.1892914 1.9871606 87
1.5846776 -0.23258418 1.9935577 71
0.12262972 -0.019582259 1.9810979 88
0.21577027 -0.035593871 1.993349 93
0.50224543 -0.074853271 1.9912384 93
0.70245123 -0.10445994 1.9854547 89
0.91931248 -0.13639252 1.9846202 95
1.1522565 -0.17095947 1.975547 91
1.4277133 -0.21183452 1.9852921 91
1.7483011 -0.25940615 1.99433 39
1.9272889 -0.28080973 1.9937341 35
2.3258865 -0.33889034 1.9769365 67
2.852993 -0.41620144 1.9749157 66
3.688206 -0.53804839 2.0367765 14
4.5926456 -0.67081064 1.9635568 47
2.7962105 -0.40891731 0.92005849 92
2.8191137 -0.4122667 0.63239181 36
2.8528211 -0.41770461 0.35128686 88
2.120482 -0.31198594 1.9894335 42
2.5698385 -0.37855896 1.9749495 73
3.1878915 -0.46960729 1.9783952 68
4.0465469 -0.59681785 1.9783211 55
5.3637767 -0.79205108 1.975144 28
2.8178442 -0.416603 0.77773106 90
2.8362854 -0.41983527 0.49160388 74
nan nan nan 0
0.030846369 -0.0050895065 1.9891979 77
0.30945709 -0.047609858 1.9909451 103
0.42530558 -0.064436875 2.0915227 79
0.5979138 -0.090189092 1.9791006 82
0.80855542 -0.12183129 1.9859076 91
1.0356371 -0.1558729 1.9857829 83
1.289034 -0.19401723 1.9871606 87
1.5838145 -0.23839071 1.9935577 74
0.12255712 -0.020031586 1.9810979 88
0.21616474 -0.036473971 1.9983203 93
0.50196773 -0.07669358 1.9912384 93
0.70206362 -0.10703384 1.9854547 89
0.91878194 -0.13992141 1.9846202 95
1.1515915 -0.17538254 1.975547 91
1.4268892 -0.21731496 1.9852921 91
1.7506436 -0.26662764 1.9980052 26
1.9262468 -0.28787169 1.9937341 37
2.3246288 -0.34741285 1.9769365 67
2.8514483 -0.42665538 1.9749157 66
3.6774459 -0.55025154 2.0321403 14
4.5901566 -0.68763906 1.9635568 46
2.7946932 -0.41916317 0.92005849 92
2.8223679 -0.42381769 0.63332444 31
2.8561208 -0.42939594 0.35173309 85
2.1155763 -0.31956795 1.9861088 40
2.5683661 -0.38842365 1.9749495 73
3.186065 -0.48184443 1.9783952 68
4.0442257 -0.612351 1.9783211 57
5.3606963 -0.81264055 1.975144 28
2.8162239 -0.4274196 0.77773106 93
2.8347275 -0.43022794 0.49160388 35
5.9070778 -0.89757758 0.33469638 11
0.030828416 -0.0051971492 1.9891979 77
0.30928901 -0.048689771 1.9909451 104
0.42507803 -0.065921076 2.0915227 79
0.59759533 -0.092275649 1.9791006 82
0.8081252 -0.12465294 1.9859076 91
1.0350866 -0.15948701 1.9857829 89
1.2883488 -0.19851562 1.9871606 87
1.5829728 -0.24391784 1.9935577 76
0.12248644 -0.020459268 1.9810979 88
0.2160361 -0.037228301 1.9983203 93
0.50169694 -0.078445308 1.9912384 95
0.70168579 -0.10948386 1.9854547 89
0.91831291 -0.14296743 1.9846202 95
1.1535805 -0.17960165 1.979813 91
1.4261608 -0.22204551 1.9852921 91
1.7564493 -0.27347466 2.0053556 26
1.9252301 -0.29459381 1.9937341 35
2.3234017 -0.35552523 1.9769365 67
2.8499417 -0.4366062 1.9749157 67
3.6711233 -0.56241393 2.0298221 14
4.5877285 -0.70365745 1.9635568 46
2.7932129 -0.42891592 0.92005849 90
2.8209469 -0.43317467 0.63332444 31
2.8546813 -0.43886483 0.35173309 54
2.1145048 -0.32658169 1.9861088 39
2.567064 -0.3969385 1.9749495 73
3.1844497 -0.49240711 1.9783952 68
4.0421724 -0.62575877 1.9783211 57
5.3579717 -0.83041281 1.975144 27
2.814791 -0.43675619 0.77773106 93
2.8381021 -0.4408806 0.49229372 31
5.4102497 -0.84141624 0.31454328 16
0.030810088 -0.0053047286 1.9891979 80
0.30911717 -0.049769096 1.9909451 104
0.42484534 -0.067404471 2.0915227 77
0.59726965 -0.094361082 1.9791006 82
0.8076852 -0.12747306 1.9859076 91
1.0345236 -0.16309915 1.9857829 89
1.2876481 -0.20301159 1.9871606 87
1.5821116 -0.24944194 1.9935577 71
0.12241428 -0.020886702 1.9810979 88
0.21590483 -0.037982181 1.9983203 91
0.50142008 -0.08019609 1.9912384 95
0.70129937 -0.11193253 1.9854547 89
0.91780829 -0.14617208 1.9846202 95
1.1529466 -0.18362731 1.979813 89
1.4224007 -0.22654833 1.9813027 89
1.7621799 -0.28067064 2.0127058 31
1.9277133 -0.30186403 1.9972385 35
2.3221467 -0.36363325 1.9769365 67
2.8484004 -0.44655171 1.9749157 67
3.6603847 -0.57385284 2.0251863 14
4.5852442 -0.71966738 1.9635568 46
2.7964382 -0.43940815 0.92146772 90
2.8194177 -0.443019 0.63332444 47
2.8580513 -0.4496007 0.35217929 29
2.1133521 -0.33396068 1.9861088 39
2.5656626 -0.40589681 1.9749495 73
3.1827114 -0.50351989 1.9783952 68
4.0399642 -0.6398648 1.9783211 57
5.3550406 -0.84911054 1.975144 28
2.8132493 -0.44657898 0.77773106 92
2.8365457 -0.45078468 0.49229372 31
5.1704535 -0.82261735 0.3048698 77
0.030749459 -0.0053987233 1.984198 78
0.30895039 -0.05079389 1.9909451 103
0.4246195 -0.068812951 2.0915227 77
0.59842795 -0.096579202 1.9838723 84
0.80725801 -0.13015075 1.9859076 91
1.0339772 -0.16652887 1.9857829 85
1.2869678 -0.20728047 1.9871606 87
1.5812757 -0.25468704 1.9935577 62
0.12234806 -0.021271175 1.9810979 88
0.21578443 -0.03866028 1.9983203 91
0.50116563 -0.081770942 1.9912384 95
0.70094419 -0.11413518 1.9854547 91
0.91731846 -0.14921482 1.9846202 95
1.1523314 -0.18744959 1.979813 89
1.4216417 -0.23126392 1.9813027 89
1.7679821 -0.28729284 2.0200562 37
1.9267018 -0.30825493 1.9972385 37
2.3247719 -0.37194675 1.9800742 66
2.8469038 -0.45599487 1.9749157 66
3.6453383 -0.58388603 2.0182323 13
4.5875382 -0.73480195 1.9654298 46
2.7950437 -0.44819126 0.92146772 92
2.8227832 -0.4531447 0.63425708 88
2.8565445 -0.45907587 0.35217929 29
2.1122329 -0.340967 1.9861088 38
2.5643024 -0.41440263 1.9749495 73
3.1811137 -0.51351625 1.9783952 68
4.0379338 -0.6525535 1.9783211 57
5.3523464 -0.86592966 1.975144 29
2.8118324 -0.45541486 0.77773106 92
2.8351154 -0.45969373 0.49229372 31
5.1678438 -0.83885676 0.3048698 77
0.030730426 -0.0055060256 1.984198 78
0.30877125 -0.051872019 1.9909451 103
0.4243767 -0.07029473 2.0915227 73
0.59808713 -0.098667525 1.9838723 84
0.80679876 -0.1329678 1.9859076 93
1.0333894 -0.17013711 1.9857829 85
1.2890129 -0.21222873 1.9912933 87
1.5803771 -0.26020518 1.9935577 47
0.12226928 -0.021719458 1.9810979 88
0.21564129 -0.03945091 1.9983203 91
0.5008626 -0.083607256 1.9912384 93
0.70052117 -0.1167035 1.9854547 89
0.91679204 -0.15241595 1.9846202 95
1.15167 -0.19147086 1.979813 89
1.4208257 -0.23622498 1.9813027 91
1.77695 -0.29543903 2.0310817 66
1.9291335 -0.3155542 2.0007432 37
2.3234591 -0.38005945 1.9800742 66
2.8452947 -0.46592969 1.9749157 66
3.6345341 -0.59517515 2.0135961 13
4.5848141 -0.75161117 1.9654298 46
2.7933824 -0.45843256 0.92146772 92
2.8211844 -0.46299526 0.63425708 89
2.8549249 -0.46904427 0.35217929 28
2.1110299 -0.34833798 1.9861088 38
2.5628405 -0.4233512 1.9749495 71
3.1792104 -0.52517211 1.9783952 68
4.0355148 -0.66734892 1.9783211 57
5.353796 -0.8863126 1.9767867 31
2.8101442 -0.4657177 0.77773106 92
2.8334117 -0.47008187 0.49229372 32
5.1647339 -0.8577922 0.3048698 84
0.030711021 -0.0056132618 1.984198 78
0.30858827 -0.052949518 1.9909451 103
0.42412874 -0.071775645 2.0915227 75
0.59773904 -0.10075463 1.9838723 84
0.80632973 -0.13578326 1.9859076 93
1.0327893 -0.17374328 1.9857829 85
1.2882642 -0.21672693 1.9912933 87
1.5794591 -0.26572013 1.9935577 32
0.12219272 -0.022146126 1.9810979 88
0.21497752 -0.040104814 1.993349 88
0.50056767 -0.085355088 1.9912384 91
0.70010948 -0.11914806 1.9854547 87
0.9162544 -0.15561523 1.9846202 93
1.1484233 -0.19505301 1.975547 91
1.4229637 -0.24168782 1.9852921 91
1.7859347 -0.30334306 2.0421071 96
1.9280204 -0.32228622 2.0007432 37
2.3221185 -0.38816753 1.9800742 69
2.8436511 -0.47585875 1.9749157 58
3.6193261 -0.60566479 2.0066421 13
4.5821624 -0.76761055 1.9654298 40
2.7917652 -0.46818054 0.92146772 90
2.819551 -0.47284025 0.63425708 89
2.8532698 -0.47900698 0.35217929 28
2.1098011 -0.35570469 1.9861088 38
2.561347 -0.43229458 1.9749495 71
3.1773577 -0.53626645 1.9783952 66
4.0331607 -0.68143141 1.9783211 55
5.3553252 -0.90578288 1.9784293 31
2.8132942 -0.47633553 0.77890337 93
2.8366358 -0.48079702 0.49298352 83
5.1567836 -0.8749795 0.30466828 84
0.030691238 -0.0057204291 1.984198 78
0.30840158 -0.054026365 1.9909451 103
0.42387563 -0.073255695 2.0915227 77
0.59738374 -0.10284052 1.9838723 78
0.80585086 -0.13859704 1.9859076 93
1.0345377 -0.17775303 1.9901714 85
1.2874998 -0.2212225 1.9912933 87
1.578522 -0.27123186 1.9935577 18
0.12211467 -0.022572523 1.9810979 86
0.21483622 -0.040854983 1.993349 88
0.50026667 -0.087101877 1.9912384 93
0.69968939 -0.12159117 1.9854547 87
0.91570568 -0.1588126 1.9846202 92
1.1477356 -0.19906056 1.975547 91
1.4221115 -0.24665341 1.9852921 91
1.7948859 -0.31131339 2.0531328 95
1.9303988 -0.32961455 2.0042477 35
2.3207493 -0.39627087 1.9800742 67
2.8419726 -0.48578206 1.9749157 58
3.6040893 -0.61605567 1.999688 13
4.5840249 -0.78438264 1.9673029 28
2.7948422 -0.47873265 0.92287689 90
2.8178833 -0.48267943 0.63425708 88
2.8515806 -0.48896384 0.35217929 27
2.1085467 -0.36306715 1.9861088 38
2.5598226 -0.44123274 1.9749495 73
3.1754665 -0.54735422 1.9783952 66
4.0307574 -0.69550568 1.9783211 55
5.3567848 -0.92527479 1.980072 31
2.8116143 -0.48615283 0.77890337 92
2.8349402 -0.49069577 0.49298352 92
5.1635427 -0.89468074 0.30507135 85
0.030671084 -0.0058275266 1.984198 78
0.30821112 -0.055102561 1.9909451 103
0.4236173 -0.074734852 2.0915227 77
0.5970211 -0.10492516 1.9838723 77
0.80536211 -0.14140914 1.9859076 91
1.0339108 -0.18136314 1.9901714 87
1.2867198 -0.22571535 1.9912933 87
1.5775656 -0.27674025 1.9935577 18
0.12203512 -0.022998646 1.9810979 88
0.21469229 -0.041604653 1.993349 89
0.49995962 -0.0888476 1.9912384 93
0.69756162 -0.12373137 1.980762 87
0.9151457 -0.16200805 1.9846202 90
1.1470337 -0.20306571 1.975547 89
1.4212418 -0.251616 1.9852921 89
1.8038027 -0.31934988 2.0641582 95
1.9292365 -0.33635089 2.0042477 35
2.3155172 -0.40370077 1.9769365 67
2.8402596 -0.49569941 1.9749157 67
3.5931883 -0.62710905 1.9950519 12
4.5995255 -0.80357033 1.974795 27
2.793154 -0.48848554 0.92287689 90
2.8161812 -0.49251273 0.63425708 88
2.8498564 -0.49891475 0.35217929 27
2.1072664 -0.37042513 1.9861088 38
2.5582666 -0.45016548 1.9749495 73
3.1735363 -0.55843532 1.9783952 68
4.0283055 -0.70957136 1.9783211 55
5.3581734 -0.94478792 1.9817147 32
2.8099 -0.49596426 0.77890337 92
2.8332102 -0.50058854 0.49298352 93
5.1603889 -0.91269928 0.30507135 83
0.030650556 -0.0059345532 1.984198 78
0.3080169 -0.056178082 1.9909451 103
0.42335388 -0.076213099 2.0915227 81
0.59665126 -0.1070085 1.9838723 86
0.80486357 -0.14421952 1.9859076 90
1.0332714 -0.18497106 1.9901714 87
1.2831542 -0.22970958 1.9871606 87
1.5829016 -0.28337526 2.0012317 24
0.12195411 -0.023424488 1.9810979 89
0.21506947 -0.04245789 1.9983203 91
0.49964643 -0.090592243 1.9912384 93
0.69712543 -0.12616557 1.980762 89
0.91457462 -0.16520151 1.9846202 88
1.1463178 -0.20706837 1.975547 91
1.4233208 -0.25711134 1.9892817 78
1.8126857 -0.32745242 2.0751836 97
1.9280506 -0.34308311 2.0042477 34
2.3140938 -0.41178098 1.9769365 69
2.8385119 -0.50561076 1.9749157 67
3.5866156 -0.63887095 1.9927338 12
4.6058202 -0.82124835 1.978541 8
2.7961547 -0.49907547 0.92428613 90
2.8192806 -0.50320315 0.63518965 88
2.8530004 -0.50973547 0.35262549 32
2.1059606 -0.37777862 1.9861088 37
2.5566795 -0.4590928 1.9749495 73
3.1758108 -0.57027161 1.9809276 68
4.025804 -0.72362846 1.9783211 55
5.3594904 -0.96432185 1.9833575 36
2.8129356 -0.5066312 0.78007573 92
2.8314455 -0.51047528 0.49298352 93
5.162087 -0.93159413 0.30527285 83
0.030629653 -0.0060415072 1.984198 78
0.30781892 -0.057252921 1.9909451 103
0.42308524 -0.077690408 2.0915227 77
0.59627408 -0.10909055 1.9838723 84
0.80435526 -0.14702813 1.9859076 88
1.0326195 -0.18857671 1.9901714 85
1.2823445 -0.23418722 1.9871606 87
1.61344 -0.29465863 2.0396011 31
0.1218716 -0.023850046 1.9810979 89
0.21491994 -0.043208361 1.9983203 93
0.49932715 -0.092335783 1.9912384 91
0.69668078 -0.12859821 1.980762 89
0.9139924 -0.16839297 1.9846202 85
1.1481529 -0.2115411 1.979813 91
1.4224147 -0.26207811 1.9892817 63
1.8215337 -0.33562085 2.0862093 100
1.9268414 -0.3498112 2.0042477 34
2.3126423 -0.41985619 1.9769365 67
2.8367298 -0.51551592 1.9749157 67
3.5756462 -0.64980239 1.9880978 16
4.6302919 -0.84229892 1.9897792 4
2.7943959 -0.50883287 0.92428613 39
2.8175073 -0.5130412 0.63518965 89
2.8805997 -0.52504927 0.35530275 22
2.104629 -0.38512748 1.9861088 37
2.5550616 -0.46801442 1.9749495 71
3.1738012 -0.58135372 1.9809276 66
4.023253 -0.73767674 1.9783211 57
5.3607364 -0.98387665 1.985 35
2.8111496 -0.51644707 0.78007573 92
2.8345172 -0.52125144 0.49367332 95
5.1588039 -0.94960743 0.30527285 82
0.030608378 -0.0061483881 1.984198 78
0.30761719 -0.05832706 1.9909451 103
0.42281151 -0.079166785 2.0915227 77
0.59588963 -0.11117128 1.9838723 84
0.80383712 -0.14983498 1.9859076 88
1.0319549 -0.1921801 1.9901714 85
1.2815192 -0.23866202 1.9871606 87
1.6313121 -0.30381072 2.0626228 39
0.12178761 -0.02427531 1.9810979 88
0.2147678 -0.043958306 1.9983203 93
0.49900177 -0.094078191 1.9912384 91
0.69622767 -0.13102929 1.980762 89
0.91339898 -0.17158236 1.9846202 81
1.1474075 -0.21554761 1.979813 89
1.4214911 -0.26704162 1.9892817 38
1.8270149 -0.34322903 2.0935595 100
1.9256085 -0.35653499 2.0042477 34
2.3111627 -0.42792624 1.9769365 67
2.8308017 -0.5246529 1.9721743 67
3.5690002 -0.66147244 1.9857798 17
4.6273241 -0.85845655 1.9897792 4
2.7926025 -0.51858401 0.92428613 28
2.8156991 -0.52287304 0.63518965 89
nan nan nan 0
2.103272 -0.39247167 1.9861088 37
2.5534124 -0.47693041 1.9749495 71
3.1717525 -0.5924288 1.9809276 66
4.0206537 -0.75171602 1.9783211 55
5.3665533 -1.0043206 1.9882855 33
2.8141074 -0.5271517 0.78124797 92
2.8326805 -0.53114259 0.49367332 93
5.160368 -0.96853089 0.3054744 83
0.030629354 -0.0062645338 1.9891979 78
0.30741173 -0.059400488 1.9909451 103
0.42253256 -0.080642186 2.0915227 75
0.59549797 -0.11325064 1.9838723 86
0.80330926 -0.15263996 1.9859076 90
1.0312779 -0.19578113 1.9901714 87
1.283443 -0.24365877 1.9912933 87
1.6554389 -0.31428704 2.0933185 85
0.12170213 -0.02470028 1.9810979 89
0.21409048 -0.04459817 1.993349 91
0.49867037 -0.095819466 1.9912384 91
0.69576603 -0.13345879 1.980762 89
0.91279453 -0.17476968 1.9846202 81
1.1466482 -0.21955149 1.979813 91
1.4235106 -0.27256876 1.9932711 15
1.8291353 -0.35024199 2.0972347 99
1.9243524 -0.36325443 2.0042477 35
2.309655 -0.43599111 1.9769365 67
2.8289533 -0.534531 1.9721743 67
3.5623159 -0.67310393 1.9834617 19
4.6106339 -0.87201911 1.9841602 4
2.7907753 -0.52832884 0.92428613 27
2.8186834 -0.53361225 0.63612229 88
5.2548504 -0.99576157 0.57216078 76
2.1018891 -0.39981106 1.9861088 38
2.5517321 -0.48584062 1.9749495 71
3.1696653 -0.60349673 1.9809276 65
4.0180054 -0.76574612 1.9783211 55
5.3676538 -1.0239321 1.9899282 33
2.8122501 -0.53697151 0.78124797 71
2.8356731 -0.5419569 0.49436313 93
5.1569562 -0.98653805 0.3054744 84
0.030607298 -0.0063714115 1.9891979 78
0.30720249 -0.060473192 1.9909451 103
0.42224851 -0.082116604 2.0915227 78
0.59509897 -0.11532862 1.9838723 84
0.80277151 -0.1554431 1.9859076 91
1.0305882 -0.19937976 1.9901714 87
1.2825845 -0.24813734 1.9912933 78
1.6700695 -0.32310849 2.1125031 66
0.12161516 -0.025124948 1.9810979 88
0.2139335 -0.045345213 1.993349 93
0.49709845 -0.09731783 1.9863992 91
0.69529593 -0.13588667 1.980762 89
0.91217881 -0.17795488 1.9846202 81
1.1458747 -0.22355272 1.979813 91
1.4225503 -0.27753612 1.9932711 15
1.831229 -0.35727391 2.1009099 99
1.9230726 -0.36996946 2.0042477 35
2.3081191 -0.44405064 1.9769365 67
2.8270702 -0.54440266 1.9721743 67
3.5555944 -0.68469691 1.9811436 23
4.5984573 -0.88635308 1.980414 4
2.788914 -0.53806722 0.92428613 27
2.8168035 -0.54344797 0.63612229 88
5.2513423 -1.0140984 0.57216078 74
2.1004806 -0.40714556 1.9861088 38
2.5500205 -0.49474484 1.9749495 69
3.1675394 -0.61455727 1.9809276 62
4.0153084 -0.77976692 1.9783211 53
5.3686829 -1.0435636 1.9915709 32
2.8151298 -0.5477131 0.78242034 31
2.8337641 -0.55185193 0.49436313 93
5.1583843 -1.0054889 0.30567592 82
0.030584872 -0.0064782128 1.9891979 78
0.30698955 -0.06154516 1.9909451 103
0.42195928 -0.083590031 2.0915227 75
0.59469283 -0.11740521 1.9838723 84
0.8022241 -0.15824436 1.9859076 93
1.0298859 -0.20297597 1.9901714 85
1.2817105 -0.25261286 1.9912933 78
1.6689312 -0.32893619 2.1125031 66
0.12152672 -0.025549313 1.9810979 88
0.21377391 -0.046091702 1.993349 93
0.49675572 -0.099052437 1.9863992 89
0.69481736 -0.13831286 1.980762 87
0.91155219 -0.18113789 1.9846202 80
1.1450875 -0.22755119 1.979813 91
1.4186169 -0.28191257 1.9892817 21
1.8166703 -0.36102068 2.0862093 99
1.9217694 -0.37667999 2.0042477 36
2.306555 -0.45210475 1.9769365 67
2.8251524 -0.55426764 1.9721743 67
3.5488358 -0.69625121 1.9788257 29
4.5862374 -0.90061271 1.9766681 5
2.7964332 -0.54964954 0.92710453 32
2.8197093 -0.55422455 0.63705492 86
5.2526565 -1.033384 0.57260698 75
2.0990467 -0.41447514 1.9861088 39
2.5482781 -0.5036431 1.9749495 71
3.1653748 -0.62561029 1.9809276 58
4.0125613 -0.79377824 1.9783211 53
5.3696399 -1.0632145 1.9932135 31
2.8132007 -0.55753642 0.78242034 31
2.8318202 -0.56174022 0.49436313 93
5.1548433 -1.023489 0.30567592 83
0.030562073 -0.0065849344 1.9891979 78
0.30677283 -0.062616378 1.9909451 103
0.42166492 -0.085062437 2.0915227 78
0.59427935 -0.11948036 1.9838723 86
0.80166674 -0.16104367 1.9859076 93
1.0291711 -0.2065697 1.9901714 87
1.280821 -0.25708532 1.9912933 87
1.6614865 -0.33349797 2.1048291 55
0.1214368 -0.025973365 1.9810979 88
0.21361172 -0.046837635 1.993349 93
0.49640694 -0.10078583 1.9863992 89
0.69602156 -0.14108025 1.9854547 87
0.9130488 -0.18475065 1.9891212 80
1.1442862 -0.23154692 1.979813 91
1.417624 -0.28686273 1.9892817 37
1.8021078 -0.36467025 2.0715086 81
1.9204428 -0.38338593 2.0042477 38
2.3049626 -0.4601534 1.9769365 67
2.8232007 -0.5641259 1.9721743 67
3.5420394 -0.70776671 1.9765077 32
4.5785198 -0.91570687 1.974795 6
2.7944973 -0.55940753 0.92710453 48
2.8225741 -0.56502801 0.63798755 84
5.2539001 -1.0526912 0.57305318 75
2.0975871 -0.42179969 1.9861088 39
2.5465045 -0.51253515 1.9749495 71
3.1631718 -0.63665569 1.9809276 55
4.0097666 -0.80777979 1.9783211 55
5.375154 -1.0838184 1.9964989 30
2.8160019 -0.56831449 0.78359264 33
2.8346968 -0.57260227 0.49505296 92
5.156136 -1.0424666 0.30587748 81
0.03054007 -0.0066862451 1.9891979 78
0.3065635 -0.063633338 1.9909451 103
0.42138055 -0.086460255 2.0915227 78
0.59387988 -0.12145039 1.9838723 82
0.80112833 -0.16370122 1.9859076 91
1.0284804 -0.20998143 1.9901714 87
1.2799615 -0.26133129 1.9912933 76
1.6540891 -0.33772311 2.0971551 47
0.12135459 -0.026354741 1.9810979 88
0.21346353 -0.047508478 1.993349 93
0.49608785 -0.10234484 1.9863992 89
0.69557482 -0.14326616 1.9854547 89
0.91243112 -0.18777739 1.9891212 80
1.143512 -0.23534022 1.979813 91
1.413713 -0.29095459 1.9852921 46
1.7909912 -0.36828136 2.060483 81
1.919161 -0.38975221 2.0042477 38
2.3034241 -0.46779439 1.9769365 69
2.8213143 -0.5734849 1.9721743 67
3.5396729 -0.71950865 1.9765077 36
4.5756202 -0.93008626 1.974795 7
nan nan nan 0
2.8206851 -0.57438493 0.63798755 35
5.2503805 -1.0701081 0.57305318 75
2.0998352 -0.42950147 1.9894335 39
2.5447907 -0.52097684 1.9749495 69
3.1611559 -0.64658993 1.9809276 54
4.0072088 -0.82037282 1.9783211 57
5.376349 -1.1016477 1.9981416 32
2.8142028 -0.57715839 0.78359264 55
2.8328838 -0.58150494 0.49505296 93
5.1528358 -1.0586599 0.30587748 81
0.030515356 -0.0067981356 1.9891979 77
0.30632821 -0.064756513 1.9909451 103
0.42106083 -0.088004105 2.0915227 75
0.59343076 -0.12362626 1.9838723 82
0.80052292 -0.16663639 1.9859076 91
1.0277039 -0.21374957 1.9901714 87
1.278995 -0.2660208 1.9912933 65
1.6402854 -0.34117198 2.0818074 49
0.12125251 -0.026820514 1.9810979 88
0.21327955 -0.04832777 1.993349 93
0.49569124 -0.10424893 1.9863992 88
0.69501966 -0.14593591 1.9854547 87
0.91170341 -0.19127947 1.9891212 78
1.1425999 -0.23972924 1.979813 91
1.4125854 -0.2963807 1.9852921 70
1.7729087 -0.37198699 2.0421071 83
1.9177195 -0.39678368 2.0042477 38
2.3016942 -0.47623375 1.9769365 69
2.8191936 -0.58382165 1.9721743 69
3.5370121 -0.73247731 1.9765077 38
4.5720153 -0.94764841 1.974795 7
5.8202786 -1.207438 1.8360356 91
2.8232684 -0.58620995 0.63892013 35
5.2511086 -1.0912735 0.57349938 75
2.0981705 -0.43756109 1.9894335 38
2.5427716 -0.53074425 1.9749495 67
3.158535 -0.65927434 1.9809276 48
4.0038834 -0.83645219 1.9783211 57
5.3765054 -1.1241871 1.9997842 31
2.8118632 -0.58845061 0.78359264 86
2.8306301 -0.59237808 0.49505296 92
5.1536226 -1.0794618 0.306079 81
0.030449023 -0.0068943817 1.984198 77
0.30685991 -0.065988943 1.9958843 103
0.42075107 -0.089473352 2.0915227 75
0.59299558 -0.12569697 1.9838723 82
0.79993641 -0.16942973 1.9859076 91
1.0269516 -0.21733564 1.9901714 87
1.2780585 -0.27048373 1.9912933 42
1.6296753 -0.34490415 2.0702968 66
0.12115815 -0.027243601 1.9810979 88
0.21310954 -0.049071964 1.993349 93
0.49655429 -0.10624181 1.9912384 88
0.69450605 -0.14836109 1.9854547 87
0.91106403 -0.19430175 1.9891212 78
1.1417987 -0.24351694 1.979813 89
1.4086472 -0.30043471 1.9813027 84
1.7716655 -0.37786415 2.0421071 78
1.9163227 -0.40347534 2.0042477 37
2.3000176 -0.48426524 1.9769365 69
2.8171384 -0.59365886 1.9721743 67
3.5344338 -0.74481934 1.9765077 40
4.5686798 -0.96360195 1.974795 8
5.8301096 -1.2307198 1.8402631 95
2.8213089 -0.59556901 0.63892013 60
5.2523336 -1.1097102 0.57394564 72
2.1003613 -0.44529101 1.9927584 36
2.5409977 -0.53917348 1.9749495 64
3.1563313 -0.66974485 1.9809276 40
4.0010877 -0.84972489 1.9783211 57
5.3773675 -1.142992 2.0014269 31
2.8098965 -0.59777188 0.78359264 93
2.8382323 -0.60431784 0.4964326 83
5.1498232 -1.0974447 0.306079 81
0.030424774 -0.007000627 1.984198 77
0.30662769 -0.067059688 1.9958843 102
0.42043617 -0.090941504 2.0915227 73
0.59255326 -0.12776615 1.9838723 84
0.79934013 -0.172221 1.9859076 93
1.0261866 -0.22091904 1.9901714 89
1.2771065 -0.27494335 1.9912933 15
1.6190591 -0.34856641 2.0587859 47
0.12106231 -0.027666355 1.9810979 88
0.21293694 -0.04981555 1.993349 93
0.49618042 -0.10797446 1.9912384 88
0.69398391 -0.15078446 1.9854547 89
0.91038024 -0.19748077 1.9891212 76
1.1409417 -0.24750108 1.979813 89
1.4075899 -0.30534998 1.9813027 84
1.7703356 -0.38404611 2.0421071 73
1.9149027 -0.41016212 2.0042477 37
2.2983131 -0.49229085 1.9769365 69
2.8150492 -0.60348892 1.9721743 67
3.5318122 -0.75715226 1.9765077 47
4.5652885 -0.97954381 1.974795 8
5.8351598 -1.2530776 1.8430816 95
2.8192127 -0.60541362 0.63892013 84
5.2484279 -1.1280376 0.57394564 72
2.1024444 -0.45340711 1.9960833 35
2.543051 -0.54889268 1.9778926 58
3.1539743 -0.68075842 1.9809276 37
3.9980969 -0.86368614 1.9783211 55
5.3733454 -1.1617557 2.0014269 31
2.8077929 -0.60757661 0.78359264 92
2.8409455 -0.6152696 0.49712241 30
5.1508436 -1.1164725 0.30628052 81
0.03040015 -0.0071067861 1.984198 77
0.30639175 -0.068129607 1.9958843 102
0.42011616 -0.092408545 2.0915227 73
0.59210366 -0.12983376 1.9838723 84
0.80064243 -0.17542835 1.99051 93
1.0254092 -0.22449975 1.9901714 87
1.276139 -0.2793996 1.9912933 14
1.6021738 -0.35078737 2.0396011 49
0.120965 -0.028088771 1.9810979 88
0.21276177 -0.050558541 1.993349 93
0.4958005 -0.10970579 1.9912384 88
0.69345331 -0.15320601 1.9854547 89
0.90968543 -0.2006574 1.9891212 76
1.1400708 -0.25148219 1.979813 89
1.4065155 -0.31026149 1.9813027 84
1.7689843 -0.39022341 2.0421071 71
1.9169439 -0.41760302 2.0077524 37
2.2965808 -0.50031048 1.9769365 69
2.8129256 -0.61331165 1.9721743 67
3.5291476 -0.769476 1.9765077 50
4.557312 -0.99448532 1.972922 8
5.8260627 -1.272415 1.8416724 95
2.8170824 -0.61525083 0.63892013 86
5.2590542 -1.1495414 0.57528424 74
2.1044967 -0.46154329 1.9994081 33
