# .PCD v0.7 - Point Cloud Data file format
VERSION 0.7
FIELDS x y z intensity
SIZE 4 4 4 4
TYPE F F F F
COUNT 1 1 1 1
WIDTH 1365
HEIGHT 1
VIEWPOINT 0 0 0 1 0 0 0
POINTS 1365
DATA ascii
2.3200307 0.32482591 1.9706609 60
2.8595524 0.39985389 1.9776572 64
3.7176578 0.51983947 2.0506845 26
4.5784035 0.63938212 1.9560646 39
2.7560987 0.38440463 0.90737581 92
2.7634037 0.38542348 0.62120038 55
6.1160011 0.85193294 0.64623159 78
2.111923 0.29268333 1.979459 77
2.5690389 0.35557517 1.9720063 54
3.1875968 0.44118464 1.9758627 69
4.0248213 0.55634546 1.9657328 54
2.7512732 0.37981614 1.0552406 30
2.768815 0.38174531 0.7648356 93
6.1224351 0.84302759 0.95309067 26
6.1072512 0.83985078 0.34235457 84
0.031036934 0.0037563678 1.9891979 75
0.31040254 0.040995628 1.9909451 110
0.42531672 0.057163551 2.0866275 96
0.59923643 0.080936879 1.9791006 82
0.8103072 0.10957611 1.9859076 91
1.037832 0.14051796 1.9857829 85
1.2861904 0.1741389 1.9788946 87
1.5839977 0.21445443 1.9897208 76
0.12326109 0.015106758 1.9810979 86
0.21772648 0.025548367 1.9983203 91
0.50335175 0.067011245 1.9912384 91
0.70222408 0.093717545 1.980762 89
0.91900766 0.12296402 1.9801195 95
1.1519967 0.15413159 1.9712811 89
1.4246211 0.19060177 1.9773132 89
1.7451118 0.23347569 1.9869798 83
1.9297559 0.26332244 1.9937341 36
2.3211505 0.31672552 1.9706609 66
2.8609307 0.38986972 1.9776572 59
3.7194498 0.50685918 2.0506845 26
4.5806079 0.62339658 1.9560646 39
2.7574236 0.37478173 0.90737581 87
2.7647321 0.37577507 0.62120038 80
6.118938 0.83057898 0.64623159 76
2.1166325 0.28580925 1.9827838 75
2.5742702 0.34714556 1.9749495 56
3.1891174 0.43005511 1.9758627 69
4.0267391 0.54229277 1.9657328 57
2.7525821 0.37021008 1.0552406 30
2.7701306 0.37207806 0.7648356 95
2.7828383 0.37329045 0.48332611 24
6.110146 0.81852734 0.34235457 84
0.031049859 0.0036480059 1.9891979 78
0.31054375 0.03991187 1.9909451 108
0.42652327 0.055810593 2.0915227 97
0.59951526 0.078844659 1.9791006 82
0.80874783 0.10649194 1.9813049 91
1.0383161 0.13689439 1.9857829 87
1.2867904 0.1696482 1.9788946 87
1.5847367 0.20892394 1.9897208 76
0.12331308 0.014676405 1.9810979 88
0.21781434 0.024788203 1.9983203 93
0.5035826 0.065253802 1.9912384 93
0.70254689 0.091265753 1.980762 89
0.91943127 0.11975533 1.9801195 95
1.1525278 0.15010945 1.9712811 89
1.4252778 0.18562776 1.9773132 89
1.7459162 0.2273827 1.9869798 81
1.9306633 0.25658473 1.9937341 36
2.322242 0.30862126 1.9706609 67
2.8622742 0.37988088 1.9776572 53
3.7168045 0.49328992 2.0483663 26
4.5781603 0.60679436 1.9541916 38
2.7587149 0.36515424 0.90737581 31
2.761157 0.36547747 0.62026775 82
6.1217995 0.80921483 0.64623159 75
2.1176171 0.27841908 1.9827838 73
2.579474 0.33868375 1.9778926 50
3.1905992 0.41892043 1.9758627 69
4.0286074 0.52823359 1.9657328 57
2.7538579 0.36059952 1.0552406 30
2.7714124 0.36240619 0.7648356 93
2.7792139 0.36293304 0.48263627 65
6.1129656 0.79719406 0.34235457 84
0.031062402 0.0035395995 1.9891979 80
0.31068116 0.038827628 1.9909451 108
0.42671549 0.054321412 2.0915227 97
0.60126835 0.076940998 1.9838723 84
0.80911463 0.10366824 1.9813049 89
1.0387877 0.13326916 1.9857829 87
1.2873747 0.16515543 1.9788946 87
1.5822765 0.20298296 1.9858838 76
0.12336355 0.014245871 1.9810979 88
0.21789955 0.024027739 1.9983203 91
0.50380731 0.063495576 1.9912384 91
0.70286119 0.08881285 1.980762 89
0.91984367 0.11654519 1.9801195 95
1.1530446 0.14608546 1.9712811 89
1.425917 0.18065149 1.9773132 89
1.7466992 0.22128692 1.9869798 81
1.9315473 0.2498439 1.9937341 37
2.3233051 0.30051327 1.9706609 67
2.8635826 0.36988735 1.9776572 43
3.7185035 0.48031288 2.0483663 26
nan nan nan 0
2.759973 0.3555223 0.90737581 28
2.7624161 0.35583702 0.62026775 82
6.1196475 0.7872054 0.64578539 75
2.118576 0.27102551 1.9827838 75
2.5846496 0.33018985 1.9808358 35
3.1920421 0.40778062 1.9758627 69
4.0304265 0.5141679 1.9657328 55
2.7550995 0.3509846 1.0552406 30
2.7726607 0.35272998 0.7648356 93
2.7755511 0.35260543 0.48194647 80
6.1107554 0.7752223 0.34215304 82
0.031074569 0.0034311498 1.9891979 80
0.3108148 0.037742913 1.9909451 109
0.4269025 0.05283156 2.0915227 97
0.60153329 0.074841715 1.9838723 84
0.80947155 0.10084326 1.9813049 89
1.0392466 0.12964229 1.9857829 87
1.2879434 0.16066065 1.9788946 87
1.5829753 0.19745857 1.9858838 78
0.12370034 0.01384689 1.9860895 89
0.21745111 0.023210987 1.993349 91
0.50402588 0.061736576 1.9912384 89
0.70316696 0.086358868 1.980762 89
0.92240626 0.11359977 1.9846202 95
1.1535475 0.14205968 1.9712811 89
1.4265389 0.17567301 1.9773132 87
1.7474611 0.21518846 1.9869798 81
1.9324076 0.24310002 1.9937341 37
2.3243399 0.29240155 1.9706609 67
2.8690052 0.36041051 1.9803987 43
3.7201574 0.46732992 2.0483663 27
2.7377377 0.34343269 1.2031054 15
2.7611973 0.34588602 0.90737581 28
2.7636414 0.34619221 0.62026775 86
6.1223583 0.7658391 0.64578539 75
2.1195092 0.26362866 1.9827838 75
2.5897977 0.32166392 1.9837791 35
3.1934462 0.3966358 1.9758627 69
4.0367002 0.50065452 1.9678308 56
2.7563081 0.34136534 1.0552406 30
2.773875 0.34304944 0.7648356 93
2.7767651 0.34291482 0.48194647 80
6.1134243 0.75388706 0.34215304 82
0.031086355 0.0033226586 1.9891979 80
0.31094468 0.036657739 1.9909451 110
0.42708433 0.051341075 2.0915227 97
0.60179085 0.072741508 1.9838723 86
0.80981863 0.098017067 1.9813049 91
1.0396928 0.12601386 1.9857829 87
1.2884963 0.1561639 1.9788946 87
1.5836549 0.19193174 1.9858838 76
0.12374793 0.013415013 1.9860895 89
0.2175308 0.022451798 1.993349 91
0.50423831 0.05997682 1.9912384 89
0.70346415 0.083903827 1.980762 89
0.9227972 0.11037928 1.9846202 96
1.1540364 0.1380322 1.9712811 91
1.4271436 0.17069238 1.9773132 89
1.7482016 0.20908737 1.9869798 81
1.9367841 0.23678592 1.9972385 37
2.3292105 0.28475872 1.9737986 69
2.8702457 0.35039362 1.9803987 39
3.7217662 0.45434132 2.0483663 28
2.73892 0.33387411 1.2031054 49
2.7623878 0.33624554 0.90737581 28
2.764833 0.3365432 0.62026775 84
6.1200504 0.74386251 0.64533913 76
2.1167095 0.25578061 1.979459 75
2.590905 0.31262189 1.9837791 35
3.1948113 0.38548619 1.9758627 68
4.0384235 0.4865607 1.9678308 55
2.757483 0.33174196 1.0552406 30
2.7750556 0.3333647 0.7648356 93
2.7779453 0.33322001 0.48194647 92
6.1110578 0.73194844 0.34195149 82
0.031097766 0.0032141265 1.9891979 78
0.31107074 0.035572112 1.9909451 110
0.42726094 0.049849961 2.0915227 98
0.60204107 0.07064043 1.9838723 80
0.81015581 0.095189676 1.9813049 90
1.0377468 0.12210395 1.9813942 89
1.2890337 0.15166527 1.9788946 87
1.5843152 0.18640259 1.9858838 74
0.123794 0.01298297 1.9860895 89
0.21760786 0.021692337 1.993349 91
0.5044446 0.058216333 1.9912384 91
0.7037527 0.081447773 1.980762 89
0.92317688 0.10715744 1.9846202 96
1.1545112 0.13400303 1.9712811 91
1.4277306 0.16570967 1.9773132 89
1.7489208 0.20298374 1.9869798 81
1.9375989 0.23002383 1.9972385 36
2.3301904 0.27662653 1.9737986 69
2.8756037 0.34086466 1.9831401 33
3.7233293 0.44134715 2.0483663 28
2.7354648 0.32376653 1.2012324 32
2.7635448 0.32660097 0.90737581 27
2.765991 0.32689008 0.62026775 84
6.1176643 0.72191143 0.64489299 77
2.1175895 0.24839036 1.979459 77
2.5959947 0.30404618 1.9867221 35
3.1961372 0.37433186 1.9758627 68
4.0400972 0.47246104 1.9678308 55
2.7586241 0.3221145 1.0552406 30
2.7762022 0.32367593 0.7648356 69
2.7790914 0.32352111 0.48194647 95
6.1135755 0.71061242 0.34195149 82
0.031108253 0.0031109853 1.9891979 77
0.311187 0.03454037 1.9909451 110
0.42742389 0.048432838 2.0915227 98
0.60227203 0.0686436 1.9838723 82
0.81046712 0.092502579 1.9813049 88
1.038146 0.11866198 1.9813942 89
1.2895294 0.14738983 1.9788946 84
1.5849246 0.18114778 1.9858838 74
0.12383418 0.012593996 1.9860895 89
0.21820645 0.021059213 1.9983203 93
0.50462502 0.056631289 1.9912384 93
0.70571989 0.079429418 1.9854547 89
0.92352712 0.10409548 1.9846202 95
1.1549492 0.13017377 1.9712811 89
1.4282722 0.16097425 1.9773132 89
1.7495499 0.19748835 1.9869798 83
1.9418939 0.22400592 2.0007432 36
2.331095 0.26889783 1.9737986 69
2.8767183 0.33132693 1.9831401 21
3.7247727 0.42899773 2.0483663 25
2.7364683 0.31517124 1.2012324 28
2.7645569 0.31791741 0.90737581 27
2.7719402 0.31827629 0.62120038 84
6.1200242 0.70162058 0.64489299 75
2.1184015 0.24136683 1.979459 77
2.5969889 0.29543588 1.9867221 34
3.1972976 0.36428908 1.9758627 69
4.0415616 0.45976639 1.9678308 55
2.7596223 0.31344646 1.0552406 30
2.7772055 0.31495264 0.7648356 30
2.7800941 0.31478876 0.48194647 95
6.1157775 0.69140255 0.34195149 82
0.031118922 0.0030023779 1.9891979 78
0.31130567 0.033453915 1.9909451 111
0.42759037 0.046940554 2.0915227 98
0.60250795 0.066540852 1.9838723 84
0.810785 0.089672953 1.9813049 88
1.038554 0.11503746 1.9813942 89
1.2900361 0.14288765 1.9788946 87
1.5855473 0.17561425 1.9858838 76
0.12359128 0.012112283 1.9810979 88
0.21828216 0.020259308 1.9983203 93
0.50482917 0.054781366 1.9912384 95
0.70600629 0.076842293 1.9854547 91
0.92388487 0.10087115 1.9846202 95
1.1553966 0.12614147 1.9712811 89
1.4288255 0.15598768 1.9773132 89
1.7502619 0.19107461 1.9869798 81
1.9462082 0.21762237 2.0042477 34
2.3320193 0.26075912 1.9737986 69
2.8778572 0.32128328 1.9831401 21
3.7262473 0.41599321 2.0483663 25
2.7376051 0.30513948 1.2012324 28
2.7657037 0.30778268 0.90737581 28
2.7730341 0.30859843 0.62120038 84
6.117487 0.67970353 0.64444673 75
2.119231 0.23397075 1.979459 79
2.5939865 0.28592607 1.9837791 34
3.1943257 0.35209557 1.9733303 69
4.0432196 0.44495025 1.9678308 55
2.7607527 0.30332986 1.0552406 31
2.7783413 0.30477157 0.7648356 30
2.7861521 0.30513623 0.48263627 95
6.1133041 0.66843945 0.34174997 82
0.031129215 0.0028937345 1.9891979 80
0.31142056 0.032367051 1.9909451 111
0.42775163 0.0454477 2.0915227 98
0.60273659 0.064437315 1.9838723 84
0.81109309 0.086842239 1.9813049 88
1.0389491 0.11141153 1.9813942 89
1.290527 0.13838372 1.9788946 87
1.5861506 0.17007859 1.9858838 76
0.1236328 0.011680795 1.9810979 88
0.21835156 0.019497234 1.9983203 93
0.50501734 0.053018849 1.9912384 95
0.70627022 0.074377403 1.9854547 91
0.92423135 0.097645573 1.9846202 95
1.1558298 0.12210761 1.9712811 89
1.4323586 0.15131582 1.9813027 89
1.7509183 0.18496388 1.9869798 81
1.9505014 0.21121143 2.0077524 34
2.3329153 0.25261727 1.9737986 67
2.8789613 0.31123573 1.9831401 21
3.7276769 0.40298364 2.0483663 28
2.7386534 0.29558158 1.2012324 27
2.7667611 0.2981267 0.90737581 28
2.7740943 0.29891688 0.62120038 84
6.119822 0.65834528 0.64444673 76
2.1200347 0.22657184 1.979459 79
2.5949688 0.27686965 1.9837791 35
3.1955354 0.34094319 1.9733303 69
4.0447483 0.43083405 1.9678308 56
2.7617948 0.29369116 1.0552406 38
2.7793882 0.29507145 0.7648356 30
2.7872002 0.2954089 0.48263627 95
6.1156006 0.64709592 0.34174997 82
0.031139124 0.0027850554 1.9891979 78
0.3115316 0.031279795 1.9909451 111
0.42790765 0.04395429 2.0915227 99
0.60295779 0.062332973 1.9838723 82
0.81139135 0.084010467 1.9813049 91
1.0393318 0.10778423 1.9813942 89
1.2910022 0.1338781 1.9788946 87
1.5867348 0.16454086 1.9858838 74
0.12367282 0.011249165 1.9810979 86
0.21841827 0.018734928 1.9983203 93
0.50519931 0.051255688 1.9912384 95
0.70652556 0.071911603 1.9854547 91
0.92456657 0.094418809 1.9846202 95
1.156249 0.11807226 1.9712811 89
1.4328781 0.14631502 1.9813027 91
1.7515532 0.1788509 1.9869798 81
1.9547738 0.20477317 2.0112567 32
2.3337829 0.24447234 1.9737986 67
2.8800302 0.30118439 1.9831401 21
3.7290606 0.38996917 2.0483663 28
2.7396686 0.28602013 1.2012324 27
2.7677848 0.28846711 0.90737581 27
2.775121 0.28923169 0.62120038 82
6.1220832 0.6369791 0.64444673 73
2.1208129 0.21917014 1.979459 79
2.5959196 0.26780984 1.9837791 35
3.1967063 0.3297866 1.9733303 69
4.0462275 0.41671264 1.9678308 56
2.7628028 0.28404891 1.0552406 64
2.7852364 0.28586408 0.7660079 30
2.7882142 0.28567794 0.48263627 95
6.1178222 0.62574458 0.34174997 84
0.031148657 0.0026763426 1.9891979 78
0.31163892 0.030192154 1.9909451 112
0.42805848 0.042460348 2.0915227 99
0.60317177 0.060227878 1.9838723 82
0.8116796 0.081177674 1.9813049 91
1.0420855 0.10439442 1.9857829 87
1.2942615 0.12965129 1.9830275 87
1.5872992 0.15900111 1.9858838 74
0.12371133 0.010817397 1.9810979 88
0.21848236 0.017972391 1.9983203 93
0.50537515 0.049491901 1.9912384 95
0.70677227 0.069444932 1.9854547 91
0.92489052 0.091190897 1.9846202 96
1.1566542 0.11403549 1.9712811 91
1.4333801 0.14131247 1.9813027 91
1.7521669 0.17273577 1.9869798 83
1.9590247 0.19830763 2.0147614 32
2.3346221 0.23632443 1.9737986 69
2.8810639 0.29112938 1.9831401 22
3.725992 0.3765046 2.0460486 28
2.7406504 0.27645513 1.2012324 28
2.7687752 0.27880397 0.90737581 27
2.7761137 0.27954292 0.62120038 84
6.1193142 0.61510712 0.64400053 73
2.1215649 0.2117658 1.979459 77
2.5968387 0.25874671 1.9837791 35
3.2021279 0.31905347 1.9758627 70
4.0476575 0.40258613 1.9678308 57
2.7637777 0.27440321 1.0552406 36
2.7862172 0.27614003 0.7660079 30
2.7891946 0.27594352 0.48263627 96
6.1249409 0.60487658 0.34195149 87
0.03115781 0.0025675972 1.9891979 78
0.3117424 0.029104149 1.9909451 111
0.42820406 0.040965885 2.0915227 101
0.6033783 0.05812205 1.9838723 80
0.81195801 0.078343883 1.9813049 89
1.0424436 0.10075624 1.9857829 87
1.2947062 0.12513268 1.9830275 80
1.5910358 0.15376785 1.9897208 76
0.12374835 0.010385498 1.9810979 88
0.21854375 0.017209638 1.9983203 93
0.50554484 0.047727514 1.9912384 95
0.70701039 0.066977412 1.9854547 91
0.9252032 0.08796186 1.9846202 96
1.1570451 0.10999732 1.9712811 89
1.4338647 0.13630816 1.9813027 89
1.7527592 0.1666185 1.9869798 83
1.9632542 0.19181493 2.018266 30
2.3354325 0.22817364 1.9737986 69
2.8820627 0.2810708 1.9831401 22
3.7272832 0.36349615 2.0460486 32
2.7415986 0.2668868 1.2012324 28
2.7697313 0.26913744 0.90737581 27
2.7819614 0.27032587 0.62213302 35
6.1214237 0.59374303 0.64400053 76
2.1260083 0.20471676 1.9827838 77
2.5977259 0.2496805 1.9837791 35
3.203222 0.30787396 1.9758627 69
4.0490375 0.38845474 1.9678308 56
2.7647188 0.26475415 1.0552406 31
2.7871642 0.26641265 0.7660079 30
2.7901409 0.26620573 0.48263627 95
6.1120944 0.58207196 0.34134689 87
0.031166583 0.0024588206 1.9891979 78
0.31261599 0.028085129 1.9958843 111
0.42834446 0.039470926 2.0915227 102
0.60357749 0.056015514 1.9838723 82
0.81222653 0.075509146 1.9813049 88
1.042789 0.097116813 1.9857829 87
1.2951351 0.12061256 1.9830275 80
1.5915629 0.14821316 1.9897208 76
0.12378384 0.0099534728 1.9810979 89
0.21860249 0.016446672 1.9983203 93
0.50570834 0.045962539 1.9912384 93
0.70723987 0.064509079 1.9854547 89
0.92333603 0.084533267 1.9801195 95
1.1574221 0.10595781 1.9712811 91
1.4343318 0.13130221 1.9813027 89
1.7533301 0.16049923 1.9869798 83
1.9674625 0.18529509 2.0217705 29
2.336215 0.22002007 1.9737986 69
2.8830261 0.27100882 1.9831401 22
3.7285295 0.3504833 2.0460486 32
2.7425137 0.25731522 1.2012324 28
2.770654 0.2594676 0.90737581 28
2.7828882 0.26061332 0.62213302 32
6.1185002 0.57190812 0.64355433 77
2.1267097 0.19729435 1.9827838 77
2.5985816 0.24061123 1.9837791 35
3.204277 0.29669079 1.9758627 69
4.0503688 0.37431857 1.9678308 56
2.765626 0.25510186 1.0552406 31
2.7880774 0.25668201 0.7660079 30
2.7910528 0.25646469 0.48263627 95
6.099164 0.55936444 0.34074232 39
0.031174976 0.0023500139 1.9891979 78
0.31271213 0.026993725 1.9958843 112
0.42847964 0.037975483 2.0915227 102
0.6037693 0.053908288 1.9838723 82
0.81248516 0.072673492 1.9813049 88
1.0431216 0.093476206 1.9857829 85
1.2955482 0.11609096 1.9830275 87
1.5920705 0.14265667 1.9897208 73
0.12381783 0.0095213261 1.9810979 88
0.21865857 0.015683508 1.9983203 89
0.50586569 0.044197008 1.9912384 91
0.7074607 0.062039956 1.9854547 89
0.92362547 0.081309699 1.9801195 95
1.1577849 0.10191699 1.9712811 91
1.4347814 0.12629466 1.9813027 91
1.7538798 0.15437797 1.9869798 81
1.9752008 0.1790702 2.0287795 27
2.3369687 0.21186383 1.9737986 69
2.8839545 0.26094353 1.9831401 21
3.7297301 0.33746618 2.0460486 32
2.7433951 0.24774049 1.2012324 28
2.7715428 0.24979466 0.90737581 31
2.7886736 0.2513386 0.62306565 32
6.1204596 0.55054712 0.64355433 77
2.1273856 0.18986955 1.9827838 75
2.5994058 0.23153901 1.9837791 35
3.2052934 0.28550395 1.9758627 69
4.051651 0.36017787 1.9678308 55
2.7664995 0.24544647 1.0552406 31
2.7889562 0.24694823 0.7660079 30
2.7919312 0.24672055 0.48263627 95
nan nan nan 0
0.031139817 0.0022332245 1.984198 78
0.31280896 0.025847394 1.9958843 113
0.42861593 0.036404774 2.0915227 103
0.6039629 0.051695004 1.9838723 82
0.81274605 0.069695093 1.9813049 90
1.0434572 0.089652352 1.9857829 87
1.2959651 0.11134176 1.9830275 87
1.5925827 0.13682047 1.9897208 73
0.1238519 0.0090674479 1.9810979 88
0.21871458 0.014881977 1.9983203 89
0.5060243 0.042342618 1.9912384 89
0.70768338 0.059446573 1.9854547 91
0.92393082 0.077762648 1.9801195 95
1.1581676 0.097470693 1.9712811 91
1.4352558 0.12078459 1.9813027 91
1.7544595 0.14764243 1.9869798 81
1.9793966 0.17213848 2.032284 27
2.3377297 0.20329699 1.9737986 69
2.8848915 0.25037155 1.9831401 21
3.730942 0.32379377 2.0460486 33
2.7442846 0.23768376 1.2012324 28
2.77244 0.23963475 0.90737581 69
2.7896183 0.24062905 0.62306565 32
6.1175671 0.52661514 0.64310813 77
2.1280987 0.1816996 1.9827838 75
2.6002755 0.22155634 1.9837791 35
3.2063658 0.27319443 1.9758627 70
4.0530043 0.34461802 1.9678308 56
2.7674217 0.23482211 1.0552406 31
2.7898839 0.23623762 0.7660079 30
2.7928169 0.2364834 0.48263627 95
nan nan nan 0
0.03114742 0.0021245126 1.984198 77
0.31289726 0.024755331 1.9958843 114
0.42874041 0.034908403 2.0915227 103
0.60413963 0.049586467 1.9838723 84
0.81298441 0.066857651 1.9813049 90
1.0437638 0.08600945 1.9857829 89
1.2935414 0.10658625 1.9788946 84
1.5930506 0.13126048 1.9897208 76
0.12388279 0.0086350683 1.9810979 86
0.2187652 0.014118429 1.9983203 88
0.50616902 0.040576007 1.9912384 89
0.70788652 0.056975931 1.9854547 89
0.92418367 0.074698351 1.9801195 95
1.1584846 0.093629524 1.9712811 91
1.4356484 0.11602443 1.9813027 89
1.7549394 0.14182363 1.9869798 81
1.9870931 0.16582115 2.0392931 25
2.3384249 0.19513553 1.9737986 69
2.8857479 0.24029988 1.9831401 21
3.7320495 0.3107684 2.0460486 33
2.7450976 0.22810298 1.2012324 28
2.7732594 0.22995569 0.90737581 38
2.7904007 0.23137702 0.62306565 32
6.1292052 0.50714689 0.64400053 53
2.1249681 0.17433624 1.979459 77
2.6009958 0.21293227 1.9837791 35
3.2072542 0.26256025 1.9758627 70
4.0541248 0.33117589 1.9678308 55
2.7681851 0.22564371 1.0552406 31
2.790652 0.22698474 0.7660079 30
2.7985611 0.22713637 0.48332611 95
3.2912807 0.26654774 0.22687733 65
0.031154647 0.0020157748 1.984198 77
0.31298181 0.023662964 1.9958843 114
0.42885968 0.033411603 2.0915227 105
0.60430902 0.047477327 1.9838723 82
0.81321281 0.064019404 1.9813049 89
1.0440576 0.082365513 1.9857829 89
1.2939056 0.1020703 1.9788946 84
1.5934991 0.12569889 1.9897208 76
0.12391219 0.0082025845 1.9810979 88
0.21881315 0.01335471 1.9983203 88
0.50630754 0.038808901 1.9912384 89
0.70808107 0.054504596 1.9854547 89
0.92443877 0.071471892 1.9801195 95
1.1614045 0.089786075 1.975547 91
1.4330395 0.11078009 1.9773132 89
1.7554239 0.13569687 1.9869798 83
1.9912149 0.15916806 2.0427978 22
2.339092 0.18697174 1.9737986 69
2.8865693 0.23022528 1.9831401 21
3.7331119 0.29773921 2.0460486 33
2.741256 0.21815166 1.1993594 30
2.774045 0.22027379 0.90737581 30
2.7911913 0.22163528 0.62306565 32
nan nan nan 0
2.1255639 0.16691767 1.979459 75
2.6017234 0.20385182 1.9837791 36
3.2081511 0.25136325 1.9758627 69
4.0552564 0.31702232 1.9678308 55
2.7689559 0.21597956 1.0552406 30
2.7914274 0.21724215 0.7660079 31
2.7993369 0.21736619 0.48332611 40
3.262305 0.25274205 0.22566816 66
0.03120508 0.0019090681 1.9891979 80
0.31306249 0.022570308 1.9958843 113
0.42897367 0.031914402 2.0915227 105
0.60447109 0.045367602 1.9838723 84
0.81343132 0.061180368 1.9813049 89
1.0443388 0.07872057 1.9857829 89
1.2942539 0.097553112 1.9788946 84
1.5939281 0.12013579 1.9897208 76
0.12394006 0.0077699996 1.9810979 86
0.21885844 0.012590829 1.9983203 89
0.50643992 0.037041318 1.9912384 93
0.70654607 0.051906221 1.980762 89
0.92468262 0.068244562 1.9801195 95
1.1617107 0.085731469 1.975547 93
1.4334174 0.10577717 1.9773132 89
1.7558867 0.12956847 1.9869798 83
1.9988701 0.15275992 2.0498068 21
2.3397303 0.17880563 1.9737986 67
2.8873553 0.22014786 1.9831401 21
3.734128 0.28470638 2.0460486 34
2.7420006 0.20858155 1.1993594 62
2.7747972 0.21058923 0.90737581 29
2.7919481 0.21189086 0.62306565 32
nan nan nan 0
2.1261332 0.15949705 1.979459 75
2.6024191 0.19476888 1.9837791 36
3.2090092 0.24016318 1.9758627 69
4.0563383 0.30286491 1.9678308 53
2.7696931 0.20631279 1.0552406 31
2.7921686 0.20749693 0.7660079 34
2.8050172 0.20795949 0.48401594 39
3.2532027 0.24061592 0.22526509 74
0.03121124 0.0018055777 1.9891979 80
0.31313562 0.021532033 1.9958843 113
0.43009278 0.030563788 2.0964177 106
0.60461819 0.043362852 1.9838723 84
0.81362975 0.058482595 1.9813049 89
1.0445942 0.075256988 1.9857829 89
1.2973771 0.09346284 1.9830275 87
1.5943178 0.11484946 1.9897208 76
0.12396386 0.0073805926 1.9810979 86
0.21889691 0.011903205 1.9983203 89
0.50529903 0.035362374 1.9863992 93
0.70670569 0.049686287 1.980762 89
0.92490381 0.065177828 1.9801195 95
1.1619887 0.081878632 1.975547 93
1.4337604 0.10102321 1.9773132 89
1.7562852 0.12405157 1.9869798 83
2.0029223 0.14639053 2.0533113 21
2.3403103 0.17104581 1.9737986 69
2.883899 0.21026778 1.9803987 21
3.7350516 0.272322 2.0460486 35
2.7426424 0.1999663 1.1993594 83
2.7754452 0.20187095 0.90737581 29
2.7926352 0.20263128 0.62306565 32
3.253211 0.23547907 0.38519883 45
2.1266506 0.15244566 1.979459 77
2.6030507 0.18613787 1.9837791 35
3.2097476 0.2300806 1.9758627 70
4.0572691 0.2901201 1.9678308 53
2.7703276 0.19761054 1.0552406 31
2.7928069 0.19872406 0.7660079 40
2.8056567 0.19914626 0.48401594 39
3.2439756 0.22968881 0.22486204 82
0.031217352 0.0016966192 1.9891979 78
0.31320888 0.020438856 1.9958843 114
0.43019685 0.029062299 2.0964177 107
0.60476583 0.041252077 1.9838723 84
0.81382889 0.055642143 1.9813049 86
1.0448505 0.071610212 1.9857829 89
1.2976953 0.08893358 1.9830275 84
1.5915105 0.10906439 1.9858838 76
0.12399007 0.0069261929 1.9810979 86
0.21893907 0.011100827 1.9983203 91
0.50542527 0.033510122 1.9863992 93
0.70688301 0.04709575 1.980762 89
0.92512572 0.061948918 1.9801195 95
1.1622674 0.07782203 1.975547 91
1.4341042 0.096017838 1.9773132 89
1.7567281 0.11761363 1.9869798 83
2.006979 0.13964567 2.0568159 21
2.3408933 0.16287558 1.9737986 67
2.8846154 0.20019981 1.9803987 21
3.7359796 0.25928262 2.0460486 35
2.7433569 0.18991266 1.1993594 83
2.7761664 0.19169708 0.90737581 29
2.7933257 0.19288193 0.62306565 32
3.2540133 0.22412181 0.38519883 45
2.1271698 0.14502132 1.979459 77
2.6036844 0.17705038 1.9837791 35
3.2105694 0.21831474 1.9758627 69
4.0583057 0.27524748 1.9678308 55
2.7663212 0.18713671 1.0535979 31
2.7935162 0.18848661 0.7660079 38
2.8113089 0.18919419 0.48470572 39
3.2298415 0.21679378 0.22425744 79
0.03122336 0.0015821904 1.9891979 77
0.31328169 0.019290749 1.9958843 116
0.43030047 0.02748535 2.0964177 107
0.604913 0.039035223 1.9838723 84
0.81402743 0.052658934 1.9813049 86
1.0451059 0.067780167 1.9857829 89
1.2980127 0.084176689 1.9830275 84
1.5918995 0.10323048 1.9858838 76
0.12401463 0.0064717 1.9810979 86
0.21897827 0.010298301 1.9983203 91
0.50554472 0.03165742 1.9863992 93
0.70877314 0.044612925 1.9854547 91
0.92535681 0.05839625 1.9801195 95
1.1599549 0.073194481 1.9712811 89
1.4344624 0.090510592 1.9773132 89
1.7571667 0.11086743 1.9869798 81
2.0110354 0.13252327 2.0603204 21
2.3414743 0.15429468 1.9737986 67
2.88533 0.18962581 1.9803987 19
3.7369046 0.2455878 2.0460486 36
2.7440345 0.17985648 1.1993594 83
2.7768502 0.18152063 0.90737581 29
2.7940459 0.18215492 0.62306565 33
3.2399411 0.21065633 0.3838602 63
2.1277108 0.13685255 1.979459 77
2.6043451 0.16705167 1.9837791 35
3.2113841 0.20598546 1.9758627 68
4.0593324 0.25966272 1.9678308 55
2.7670195 0.17651345 1.0535979 31
2.7942195 0.17775889 0.7660079 31
2.8119833 0.17888638 0.48470572 39
3.2206426 0.20432174 0.22385439 81
0.031228695 0.001473191 1.9891979 78
0.31334707 0.018197075 1.9958843 116
0.43039379 0.025983155 2.0964177 108
0.60504556 0.036923446 1.9838723 80
0.81420624 0.04981713 1.9813049 86
1.0453361 0.064131647 1.9857829 87
1.2982985 0.079645269 1.9830275 87
1.5922501 0.097673088 1.9858838 76
0.12403646 0.0060387687 1.9810979 86
0.2190129 0.0095338607 1.9983203 91
0.50565213 0.029892545 1.9863992 93
0.70892453 0.04213858 1.9854547 89
0.92554533 0.055327326 1.9801195 95
1.1601913 0.069347523 1.9712811 89
1.4347546 0.085753232 1.9773132 89
1.7575247 0.10503985 1.9869798 81
2.0150454 0.1257247 2.0638251 22
2.3419988 0.14612047 1.9737986 67
2.8859744 0.17955299 1.9803987 19
3.7377391 0.23254207 2.0460486 36
2.7446456 0.17027692 1.1993594 83
2.7822552 0.1721227 0.90878499 29
2.7946346 0.17288853 0.62306565 33
3.2257099 0.19899125 0.38252157 68
2.1281528 0.12979606 1.979459 77
2.6048849 0.15841444 1.9837791 35
3.2120495 0.195335 1.9758627 68
4.0601711 0.24620005 1.9678308 56
2.7675896 0.1673367 1.0535979 52
2.7947934 0.16849194 0.7660079 30
2.8125906 0.16907221 0.48470572 39
3.2163494 0.19277947 0.22365284 86
0.031233648 0.0013641736 1.9891979 80
0.31340873 0.017103178 1.9958843 118
0.43048188 0.024480645 2.0964177 109
0.60517073 0.034811217 1.9838723 80
0.81437516 0.046974715 1.9813049 88
1.0455537 0.06048236 1.9857829 89
1.2985686 0.075112872 1.9830275 87
1.5925814 0.092114501 1.9858838 76
0.12405679 0.0056057638 1.9810979 86
0.21904483 0.0087693045 1.9983203 91
0.5057534 0.028127309 1.9863992 93
0.70906729 0.039663713 1.9854547 89
0.92573285 0.052096236 1.9801195 95
1.1604263 0.065297276 1.9712811 89
1.4380544 0.08091379 1.9813027 89
1.7578806 0.098904297 1.9869798 81
2.0154719 0.11869012 2.0638251 22
2.3424945 0.13794447 1.9737986 69
2.8865836 0.16947797 1.9803987 21
3.7385283 0.21949351 2.0460486 34
2.7452233 0.16069528 1.1993594 83
2.7828391 0.16240977 0.90878499 29
2.8001249 0.16341858 0.62399822 37
3.2214134 0.18744093 0.38207534 72
2.1285932 0.12236661 1.979459 77
2.605422 0.14932074 1.9837791 35
3.2127116 0.18412167 1.9758627 69
4.0610056 0.23202592 1.9678308 55
2.768157 0.157675 1.0535979 93
2.8002174 0.15901084 0.7671802 29
2.8131638 0.15925342 0.48470572 38
3.2070265 0.18098813 0.22324979 87
0.031237999 0.0012605916 1.9891979 80
0.31346369 0.016063785 1.9958843 118
0.43056068 0.023052979 2.0964177 111
0.6052829 0.032804206 1.9838723 82
0.8145265 0.044273894 1.9813049 91
1.0457485 0.057014845 1.9857829 89
1.2988106 0.070806257 1.9830275 87
1.5928781 0.086832799 1.9858838 76
0.12407379 0.0052160006 1.9810979 88
0.21907131 0.0080811139 1.9983203 89
0.50583923 0.026538301 1.9863992 93
0.7091884 0.037435919 1.9854547 89
0.92590046 0.049026109 1.9801195 95
1.1606364 0.061448809 1.9712811 91
1.4383149 0.076144584 1.9813027 89
1.7581826 0.093381278 1.9869798 83
2.0194151 0.11220374 2.0673294 22
2.3429391 0.13017572 1.9737986 69
2.8871295 0.15990478 1.9803987 21
3.7392354 0.20709489 2.0460486 34
2.7457147 0.15207013 1.1993594 83
2.7833354 0.15366645 0.90878499 28
2.8006511 0.15413211 0.62399822 53
3.2170451 0.17648454 0.38162914 74
2.1289873 0.11530728 1.979459 77
2.6059027 0.14068002 1.9837791 35
3.2132742 0.17402774 1.9758627 68
4.0617146 0.21926679 1.9678308 55
2.7686384 0.14897782 1.0535979 93
2.8007033 0.15021291 0.7671802 29
2.8136501 0.15041482 0.48470572 38
3.2025905 0.17064627 0.22304827 83
0.03124221 0.0011515429 1.9891979 78
0.31351787 0.014969494 1.9958843 120
0.43063852 0.021549903 2.0964177 111
0.60539371 0.030691175 1.9838723 84
0.81467605 0.041430395 1.9813049 93
1.0459411 0.053364154 1.9857829 87
1.2990497 0.066272132 1.9830275 87
1.5931715 0.081272088 1.9858838 76
0.12409206 0.004761213 1.9810979 88
0.21909946 0.0072781229 1.9983203 91
0.50593311 0.024684131 1.9863992 95
0.70759732 0.034751769 1.980762 89
0.92824095 0.045901332 1.9846202 95
1.1608438 0.057397053 1.9712811 91
1.4385719 0.071123458 1.9813027 89
1.7585131 0.086936586 1.9869798 83
2.0197945 0.10515399 2.0673294 22
2.343379 0.12199656 1.9737986 67
2.8876703 0.14982584 1.9803987 21
3.7399359 0.19404127 2.0460486 37
2.7462535 0.14200556 1.1993594 80
2.78388 0.14346397 0.90878499 28
2.8011723 0.14435509 0.62399822 33
3.2076943 0.16474301 0.38073674 72
2.1293769 0.10787502 1.979459 77
2.6063778 0.13158286 1.9837791 35
3.2138906 0.16224933 1.9758627 68
4.0624914 0.20437838 1.9678308 55
2.769166 0.13882925 1.0535979 93
2.801235 0.13994683 0.7671802 29
2.8141825 0.14010127 0.48470572 38
3.2031944 0.15890704 0.22304827 85
0.031246038 0.0010424802 1.9891979 78
0.31356823 0.013875021 1.9958843 121
0.43071115 0.02004656 2.0964177 111
0.60549712 0.028577771 1.9838723 84
0.81676722 0.038678769 1.9859076 90
1.046121 0.049712811 1.9857829 87
1.2992733 0.061737195 1.9830275 89
1.5934455 0.075710386 1.9858838 76
0.12410793 0.0043280218 1.9810979 89
0.21858981 0.0064980914 1.993349 91
0.50727278 0.022974784 1.9912384 95
0.70771426 0.032281581 1.980762 89
0.92839551 0.042660888 1.9846202 96
1.1610371 0.053344604 1.9712811 89
1.4388114 0.066101477 1.9813027 89
1.7588059 0.080797702 1.9869798 83
2.0201492 0.098102942 2.0673294 23
2.3437908 0.11381589 1.9737986 67
2.8881755 0.13974507 1.9803987 20
3.7405901 0.18098527 2.0460486 37
2.7467325 0.13241848 1.1993594 81
2.7843635 0.13374554 0.90878499 28
2.8016589 0.13457629 0.62399822 32
3.2032754 0.15330701 0.38029051 72
2.1297402 0.10044145 1.979459 77
2.6068215 0.12248411 1.9837791 35
3.2144375 0.15102978 1.9758627 69
4.06318 0.19019639 1.9678308 55
2.769634 0.12916221 1.0535979 93
2.8065617 0.13039342 0.76835257 29
2.8146544 0.13027708 0.48470572 39
3.1987388 0.14749472 0.22284672 83
0.031249486 0.00093340478 1.9891979 80
0.31361473 0.01278038 1.9958843 123
0.4307785 0.018542977 2.0964177 111
0.60559326 0.026464017 1.9838723 84
0.81689727 0.03582748 1.9859076 90
1.0462881 0.046060864 1.9857829 87
1.2994808 0.057201508 1.9830275 87
1.596903 0.070288733 1.9897208 76
0.12412228 0.0038947777 1.9810979 88
0.21861117 0.0057350313 1.993349 91
0.50734985 0.021203931 1.9912384 95
0.70782268 0.029810999 1.980762 89
0.9285388 0.039419923 1.9846202 95
1.1612163 0.049291503 1.9712811 89
1.4390334 0.061078683 1.9813027 89
1.7590772 0.074657835 1.9869798 81
2.0204794 0.091050714 2.0673294 23
2.3441737 0.10563384 1.9737986 69
2.8886456 0.12966262 1.9803987 20
3.7456243 0.1681257 2.0483663 38
2.7518091 0.12303685 1.2012324 83
2.7848136 0.12402548 0.90878499 33
2.8021116 0.12479585 0.62399822 31
3.1938407 0.14168315 0.37939808 72
2.1300778 0.093006656 1.979459 77
2.607233 0.11338385 1.9837791 35
3.2149448 0.13980837 1.9758627 69
4.0638189 0.17601208 1.9678308 54
2.7700677 0.1194936 1.0535979 93
2.8069999 0.12059589 0.76835257 30
2.8150921 0.12045132 0.48470572 60
3.1992342 0.13632815 0.22284672 83
0.031252556 0.00082431803 1.9891979 80
0.31365746 0.011685582 1.9958843 123
0.43084058 0.017039165 2.0964177 108
0.6056819 0.024349939 1.9838723 86
0.81701732 0.032975756 1.9859076 90
1.0464425 0.042408358 1.9857829 87
1.2996725 0.052665126 1.9830275 78
1.5971385 0.064714074 1.9897208 74
0.12413513 0.0034614864 1.9810979 88
0.21862985 0.0049719005 1.993349 93
0.50742078 0.01943282 1.9912384 95
0.7079224 0.027340058 1.980762 91
0.92867076 0.036178477 1.9846202 95
1.1613812 0.045237802 1.9712811 91
1.4392378 0.056055147 1.9813027 87
1.7593271 0.068517059 1.9869798 83
2.024348 0.084145457 2.0708342 22
2.3445282 0.097450502 1.9737986 69
2.8890808 0.11957857 1.9803987 20
3.7461886 0.15505001 2.0483663 38
2.7475901 0.1132396 1.1993594 85
2.7852297 0.11430392 0.90878499 90
2.8025303 0.11501391 0.62399822 32
3.1793878 0.1299237 0.37805945 71
2.1303895 0.085570723 1.979459 79
2.6076131 0.10428222 1.9837791 35
3.2154133 0.12858526 1.9758627 69
4.0644083 0.16182566 1.9678308 55
2.7704678 0.10982352 1.0535979 92
2.8074038 0.11079691 0.76835257 30
2.8154953 0.11062408 0.48470572 81
3.1996903 0.12515989 0.22284672 85
0.031255241 0.00071522134 1.9891979 78
0.31369632 0.010590642 1.9958843 122
0.43089741 0.015535147 2.0964177 107
0.60427064 0.022180837 1.9791006 86
0.81712747 0.030123634 1.9859076 90
1.0465842 0.038755331 1.9857829 87
1.2998484 0.048128102 1.9830275 78
1.5973548 0.059138618 1.9897208 76
0.12414645 0.003028153 1.9810979 88
0.21864587 0.0042087096 1.993349 95
0.50748551 0.017661473 1.9912384 95
0.70973808 0.024929304 1.9854547 91
0.9287914 0.032936588 1.9846202 95
1.1615322 0.041183546 1.9712811 91
1.4394249 0.051030926 1.9813027 87
1.7595556 0.062375437 1.9869798 83
2.0246294 0.077078655 2.0708342 22
2.3448541 0.089265972 1.9737986 67
2.8894806 0.10949306 1.9803987 19
3.746707 0.14197242 2.0483663 39
2.7572339 0.1039975 1.2031054 85
2.7904055 0.10476094 0.91019416 92
2.8078234 0.10541484 0.62493086 33
nan nan nan 0
2.1306753 0.078133762 1.979459 77
2.6079609 0.095179327 1.9837791 35
3.2158427 0.11736061 1.9758627 69
4.0649486 0.14763723 1.9678308 55
2.7708344 0.10015212 1.0535979 93
2.8077734 0.10099655 0.76835257 30
2.8158643 0.1007955 0.48470572 50
3.2001081 0.11399014 0.22284672 85
0.031257547 0.00060611579 1.9891979 78
0.3137314 0.0094955722 1.9958843 122
0.43094903 0.014030939 2.0964177 107
0.60434437 0.020071404 1.9791006 84
0.81722766 0.027271144 1.9859076 90
1.0467131 0.035101835 1.9857829 89
1.3000087 0.043590486 1.9830275 87
1.5975515 0.053562451 1.9897208 74
0.12415627 0.0025947825 1.9810979 88
0.21865924 0.0034454674 1.993349 93
0.5075441 0.015889909 1.9912384 95
0.70982075 0.022451704 1.9854547 89
0.92890066 0.029694302 1.9846202 95
1.1616688 0.037128795 1.9712811 91
1.4395941 0.046006087 1.9813027 89
1.7597625 0.056233063 1.9869798 83
2.0248861 0.070010908 2.0708342 23
2.3451514 0.08108037 1.9737986 67
2.8898451 0.099406235 1.9803987 19
3.7471797 0.12889312 2.0483663 40
2.7853792 0.095323652 1.2143437 90
2.7907543 0.095019966 0.91019416 92
2.8081744 0.09561307 0.62493086 31
nan nan nan 0
2.1346672 0.070819654 1.9827838 77
2.6082776 0.086075261 1.9837791 35
3.2162328 0.1061345 1.9758627 69
4.0654392 0.13344699 1.9678308 55
2.7711673 0.090479486 1.0535979 93
2.8081086 0.09119498 0.76835257 31
2.8161991 0.090965673 0.48470572 36
3.2004862 0.10281898 0.22284672 85
0.031259473 0.00049700291 1.9891979 78
0.31376261 0.0084003881 1.9958843 120
0.42997763 0.012497067 2.0915227 106
0.60441083 0.017961726 1.9791006 82
0.81536502 0.024360023 1.9813049 91
1.0468292 0.031447913 1.9857829 87
1.3001529 0.039052345 1.9830275 87
1.5977287 0.047985628 1.9897208 74
0.12416456 0.0021613804 1.9810979 88
0.21866994 0.0026821834 1.993349 91
0.50759649 0.014118154 1.9912384 95
0.70989484 0.019973829 1.9854547 91
0.92899865 0.026451653 1.9846202 95
1.1617913 0.033073589 1.9712811 91
1.439746 0.040980686 1.9813027 89
1.759948 0.050090004 1.9869798 81
2.0251181 0.062942311 2.0708342 23
2.3454201 0.072893761 1.9737986 69
2.8901746 0.089318179 1.9803987 20
3.7476068 0.11581223 2.0483663 44
2.7856948 0.085600294 1.2143437 35
2.791069 0.085277833 0.91019416 93
2.808491 0.085810125 0.62493086 31
2.8321316 0.086037658 0.34682477 90
2.1349013 0.063367836 1.9827838 79
2.608562 0.076970145 1.9837791 35
3.2165837 0.094907105 1.9758627 69
4.0704174 0.11938823 1.9699289 53
2.7761867 0.080943391 1.0552406 93
2.8084099 0.081392303 0.76835257 31
2.8164995 0.081134751 0.48470572 36
3.2008257 0.09164656 0.22284672 85
0.031261016 0.00038788165 1.9891979 77
0.31379002 0.0073051015 1.9958843 120
0.4300186 0.010996088 2.0915227 104
0.60446978 0.015851829 1.9791006 82
0.81544507 0.021513717 1.9813049 91
1.0469327 0.027793603 1.9857829 87
1.2974682 0.034439087 1.9788946 84
1.5978864 0.042408224 1.9897208 73
0.12417135 0.001727952 1.9810979 86
0.21867797 0.0019188665 1.993349 93
0.50764263 0.012346225 1.9912384 96
0.70996022 0.01749571 1.9854547 91
0.92908537 0.023208681 1.9846202 95
1.1618997 0.029017979 1.9712811 89
1.4398804 0.035954785 1.9813027 89
1.7601123 0.043946333 1.9869798 83
2.0253255 0.055872951 2.0708342 23
2.3456602 0.064706281 1.9737986 69
2.8904686 0.079229042 1.9803987 20
3.7479885 0.10272994 2.0483663 51
nan nan nan 0
2.7913496 0.075534664 0.91019416 93
2.8087733 0.076006137 0.62493086 30
2.8324146 0.076151147 0.34682477 90
2.1351094 0.055915251 1.9827838 79
2.608815 0.067864098 1.9837791 35
3.2168953 0.083678551 1.9758627 69
4.0708094 0.10517909 1.9699289 53
2.7764521 0.071252204 1.0552406 92
2.808677 0.071588628 0.76835257 69
2.8167655 0.071302839 0.48470572 35
3.2011261 0.080473036 0.22284672 85
0.031262182 0.00027875797 1.9891979 77
0.3138136 0.006209725 1.9958843 119
0.43005437 0.0094949761 2.0915227 103
0.60452151 0.01374174 1.9791006 82
0.81551528 0.018667154 1.9813049 91
1.0470233 0.024138959 1.9857829 89
1.2975806 0.029909868 1.9788946 84
1.5980248 0.036830302 1.9897208 76
0.12417662 0.0012945026 1.9810979 89
0.21868333 0.0011555264 1.993349 93
0.50768262 0.010574147 1.9912384 95
0.71001697 0.015017382 1.9854547 89
0.92916071 0.019965427 1.9846202 95
1.1619939 0.024962014 1.9712811 89
1.439997 0.030928444 1.9813027 91
1.7602549 0.03780213 1.9869798 83
2.0255082 0.048802905 2.0708342 20
2.3458719 0.056518003 1.9737986 67
2.894908 0.069238916 1.9831401 20
3.7483239 0.089646392 2.0483663 50
4.6261659 0.10983273 1.9579377 37
2.7915964 0.065790586 0.91019416 90
2.8090217 0.066201232 0.62493086 31
2.8326633 0.066263713 0.34682477 90
2.1352918 0.048461992 1.9827838 75
2.609036 0.058757216 1.9837791 35
3.2171679 0.072448991 1.9758627 69
4.0711513 0.090968683 1.9699289 55
2.7766843 0.061560135 1.0552406 85
2.8089097 0.061784081 0.76835257 93
2.8219481 0.061578095 0.48539555 35
3.2013874 0.069298536 0.22284672 85
0.031262994 0.00016417447 1.9891979 78
0.31383425 0.0050594988 1.9958843 118
0.43008628 0.0079186838 2.0915227 103
0.60456777 0.011525965 1.9791006 82
0.81557816 0.015678015 1.9813049 90
1.0471048 0.020301264 1.9857829 89
1.2976815 0.025153797 1.9788946 87
1.5981491 0.030973 1.9897208 76
0.12418054 0.00083936378 1.9810979 89
0.21868609 0.00035400412 1.993349 91
0.50771803 0.0087133255 1.9912384 95
0.71006727 0.01241494 1.9854547 87
0.92922759 0.01655975 1.9846202 96
1.1646851 0.020749353 1.975547 89
1.4401007 0.025650386 1.9813027 89
1.7603816 0.031350218 1.9869798 83
2.0256736 0.041378714 2.0708342 20
2.3460634 0.047919568 1.9737986 67
2.8951423 0.058628082 1.9831401 20
3.7486274 0.075907499 2.0483663 44
4.6358075 0.093062326 1.9616836 39
2.7918189 0.055558424 0.91019416 92
2.8141563 0.05600293 0.62586349 31
2.8328872 0.055881035 0.34682477 88
2.1354551 0.040635429 1.9827838 77
2.6092339 0.049194228 1.9837791 36
3.217412 0.060656987 1.9758627 69
4.0714579 0.076046549 1.9699289 55
2.776891 0.051382668 1.0552406 64
2.8091176 0.051488493 0.76835257 93
2.822155 0.051234726 0.48539555 34
3.2016201 0.057564393 0.22284672 85
0.031263374 5.5045297e-05 1.9891979 80
0.31384999 0.0039639822 1.9958843 117
0.43011132 0.0064173541 2.0915227 102
0.6046043 0.0094155595 1.9791006 86
0.81562793 0.01283102 1.9813049 89
1.0471693 0.016646065 1.9857829 89
1.2977613 0.020623889 1.9788946 87
1.5982474 0.025394229 1.9897208 76
0.12418272 0.00040588772 1.9810979 86
0.218686 -0.00040938362 1.993349 91
0.50774533 0.0069410061 1.9912384 95
0.70838082 0.0099121723 1.980762 87
0.9292798 0.013316039 1.9846202 96
1.1647505 0.016683716 1.975547 89
1.4401814 0.020623339 1.9813027 89
1.7604804 0.025205148 1.9869798 83
2.0258057 0.034307543 2.0708342 23
2.3462164 0.039729986 1.9737986 67
2.8953292 0.048521794 1.9831401 20
3.7488694 0.062821887 2.0483663 41
4.6361041 0.076879777 1.9616836 39
2.7919958 0.045812815 0.91019416 92
2.8143346 0.046179347 0.62586349 30
2.833065 0.045992073 0.34682477 37
2.1318502 0.033123054 1.979459 77
2.6093893 0.040086005 1.9837791 35
3.2176039 0.049425758 1.9758627 69
4.0716982 0.061834045 1.9699289 52
2.7770536 0.041689195 1.0552406 64
2.8092799 0.04168253 0.76835257 93
2.8223164 0.041383255 0.48539555 34
3.2018015 0.046388306 0.22284672 86
0.031263378 -5.4084623e-05 1.9891979 80
0.31386194 0.002868417 1.9958843 117
0.43013111 0.0049159466 2.0915227 100
0.6061269 0.0073230262 1.9838723 86
0.81566775 0.0099838693 1.9813049 88
1.0472209 0.012990658 1.9857829 87
1.3006393 0.016128602 1.9830275 87
1.5983263 0.019815151 1.9897208 76
0.12418337 -2.7608665e-05 1.9810979 86
0.21868324 -0.0011727377 1.993349 91
0.50776643 0.0051686014 1.9912384 93
0.7084111 0.0074394019 1.980762 89
0.92932063 0.010072165 1.9846202 95
1.1648016 0.012617876 1.975547 89
1.4402447 0.015596041 1.9813027 89
1.7605577 0.01905977 1.9869798 83
2.0223472 0.027188027 2.0673294 21
2.3463407 0.031539924 1.9737986 67
2.8954809 0.038414918 1.9831401 20
3.7490661 0.049735509 2.0483663 39
4.636344 0.060696289 1.9616836 39
2.7921388 0.036066659 0.91019416 90
2.8144789 0.036355209 0.62586349 30
2.8332081 0.036102552 0.34682477 36
2.1319528 0.025681306 1.979459 77
2.6095133 0.030977292 1.9837791 35
3.2177567 0.038193922 1.9758627 70
4.0718894 0.047620792 1.9699289 52
2.7771821 0.031995218 1.0552406 92
2.8094082 0.031876061 0.76835257 93
2.8224437 0.031531278 0.48539555 34
3.2069397 0.035266586 0.22304827 87
0.031262998 -0.00016321382 1.9891979 80
0.31387004 0.0017728169 1.9958843 114
0.43014565 0.0034144789 2.0915227 100
0.60614884 0.0052072033 1.9838723 86
0.81569761 0.0071365968 1.9813049 88
1.0472599 0.0093350969 1.9857829 87
1.3006876 0.011588425 1.9830275 87
1.5983857 0.014235831 1.9897208 76
0.12418252 -0.00046108934 1.9810979 86
0.2186778 -0.0019360776 1.993349 91
0.50778139 0.0033961348 1.9912384 91
0.70843273 0.0049665412 1.980762 89
0.92935008 0.0068281703 1.9846202 95
1.1622306 0.0085327663 1.9712811 89
1.4402903 0.010568555 1.9813027 89
1.7606133 0.012914161 1.9869798 83
2.0224297 0.020128554 2.0673294 21
2.3464365 0.023349477 1.9737986 69
2.8955975 0.028307565 1.9831401 18
3.7492168 0.036648519 2.0483663 37
4.6365275 0.044512056 1.9616836 39
2.7970445 0.026365267 0.91160333 90
2.8145885 0.026530622 0.62586349 34
2.8333168 0.026212592 0.34682477 35
2.1320295 0.018239243 1.979459 77
2.6096058 0.021868203 1.9837791 35
3.2178705 0.026961623 1.9758627 68
4.072031 0.033406954 1.9699289 53
2.7772768 0.022300849 1.0552406 92
2.8095026 0.022069199 0.76835257 93
2.8225367 0.021678919 0.48539555 33
3.2070432 0.024072062 0.22304827 86
0.031262286 -0.00026688474 1.9891979 80
0.31387419 0.0007319767 1.9958843 113
0.43015459 0.0019880459 2.0915227 99
0.60616279 0.0031971131 1.9838723 80
0.8157168 0.0044316063 1.9813049 86
1.0472852 0.0058622058 1.9857829 87
1.3007189 0.0072751264 1.9830275 87
1.5984242 0.0089353137 1.9897208 76
0.12418045 -0.00085121737 1.9810979 88
0.21867065 -0.0026230633 1.993349 93
0.50778955 0.0018008782 1.9912384 91
0.70844483 0.0027409128 1.980762 87
0.92936766 0.0037462965 1.9846202 95
1.1622527 0.0046786233 1.9712811 91
1.4403175 0.0057923212 1.9813027 91
1.7606454 0.0073829768 1.9869798 83
2.0224855 0.013421824 2.0673294 23
2.3465011 0.015568283 1.9737986 67
2.8956754 0.018705262 1.9831401 18
3.7493176 0.024215469 2.0483663 37
4.6412807 0.02997572 1.9635568 39
2.7971137 0.017577976 0.91160333 84
2.814661 0.017196966 0.62586349 84
2.8333883 0.01681683 0.34682477 35
2.1320782 0.011169079 1.979459 77
2.609664 0.013214316 1.9837791 35
3.2179394 0.016852267 1.9758627 68
4.0721159 0.020614147 1.9699289 53
2.7773333 0.013575679 1.0552406 93
2.8144183 0.013265698 0.76952481 93
2.8225908 0.012811567 0.48539555 33
3.2120986 0.014018537 0.22324979 87
0.031261161 -0.00037600886 1.9891979 80
0.31387481 -0.00036369514 1.9958843 113
0.43015894 0.00048651409 2.0915227 99
0.60617024 0.0010811908 1.9838723 80
0.81572729 0.0015841966 1.9813049 86
1.0472993 0.0022064629 1.9857829 87
1.3007363 0.0027347258 1.9830275 87
1.5984457 0.0033557187 1.9897208 76
0.12417651 -0.0013063557 1.9810979 88
0.21865958 -0.0034245139 1.993349 93
0.50779277 -6.0344937e-05 1.9912384 91
0.71017575 0.00014461574 1.9854547 89
0.92937505 0.00050217542 1.9846202 95
1.1622618 0.0006215765 1.9712811 91
1.440329 0.00076464028 1.9813027 91
1.7606605 0.00092983968 1.9869798 83
2.0225198 0.0063619507 2.0673294 23
2.3465412 0.0073773712 1.9737986 67
2.8957231 0.0085973572 1.9831401 20
3.7493794 0.011127762 2.0483663 33
4.6413593 0.012964377 1.9635568 39
2.8019567 0.0073384861 0.91301256 53
2.8147037 0.0073718601 0.62586349 86
2.8384099 0.0069385264 0.347271 34
2.1321042 0.0037266689 1.979459 77
2.609694 0.0041048094 1.9837791 36
3.2179794 0.0050578169 1.9758627 69
4.0767026 0.0056952974 1.9720269 55
2.7820866 0.0034019232 1.0568832 95
2.8144481 0.0029502502 0.76952481 93
2.822619 0.0024661676 0.48539555 34
3.2171247 0.0022489997 0.22345132 87
0.03125966 -0.00048512837 1.9891979 80
0.31309468 -0.0014555234 1.9909451 113
0.42913979 -0.0010125961 2.0866275 99
0.6061703 -0.00103483 1.9838723 86
0.81572783 -0.0012633472 1.9813049 91
1.0473006 -0.001449454 1.9857829 89
1.300738 -0.0018058904 1.9830275 87
1.5984476 -0.0022241427 1.9897208 76
0.12417118 -0.0017398068 1.9810979 88
0.21864627 -0.0041877595 1.993349 93
0.50778949 -0.0018328741 1.9912384 89
0.71017194 -0.0023344608 1.9854547 89
0.92937112 -0.0027420826 1.9846202 96
1.162257 -0.0034356415 1.9712811 89
1.4403228 -0.004263253 1.9813027 89
1.760653 -0.0052162656 1.9869798 83
2.0225296 -0.00069828139 2.0673294 24
2.3465524 -0.00081395963 1.9737986 67
2.8957355 -0.0015110619 1.9831401 20
3.7449656 -0.0019582887 2.0460486 33
4.6413765 -0.0032377215 1.9635568 39
2.8019652 -0.0024426056 0.91301256 53
2.8147125 -0.0024537297 0.62586349 86
2.8384168 -0.0029698133 0.347271 33
2.1321042 -0.0037160858 1.979459 77
2.6096926 -0.0050051142 1.9837791 36
3.2179775 -0.0061755101 1.9758627 69
4.0766973 -0.0085356571 1.9720269 55
2.7820816 -0.0063097826 1.0568832 95
2.8144412 -0.0068744197 0.76952481 92
2.8275626 -0.0073999874 0.48608536 34
3.2221091 -0.0089952778 0.22365284 85
0.031301383 -0.00059568306 1.9941976 82
0.31308767 -0.0025484208 1.9909451 111
0.42913362 -0.0025105672 2.0866275 98
0.60616302 -0.0031507527 1.9838723 84
0.81571853 -0.0041107615 1.9813049 89
1.0472891 -0.0051052063 1.9857829 89
1.3007237 -0.0063463021 1.9830275 87
1.5984302 -0.0078037526 1.9897208 76
0.12416436 -0.0021732342 1.9810979 89
0.21863033 -0.0049509518 1.993349 93
0.50777996 -0.003605379 1.9912384 89
0.71015942 -0.0048134089 1.9854547 91
0.92935592 -0.0059861764 1.9846202 95
1.1622378 -0.007492654 1.9712811 89
1.4402992 -0.0092908917 1.9813027 89
1.7640141 -0.011383952 1.9906548 83
2.0225151 -0.0077582258 2.0673294 24
2.3465354 -0.0090049515 1.9737986 69
2.8957126 -0.011619056 1.9831401 20
3.744936 -0.015030647 2.0460486 36
4.6459727 -0.019458547 1.9654298 37
2.8019397 -0.012223274 0.91301256 89
2.8146868 -0.012278895 0.62586349 86
2.8383892 -0.012877719 0.347271 33
2.1320782 -0.011158495 1.979459 77
2.609659 -0.014114611 1.9837791 36
3.2179363 -0.017408311 1.9758627 70
4.076643 -0.022765934 1.9720269 56
2.7820427 -0.016021021 1.0568832 93
2.8144002 -0.01669861 0.76952481 90
2.8275194 -0.017269976 0.48608536 34
3.2270536 -0.020273874 0.22385439 86
0.031299114 -0.00070494169 1.9941976 82
0.31307685 -0.0036412852 1.9909451 110
0.42912227 -0.0040085078 2.0866275 98
0.6061483 -0.0052666375 1.9838723 84
0.81569916 -0.0069581252 1.9813049 89
1.0472649 -0.0087608956 1.9857829 89
1.3006936 -0.010886637 1.9830275 87
1.5983931 -0.013383267 1.9897208 74
0.12415602 -0.0026066357 1.9810979 89
0.21861172 -0.005714084 1.993349 93
0.50776428 -0.0053778398 1.9912384 89
0.71013838 -0.0072922986 1.9854547 91
0.9293294 -0.0092301974 1.9846202 96
1.1648124 -0.011575519 1.975547 89
1.4402579 -0.014318418 1.9813027 89
1.7639637 -0.01754144 1.9906548 85
2.0224757 -0.014818073 2.0673294 23
2.3503826 -0.01722437 1.9769365 67
2.8956544 -0.021726906 1.9831401 20
3.7448606 -0.028102819 2.0460486 36
4.6458759 -0.035675898 1.9654298 37
2.8018799 -0.022003794 0.91301256 93
2.8146267 -0.022103909 0.62586349 86
2.8433063 -0.022825446 0.3477172 33
2.1320264 -0.018600769 1.979459 77
2.6095941 -0.023223935 1.9837791 36
3.2178559 -0.028640898 1.9758627 69
4.0765386 -0.036995936 1.9720269 53
2.7819698 -0.025732065 1.0568832 93
2.8191853 -0.026568409 0.77069718 83
2.8274417 -0.027139755 0.48608536 59
3.2319591 -0.031587102 0.22405592 85
0.031296462 -0.00081419171 1.9941976 80
0.31306225 -0.004734105 1.9909451 111
0.43012381 -0.0055195498 2.0915227 98
0.60612625 -0.0073824576 1.9838723 82
0.81566989 -0.0098054046 1.9813049 89
1.047228 -0.012416479 1.9857829 89
