# .PCD v0.7 - Point Cloud Data file format
VERSION 0.7
FIELDS x y z intensity
SIZE 4 4 4 4
TYPE F F F F
COUNT 1 1 1 1
WIDTH 1433
HEIGHT 1
VIEWPOINT 0 0 0 1 0 0 0
POINTS 1433
DATA ascii
-0.61891305 -0.82913566 0.91636765 29
-0.68430942 -0.91641021 0.83446586 22
-0.67413765 -0.90278423 0.67609471 31
-0.69687259 -0.93289042 0.55878216 25
nan nan nan 0
-0.70865309 -0.94831532 0.31623358 8
nan nan nan 0
-0.64665592 -0.8637827 1.0418518 4
-0.73086494 -0.97591043 0.97133183 35
-0.65491354 -0.8744905 0.72737658 15
-0.69185543 -0.92348182 0.62088114 12
-0.70271128 -0.93763095 0.49672776 27
-0.8631348 -1.151265 0.43775898 7
-0.61201376 -0.81601959 0.23430261 4
-0.68944448 -0.91892612 0.14001751 16
-0.019165505 -0.0246999 1.9891979 67
-0.18970916 -0.25005594 1.9958843 86
-0.24816188 -0.32866517 2.0034087 62
-0.35865864 -0.47564906 1.9504702 37
-0.35812786 -0.47510916 1.4612198 32
-0.46590596 -0.61829948 1.4854755 50
-0.59989583 -0.79610574 1.5366691 76
-0.96968192 -1.2868243 2.0050688 47
-0.076335579 -0.098684147 1.9910811 82
-0.13501805 -0.17270689 1.9983203 51
-0.3080126 -0.40686962 2.0009167 93
-0.35974827 -0.47553411 1.6757323 38
-0.39892659 -0.52769256 1.4310178 38
-0.54048592 -0.71493125 1.5361557 93
-0.87769723 -1.1609621 2.00125 67
-1.0720158 -1.4179862 2.0053556 54
nan nan nan 0
-0.61712456 -0.82074738 0.91009212 25
-0.69253123 -0.92069924 0.83994877 21
-0.74918795 -0.99601763 0.73868144 23
-0.71406162 -0.94897389 0.5681473 23
nan nan nan 0
-0.73559284 -0.97723317 0.32369456 6
nan nan nan 0
-0.65191561 -0.86450189 1.0451766 3
-0.73426712 -0.97335321 0.97133183 34
nan nan nan 0
-0.74428463 -0.98627013 0.65864611 11
-0.71167064 -0.94271046 0.50001317 25
-0.86714828 -1.1482452 0.43775898 7
-0.60888815 -0.80597562 0.23292297 4
-0.69264799 -0.91651398 0.14001751 14
-0.019251607 -0.024632849 1.9891979 66
-0.19058087 -0.24939221 1.9958843 88
-0.24930762 -0.32779691 2.0034087 53
-0.35850996 -0.47201553 1.9409268 37
-0.3586027 -0.47230017 1.4566172 32
-0.45937055 -0.6052196 1.4591435 44
-0.60267103 -0.79400688 1.5366691 74
-0.97416782 -1.2834316 2.0050688 45
-0.076679595 -0.098417081 1.9910811 80
-0.13562009 -0.17223454 1.9983203 51
-0.30943096 -0.40579197 2.0009167 93
-0.35931411 -0.47153041 1.6663467 38
-0.40076616 -0.52629685 1.4310178 38
-0.54297823 -0.71304023 1.5361557 91
-0.88174438 -1.1578912 2.00125 63
-1.0769589 -1.4142355 2.0053556 47
-1.2448108 -1.6435617 2.1058795 16
-0.62468642 -0.82479471 0.91636765 11
-0.7007913 -0.92494196 0.84543175 21
-0.8222211 -1.0852058 0.79895008 20
-0.72857106 -0.96125394 0.57563943 21
nan nan nan 0
-0.750871 -0.99031663 0.32742503 5
nan nan nan 0
-0.65718812 -0.86519462 1.0485015 3
-0.74010569 -0.97400242 0.97427499 34
nan nan nan 0
-0.82462502 -1.0848341 0.71739161 15
-0.72067386 -0.94773865 0.50329852 25
-0.87409383 -1.1490798 0.43893132 7
-0.61169785 -0.80384535 0.23292297 4
-0.70794725 -0.92999125 0.14082363 27
-0.019310009 -0.024531592 1.984198 66
-0.19145027 -0.24872544 1.9958843 85
-0.25045034 -0.32692468 2.0034087 56
-0.35834032 -0.46838886 1.9313834 37
-0.35787532 -0.46794188 1.447412 35
-0.46002522 -0.60170925 1.4547548 48
-0.60543901 -0.79189831 1.5366691 74
-0.97864193 -1.2800232 2.0050688 45
-0.077022664 -0.098148815 1.9910811 78
-0.13622047 -0.17176008 1.9983203 51
-0.31084555 -0.40470937 2.0009167 95
-0.35885632 -0.46753556 1.6569612 38
-0.40392625 -0.52662259 1.4355185 37
-0.54546392 -0.71114057 1.5361557 91
-0.88394654 -1.152415 1.9972607 61
-1.081889 -1.4104676 2.0053556 39
-1.2527034 -1.6420419 2.1093841 16
-0.63228405 -0.82879907 0.92264318 7
-0.70908916 -0.92913806 0.85091466 19
-0.85019368 -1.1140251 0.8198123 20
-0.73754829 -0.96607447 0.57938552 17
nan nan nan 0
-0.77221256 -1.0111133 0.33302075 5
nan nan nan 0
-0.66247344 -0.86586118 1.0518264 3
-0.74350107 -0.97141308 0.97427499 33
nan nan nan 0
-0.82012945 -1.0711385 0.71109736 34
-0.72684932 -0.94896638 0.50494123 26
-0.87809962 -1.1460217 0.43893132 7
-0.6175127 -0.80563563 0.23361278 6
-0.71726924 -0.93544364 0.14122671 29
-0.019395521 -0.024464039 1.984198 67
-0.19231729 -0.24805564 1.9958843 78
-0.25158998 -0.32604843 2.0034087 52
-0.35906145 -0.46595222 1.9266117 37
-0.35831431 -0.46514222 1.4428096 38
-0.46943158 -0.60959047 1.4766982 56
-0.60819954 -0.78978014 1.5366691 72
-0.98310417 -1.2765994 2.0050688 47
-0.077364802 -0.097879358 1.9910811 78
-0.1368192 -0.17128354 1.9983203 51
-0.31225637 -0.40362185 2.0009167 95
-0.35943061 -0.46491486 1.6522684 38
-0.40576205 -0.52520943 1.4355185 37
-0.54794294 -0.70923215 1.5361557 91
-0.88796389 -1.1493224 1.9972607 59
-1.0868059 -1.4066826 2.0053556 34
-1.2584276 -1.6376591 2.1093841 16
-0.64228916 -0.8358472 0.93205655 4
-0.7123282 -0.92665714 0.85091466 18
-0.85677719 -1.114563 0.82213032 18
-0.74656802 -0.97084403 0.58313155 10
nan nan nan 0
-0.79071295 -1.0278789 0.33768386 5
nan nan nan 0
-0.66549176 -0.86354345 1.0518264 4
-0.74935532 -0.972013 0.97721815 32
nan nan nan 0
-0.82386345 -1.0682691 0.71109736 33
-0.733042 -0.95016241 0.50658387 27
-0.8850643 -1.1467975 0.44010365 6
-0.62940019 -0.81523484 0.23568225 5
-0.7266376 -0.94084215 0.14162976 25
-0.019480798 -0.024396189 1.984198 67
-0.19318201 -0.24738282 1.9958843 78
-0.25272658 -0.32516825 2.0034087 46
-0.35885409 -0.46233639 1.9170682 37
-0.35873809 -0.46234512 1.438207 39
-0.47889847 -0.61741322 1.4986415 67
-0.61095268 -0.78765231 1.5366691 70
-0.98755419 -1.2731601 2.0050688 47
-0.077705994 -0.097608715 1.9910811 77
-0.13741626 -0.1708049 1.9983203 51
-0.31366336 -0.40252945 2.0009167 95
-0.35893071 -0.46093434 1.6428828 38
-0.40893036 -0.52550852 1.4400194 37
-0.55041528 -0.70731515 1.5361557 91
-0.89197028 -1.1462158 1.9972607 57
-1.0917095 -1.4028803 2.0053556 17
-1.2488565 -1.6135151 2.0848522 14
nan nan nan 0
-0.71811843 -0.92747134 0.85365611 15
-0.85795033 -1.1080624 0.8198123 17
-0.75563008 -0.97556227 0.58687764 5
nan nan nan 0
-0.81234848 -1.0484107 0.34327957 4
nan nan nan 0
-0.67079192 -0.86416519 1.0551512 4
-0.75274372 -0.96939135 0.97721815 32
-0.80757284 -1.039996 0.85906279 3
-0.82758737 -1.0653868 0.71109736 29
-0.73925191 -0.95132667 0.50822657 28
-0.89204514 -1.1475385 0.44127598 6
nan nan nan 0
-0.73605245 -0.94618654 0.14203283 25
-0.019565839 -0.024328038 1.984198 67
-0.19404435 -0.24670696 1.9958843 74
-0.25386009 -0.32428408 2.0034087 39
-0.35862595 -0.45872778 1.9075248 37
-0.35914674 -0.4595508 1.4336045 39
-0.48695064 -0.62328935 1.5161961 75
-0.61196584 -0.78329736 1.5325361 67
-0.99199235 -1.2697051 2.0050688 49
-0.077864707 -0.097111262 1.9860895 75
-0.13801165 -0.17032419 1.9983203 53
-0.31506655 -0.40143207 2.0009167 95
-0.35947245 -0.4583208 1.6381902 38
-0.41076225 -0.52407789 1.4400194 37
-0.55127198 -0.70333695 1.5318898 93
-0.89596587 -1.1430953 1.9972607 57
-1.0965998 -1.399061 2.0053556 13
-1.2522888 -1.6063335 2.0813477 12
nan nan nan 0
-0.7213515 -0.924959 0.85365611 15
-0.86453736 -1.1085544 0.82213032 17
-0.76473403 -0.98022902 0.59062368 4
nan nan nan 0
-0.83111447 -1.0649313 0.34794268 4
nan nan nan 0
-0.67610437 -0.86476028 1.058476 4
-0.75861311 -0.96994174 0.98016131 32
-0.800574 -1.0235871 0.84893304 4
-0.83130115 -1.0624915 0.71109736 23
-0.74256808 -0.94874042 0.50822657 27
-0.89904183 -1.1482447 0.44244829 6
nan nan nan 0
-0.74551338 -0.95147657 0.14243588 24
-0.019650642 -0.024259593 1.984198 67
-0.19490434 -0.24602813 1.9958843 72
-0.25499052 -0.32339597 2.0034087 38
-0.35837695 -0.45512635 1.8979813 37
-0.36074871 -0.45829433 1.4336045 40
-0.4950496 -0.62911665 1.5337508 83
-0.61469644 -0.78115642 1.5325361 67
-0.99641854 -1.2662346 2.0050688 49
-0.078203224 -0.096838877 1.9860895 75
-0.13860534 -0.16984141 1.9983203 58
-0.31646585 -0.40032986 2.0009167 95
-0.36000031 -0.45570913 1.6334974 38
-0.41258913 -0.52264094 1.4400194 36
-0.55372381 -0.70140839 1.5318898 89
-0.89995062 -1.1399609 1.9972607 55
-1.1014768 -1.3952247 2.0053556 13
-1.2534833 -1.5963428 2.0743387 12
nan nan nan 0
-0.72199285 -0.91914696 0.85091466 15
-0.86840171 -1.1055298 0.82213032 19
-0.7681511 -0.97755361 0.59062368 4
nan nan nan 0
-0.85000551 -1.0813332 0.35260579 5
nan nan nan 0
-0.67911887 -0.86239499 1.058476 5
-0.76199424 -0.96728778 0.98016131 32
-0.80947793 -1.0275595 0.85399795 5
-0.83500499 -1.0595833 0.71109736 16
-0.74879897 -0.94985121 0.50986928 27
-0.90605444 -1.1489162 0.44362059 6
nan nan nan 0
-0.74883008 -0.94886845 0.14243588 23
-0.019735202 -0.024190851 1.984198 67
-0.19576195 -0.24534628 1.9958843 72
-0.25611782 -0.32250392 2.0034087 38
-0.35903534 -0.45270243 1.8932096 37
-0.36234623 -0.45703232 1.4336045 40
-0.49873072 -0.62926233 1.5381395 85
-0.61741936 -0.779006 1.5325361 67
-1.0008323 -1.2627487 2.0050688 50
-0.078540772 -0.096565299 1.9860895 71
-0.13919735 -0.16935655 1.9983203 62
-0.31786135 -0.39922273 2.0009167 95
-0.36051431 -0.4530994 1.6288046 38
-0.41441095 -0.5211975 1.4400194 37
-0.55616874 -0.69947124 1.5318898 89
-0.90392429 -1.1368123 1.9972607 55
-1.1168901 -1.4046389 2.0237315 13
-1.2546232 -1.5863631 2.0673294 13
nan nan nan 0
-0.72260249 -0.913342 0.8481732 15
-0.86950666 -1.0990175 0.8198123 22
-0.79169804 -1.0003124 0.60373497 4
nan nan nan 0
-0.86597174 -1.0937647 0.35633627 5
nan nan nan 0
-0.68676627 -0.86587065 1.0651257 9
-0.76787841 -0.96778846 0.98310447 33
-0.82377857 -1.038237 0.86412764 5
-0.84152001 -1.0602169 0.7131955 11
-0.75504661 -0.95093012 0.51151192 28
-0.91308248 -1.1495526 0.44479293 6
nan nan nan 0
-0.75524646 -0.95015967 0.14263742 17
-0.019819524 -0.024121815 1.984198 67
-0.19661717 -0.24466145 1.9958843 73
-0.25724202 -0.32160795 2.0034087 35
-0.358749 -0.44911262 1.8836662 37
-0.36272025 -0.45423806 1.4290019 40
-0.50092423 -0.62751758 1.5381395 85
-0.62013483 -0.77684605 1.5325361 67
-1.0052341 -1.2592474 2.0050688 52
-0.078877375 -0.096290559 1.9860895 73
-0.13978767 -0.16886961 1.9983203 66
-0.31925297 -0.39811078 2.0009167 95
-0.35993537 -0.44914502 1.6194191 38
-0.41622776 -0.51974779 1.4400194 37
-0.55860698 -0.69752556 1.5318898 87
-0.90788704 -1.1336503 1.9972607 57
-1.1387401 -1.421901 2.0531328 13
-1.2557091 -1.576395 2.0603204 14
nan nan nan 0
-0.72318041 -0.90754396 0.84543175 18
-0.88714206 -1.1132991 0.83140242 16
-0.78940558 -0.99029255 0.59998888 4
nan nan nan 0
-0.87897229 -1.1022571 0.35913411 6
nan nan nan 0
-0.69444609 -0.86930346 1.0717754 11
-0.77125198 -0.96510214 0.98310447 34
-0.83816355 -1.0488267 0.87425733 4
-0.85088366 -1.0643631 0.71739161 7
-0.76131082 -0.95197678 0.51315463 29
-0.91708964 -1.1463584 0.44479293 6
-0.90964139 -1.1366414 0.29500639 3
-0.76168078 -0.95141768 0.14283895 11
-0.019903604 -0.024052486 1.984198 67
-0.19747001 -0.24397364 1.9958843 71
-0.25900191 -0.32150093 2.0083039 32
-0.35937822 -0.44669396 1.8788944 37
-0.36430365 -0.45296919 1.4290019 44
-0.5031116 -0.62576526 1.5381395 85
-0.62460607 -0.77686977 1.5366691 65
-1.0096235 -1.2557309 2.0050688 57
-0.079028361 -0.095791593 1.9810979 71
-0.14037628 -0.16838065 1.9983203 66
-0.32064068 -0.39699396 2.0009167 95
-0.3604171 -0.4465431 1.6147263 38
-0.4166722 -0.51659662 1.4355185 37
-0.56103837 -0.69557142 1.5318898 84
-0.91183871 -1.1304743 1.9972607 57
-1.1649808 -1.4443047 2.0898843 13
-1.2589724 -1.5692208 2.0568159 16
-0.73030001 -0.91026866 1.0230522 4
-0.72372663 -0.90175301 0.84269023 19
-0.87715805 -1.0929204 0.8198123 10
-0.80446684 -1.0019909 0.607481 4
nan nan nan 0
-0.89204264 -1.1106719 0.36193198 6
nan nan nan 0
-0.69981742 -0.8697837 1.0751003 13
-0.77715051 -0.96555293 0.98604763 33
-0.83911628 -1.042536 0.8717249 4
-0.86313272 -1.0719914 0.72368574 7
-0.77055383 -0.95666909 0.51643997 29
-0.92413515 -1.146935 0.44596523 6
-0.91981894 -1.1411705 0.296386 3
-0.7649973 -0.94875318 0.14283895 6
-0.019987442 -0.023982862 1.984198 67
-0.19832042 -0.24328287 1.9958843 69
-0.26012257 -0.32059488 2.0083039 28
-0.35905463 -0.44311604 1.869351 38
-0.36588255 -0.45169476 1.4290019 40
-0.50529283 -0.6240052 1.5381395 81
-0.62731403 -0.77468473 1.5366691 63
-1.0140007 -1.2521989 2.0050688 61
-0.079362251 -0.095515154 1.9810979 71
-0.1409632 -0.16788962 1.9983203 66
-0.32202449 -0.39587229 2.0009167 93
-0.36088505 -0.44394329 1.6100335 38
-0.41847295 -0.51513898 1.4355185 38
-0.56346297 -0.69360876 1.5318898 84
-0.91577917 -1.1272844 1.9972607 57
-1.1742905 -1.4454919 2.0972347 14
-1.2599596 -1.5592687 2.0498068 16
-0.733473 -0.90771389 1.0230522 4
-0.72424126 -0.89596939 0.83994877 20
-0.88932264 -1.1001879 0.82676637 4
nan nan nan 0
nan nan nan 0
-0.90209293 -1.1151897 0.36379722 6
nan nan nan 0
-0.71460485 -0.8818422 1.0917245 14
-0.78306144 -0.96597403 0.98899078 33
-0.83189064 -1.0262045 0.86159521 4
-0.878304 -1.0830725 0.73207796 8
-0.77686369 -0.95764095 0.51808268 30
-0.92813301 -1.1437021 0.44596523 5
-0.939403 -1.1571767 0.29983512 3
-0.77145374 -0.94995511 0.14304048 12
-0.020071035 -0.023912948 1.984198 67
-0.19916843 -0.24258912 1.9958843 69
-0.26124009 -0.31968489 2.0083039 21
-0.35965484 -0.44070289 1.8645792 38
-0.36745703 -0.45041484 1.4290019 40
-0.50746799 -0.62223762 1.5381395 83
-0.63001436 -0.77249032 1.5366691 65
-1.0183655 -1.2486519 2.0050688 62
-0.07969518 -0.095237538 1.9810979 67
-0.14154837 -0.16739655 1.9983203 66
-0.32340437 -0.39474577 2.0009167 93
-0.360246 -0.44001043 1.600648 38
-0.41888952 -0.51198965 1.4310178 38
-0.56588072 -0.69163775 1.5318898 84
-0.91970855 -1.1240809 1.9972607 57
-1.1836226 -1.4466317 2.1045849 14
-1.2608926 -1.5493292 2.0427978 16
-0.72926533 -0.89609009 1.0136387 5
-0.72472441 -0.89019305 0.83720732 18
nan nan nan 0
nan nan nan 0
nan nan nan 0
-0.91218555 -1.1196506 0.36566246 6
nan nan nan 0
-0.70823371 -0.86776996 1.0784252 13
-0.79154128 -0.96949685 0.9948771 33
-0.83001465 -1.0166154 0.85653037 5
-0.89356309 -1.0940604 0.74047017 16
-0.78617758 -0.96223748 0.52136803 30
-0.93519568 -1.1442188 0.44713756 5
-0.93716735 -1.1462228 0.29845548 3
-0.77476501 -0.94725645 0.14304048 9
-0.020154387 -0.023842741 1.984198 67
-0.20001401 -0.2418924 1.9958843 69
-0.26558995 -0.32270169 2.0327799 15
-0.35929424 -0.43713728 1.8550358 37
-0.36902708 -0.44912946 1.4290019 39
-0.50963688 -0.62046242 1.5381395 85
-0.63627928 -0.77463537 1.544935 67
-1.022718 -1.2450895 2.0050688 66
-0.080027133 -0.094958775 1.9810979 67
-0.14213184 -0.16690142 1.9983203 66
-0.32478034 -0.39361447 2.0009167 95
-0.36068183 -0.43741888 1.5959551 38
-0.42067415 -0.51052439 1.4310178 39
-0.56829149 -0.68965822 1.5318898 84
-0.92362678 -1.1208637 1.9972607 57
-1.1908211 -1.4451076 2.1082602 15
-1.2617716 -1.539402 2.0357888 17
-0.73238873 -0.89353895 1.0136387 5
-0.72782737 -0.88765794 0.83720732 18
nan nan nan 0
nan nan nan 0
nan nan nan 0
-0.92232031 -1.1240547 0.36752769 6
nan nan nan 0
-0.70888722 -0.86240768 1.0751003 8
-0.7974878 -0.96984994 0.99782026 33
-0.80617595 -0.98041171 0.83120602 6
-0.91467565 -1.1119649 0.75305843 16
-0.79853362 -0.9704271 0.52629608 30
-0.94227326 -1.1447003 0.44830987 5
-0.94116265 -1.1429446 0.29845548 3
-0.78124326 -0.94840235 0.143242 8
-0.020237489 -0.023772243 1.984198 67
-0.20085716 -0.24119276 1.9958843 68
-0.26346552 -0.31785336 2.0083039 7
-0.35986549 -0.43472993 1.8502641 37
-0.37183812 -0.44934368 1.4336045 39
-0.51179957 -0.6186797 1.5381395 83
-0.64974177 -0.78541917 1.5697327 74
-1.0270579 -1.2415119 2.0050688 68
-0.08035811 -0.094678849 1.9810979 66
-0.14271356 -0.16640428 1.9983203 67
-0.32615232 -0.39247838 2.0009167 96
-0.36110398 -0.43482962 1.5912623 38
-0.42245364 -0.50905281 1.4310178 39
-0.5706954 -0.68767029 1.5318898 80
-0.92753369 -1.1176327 1.9972607 61
-1.1958582 -1.440942 2.1082602 15
-1.2625967 -1.5294878 2.0287795 17
-0.74045992 -0.89698124 1.0199144 5
-0.72825891 -0.88188773 0.83446586 20
nan nan nan 0
-0.91581261 -1.1086063 0.66929108 4
nan nan nan 0
-0.93249685 -1.1284016 0.36939293 5
nan nan nan 0
-0.70713049 -0.85417479 1.0684506 8
-0.80602449 -0.97328633 1.0037066 33
-0.78759462 -0.95102817 0.81094664 6
-0.92434239 -1.1157554 0.75725454 14
-0.80794293 -0.97490597 0.52958143 29
-0.94936544 -1.145146 0.44948217 5
-0.94198525 -1.1358404 0.29776567 3
-0.78454906 -0.94566953 0.143242 13
-0.020320348 -0.023701455 1.984198 67
-0.20169786 -0.24049017 1.9958843 62
nan nan nan 0
-0.35946792 -0.4311769 1.8407205 37
-0.37340438 -0.44804299 1.4336045 39
-0.51395613 -0.61688942 1.5381395 83
-0.6596846 -0.79179418 1.5862645 87
-1.0313853 -1.2379193 2.0050688 69
-0.080688119 -0.094397761 1.9810979 66
-0.14329356 -0.16590509 1.9983203 71
-0.32832769 -0.39230204 2.0057559 95
-0.36151245 -0.43224287 1.5865697 38
-0.42422801 -0.50757509 1.4310178 39
-0.5730924 -0.68567401 1.5318898 80
-0.93142933 -1.1143882 1.9972607 63
-1.2030549 -1.43936 2.1119354 15
-1.2633681 -1.5195867 2.0217705 17
-0.74607509 -0.89738446 1.0230522 5
-0.73133284 -0.87934029 0.83446586 27
nan nan nan 0
-0.91671187 -1.1018389 0.66741806 5
nan nan nan 0
-0.93957245 -1.1289154 0.37032557 5
nan nan nan 0
-0.7101078 -0.85170126 1.0684506 8
-0.812006 -0.97357094 1.0066497 35
-0.76881844 -0.92178667 0.79068726 9
-0.92823154 -1.112522 0.75725454 12
-0.81436718 -0.97570527 0.53122413 25
-0.95335692 -1.1418251 0.44948217 4
-0.94911897 -1.1363461 0.29845548 4
-0.79104871 -0.9467591 0.14344354 13
-0.020402957 -0.023630381 1.984198 67
-0.20253609 -0.23978466 1.9958843 61
nan nan nan 0
-0.36001039 -0.4287757 1.8359488 37
-0.37496606 -0.44673681 1.4336045 39
-0.51610631 -0.61509162 1.5381395 83
-0.68595916 -0.81751037 1.6399928 96
-1.0357002 -1.2343116 2.0050688 69
-0.081206426 -0.094334677 1.9860895 67
-0.14387178 -0.16540389 1.9983203 73
-0.33050576 -0.39211529 2.0105951 95
-0.36190727 -0.42965847 1.5818769 38
-0.4259972 -0.50609118 1.4310178 39
-0.57548231 -0.68366933 1.5318898 80
-0.93531358 -1.1111301 1.9972607 65
-1.2080719 -1.4351518 2.1119354 15
-1.2663753 -1.5124331 2.018266 18
-0.75420141 -0.90074426 1.0293278 6
-0.73439789 -0.87678212 0.83446586 28
-0.92261177 -1.1014807 0.83835655 3
-0.86695862 -1.0346712 0.63370347 12
-0.810709 -0.96719748 0.46066082 3
-0.94981837 -1.133158 0.3721908 4
nan nan nan 0
-0.71307641 -0.84921724 1.0684506 8
-0.81799918 -0.97382563 1.0095929 35
-0.73321009 -0.87288123 0.75523329 22
-0.9321093 -1.1092751 0.75725454 8
-0.80257457 -0.95478189 0.52301073 9
-0.95733684 -1.1384903 0.44948217 4
-0.95307976 -1.1330262 0.29845548 4
-0.79756534 -0.9478147 0.14364508 12
-0.020485317 -0.023559017 1.984198 69
-0.20387544 -0.23966788 2.0008237 54
nan nan nan 0
-0.35957608 -0.42523557 1.8264054 37
-0.37652317 -0.44542521 1.4336045 39
-0.51825023 -0.61328638 1.5381395 83
nan nan nan 0
-1.0400023 -1.2306888 2.0050688 69
-0.081535213 -0.094050631 1.9860895 67
-0.14444828 -0.16490068 1.9983203 73
-0.33268654 -0.39191809 2.0154345 96
-0.36117208 -0.42576072 1.5724913 38
-0.42776117 -0.50460112 1.4310178 40
-0.5778653 -0.68165642 1.5318898 78
-0.93918645 -1.1078585 1.9972607 67
-1.2130741 -1.4309262 2.1119354 15
-1.2693479 -1.5052773 2.0147614 18
-0.75734097 -0.8981061 1.0293278 6
-0.74015003 -0.87740934 0.83720732 18
-0.91788137 -1.0880946 0.83140242 4
nan nan nan 0
-0.79860753 -0.94603282 0.45361483 4
-0.95693672 -1.1335893 0.37312341 4
nan nan nan 0
-0.71603644 -0.84672308 1.0684506 8
-0.82400399 -0.97405016 1.012536 35
-0.73625255 -0.87031657 0.75523329 23
-0.93597573 -1.1060146 0.75725454 6
nan nan nan 0
-0.96444637 -1.1388509 0.45065451 4
-0.96022999 -1.133471 0.29914528 4
-0.80732894 -0.95264769 0.14404814 14
-0.020596631 -0.023519788 1.9891979 67
-0.2047108 -0.23895475 2.0008237 54
nan nan nan 0
-0.3600899 -0.4228408 1.8216337 37
-0.37807572 -0.44410819 1.4336045 39
-0.52038789 -0.6114735 1.5381395 83
-0.8448509 -0.99271244 1.9871606 57
-1.044292 -1.2270509 2.0050688 74
-0.081863001 -0.093765453 1.9860895 67
-0.14502302 -0.16439547 1.9983203 73
-0.33568734 -0.39266646 2.0251129 96
-0.36153513 -0.42318541 1.5677986 37
-0.42951998 -0.50310481 1.4310178 40
-0.58024114 -0.67963511 1.5318898 74
-0.94109088 -1.1022812 1.9932711 70
-1.2180616 -1.4266831 2.1119354 15
-1.2722862 -1.498119 2.0112567 27
-0.76299119 -0.89842415 1.0324655 7
-0.74320829 -0.87482035 0.83720732 16
-0.93027902 -1.0950128 0.83835655 4
nan nan nan 0
-0.79879767 -0.93958443 0.45220566 5
-0.96406966 -1.1339846 0.37405604 5
nan nan nan 0
-0.71898764 -0.84421849 1.0684506 7
-0.82739908 -0.97116792 1.012536 36
-0.74208188 -0.87102294 0.75776571 28
-0.93688679 -1.0992866 0.75515652 6
nan nan nan 0
-0.96841568 -1.1354774 0.45065451 3
-0.96739489 -1.1338797 0.29983512 4
-0.81064945 -0.94982374 0.14404814 10
-0.020678606 -0.023447748 1.9891979 67
-0.20554365 -0.23823875 2.0008237 52
nan nan nan 0
-0.36059129 -0.42044759 1.816862 37
-0.37835196 -0.44130266 1.4290019 40
-0.52251911 -0.60965335 1.5381395 85
-0.85380495 -0.99616718 1.9995594 53
-1.0485688 -1.2233982 2.0050688 76
-0.082189813 -0.093479119 1.9860895 67
-0.14559598 -0.16388823 1.9983203 73
-0.33869737 -0.39339861 2.0347912 96
-0.36188459 -0.42061272 1.5631058 37
-0.43127352 -0.50160247 1.4310178 40
-0.58261001 -0.67760557 1.5318898 74
-0.94493276 -1.0989896 1.9932711 74
-1.2230343 -1.4224224 2.1119354 15
-1.2775078 -1.4936687 2.0112567 36
-0.76612264 -0.89575535 1.0324655 7
-0.74625736 -0.87222075 0.83720732 15
-0.92545521 -1.0816602 0.83140242 4
nan nan nan 0
nan nan nan 0
-0.97121698 -1.1343439 0.37498868 5
nan nan nan 0
-0.72193021 -0.84170353 1.0684506 7
-0.83078402 -0.96827382 1.012536 36
-0.75073254 -0.87497121 0.76283056 29
-0.94071823 -1.0960095 0.75515652 7
nan nan nan 0
-0.97237337 -1.1320902 0.45065451 3
-0.97457433 -1.134252 0.30052492 4
-0.82047307 -0.9545657 0.1444512 19
-0.020760328 -0.023375424 1.9891979 67
-0.206374 -0.23751982 2.0008237 45
nan nan nan 0
-0.36010417 -0.41692585 1.8073186 37
-0.37989011 -0.43997926 1.4290019 39
-0.52464402 -0.6078257 1.5381395 85
-0.85727698 -0.99318081 1.9995594 51
-1.0528328 -1.2197306 2.0050688 78
-0.08251562 -0.093191661 1.9860895 66
-0.14616717 -0.16337901 1.9983203 73
-0.34089258 -0.39316425 2.0396304 97
-0.36109039 -0.41673863 1.5537202 37
-0.43444735 -0.50174022 1.4355185 40
-0.58497173 -0.67556769 1.5318898 70
-0.94876325 -1.0956844 1.9932711 76
-1.2279919 -1.4181446 2.1119354 16
-1.2803863 -1.4864981 2.0077524 38
-0.76924473 -0.89307559 1.0324655 7
-0.75202703 -0.8727783 0.83994877 10
-0.935009 -1.0851353 0.83603847 4
-0.90856117 -1.054069 0.6505608 5
nan nan nan 0
-0.97837847 -1.1346669 0.37592128 5
nan nan nan 0
-0.72242284 -0.83635241 1.0651257 7
-0.83415884 -0.96536797 1.012536 36
-0.7594198 -0.87886959 0.7678954 31
-0.9415704 -1.0892855 0.75305843 9
-0.84980476 -0.98277718 0.5410803 5
-0.97631925 -1.1286891 0.45065451 3
-0.98176807 -1.1345879 0.30121472 4
-0.82380003 -0.95169592 0.1444512 21
-0.020841796 -0.023302814 1.9891979 67
-0.20720187 -0.23679797 2.0008237 43
nan nan nan 0
-0.36057708 -0.4145394 1.8025469 37
-0.38142359 -0.43865052 1.4290019 40
-0.52676249 -0.60599065 1.5381395 81
-0.86073864 -0.99018228 1.9995594 51
-1.0570842 -1.2160481 2.0050688 80
-0.083033495 -0.093118846 1.9910811 66
-0.14673658 -0.16286778 1.9983203 73
-0.34309024 -0.3929193 2.0444696 96
-0.36140823 -0.41417545 1.5490276 38
-0.43905872 -0.50350332 1.4445202 40
-0.58732635 -0.6735217 1.5318898 70
-0.95258212 -1.0923659 1.9932711 78
-1.2329347 -1.4138495 2.1119354 17
-1.2855675 -1.4820197 2.0077524 60
-0.77235752 -0.89038503 1.0324655 8
-0.74684751 -0.86067349 0.83172441 5
-0.94169474 -1.0852112 0.83835655 4
-0.90919608 -1.0473903 0.64868772 17
nan nan nan 0
-0.98555404 -1.134954 0.37685391 5
nan nan nan 0
-0.7253378 -0.83382553 1.0651257 7
-0.83752358 -0.96245033 1.012536 37
-0.77097344 -0.88597012 0.77549273 30
-0.94238698 -1.082569 0.75096041 7
-0.85943282 -0.98692757 0.54436564 4
-0.9802531 -1.1252741 0.45065451 3
-0.988976 -1.1348875 0.30190456 4
nan nan nan 0
-0.020923011 -0.023229919 1.9891979 67
-0.20802715 -0.23607327 2.0008237 40
nan nan nan 0
-0.36005351 -0.41103142 1.7930034 37
-0.38295245 -0.43731642 1.4290019 40
-0.52887464 -0.60414821 1.5381395 79
-0.8641898 -0.98717177 1.9995594 51
-1.0613226 -1.2123507 2.0050688 78
-0.083358042 -0.092828445 1.9910811 66
-0.14730419 -0.1623546 1.9983203 75
-0.34529036 -0.39266384 2.049309 96
-0.3617126 -0.41161513 1.5443348 38
-0.44225061 -0.50360399 1.449021 40
-0.58967382 -0.67146742 1.5318898 70
-0.95638937 -1.0890341 1.9932711 80
-1.2356255 -1.4069899 2.1082602 18
-1.2883866 -1.4748374 2.0042477 73
-0.77546078 -0.88768357 1.0324655 8
-0.76910782 -0.8801012 0.85091466 5
-0.94547701 -1.0819174 0.83835655 5
-0.90064174 -1.0302492 0.6411956 25
nan nan nan 0
-0.99274349 -1.1352044 0.37778652 6
nan nan nan 0
-0.72824395 -0.83128864 1.0651257 7
-0.84087801 -0.959521 1.012536 37
-0.77974433 -0.88975823 0.78055757 22
-0.94616014 -1.0792729 0.75096041 5
-0.86910003 -0.99102253 0.54765099 4
-0.98417509 -1.1218456 0.45065451 4
-0.98639852 -1.1239842 0.30052492 5
nan nan nan 0
-0.021003973 -0.023156743 1.9891979 67
-0.20884995 -0.23534569 2.0008237 39
nan nan nan 0
-0.36049804 -0.40865213 1.7882317 37
-0.38447663 -0.43597698 1.4290019 40
-0.53098023 -0.60229838 1.5381395 79
-0.8676303 -0.98414916 1.9995594 53
-1.0655479 -1.2086387 2.0050688 78
-0.083681561 -0.092536904 1.9910811 66
-0.14750938 -0.16144571 1.993349 77
-0.34665889 -0.39145613 2.049309 96
-0.36085984 -0.40776548 1.5349492 37
-0.45121944 -0.51021355 1.4715252 43
-0.59201407 -0.66940504 1.5318898 67
-0.96018499 -1.0856892 1.9932711 82
-1.2405292 -1.4026682 2.1082602 21
-1.293527 -1.4703312 2.0042477 71
-0.77855474 -0.88497132 1.0324655 8
-0.78875017 -0.89624476 0.86736345 5
-0.96973586 -1.1018903 0.85458273 12
-0.90729588 -1.0305786 0.64306861 33
nan nan nan 0
-0.99994653 -1.1354188 0.37871915 4
nan nan nan 0
-0.73114127 -0.82874149 1.0651257 7
-0.84422225 -0.95657986 1.012536 38
-0.79140365 -0.89672828 0.78815484 9
-0.94992173 -1.0759635 0.75096041 5
nan nan nan 0
-0.98808509 -1.1184033 0.45065451 4
-0.98047751 -1.1094022 0.29845548 5
nan nan nan 0
-0.021080647 -0.023086965 1.9891979 67
-0.21014705 -0.23523115 2.0057628 38
nan nan nan 0
-0.35986757 -0.40522102 1.7786882 37
-0.38592029 -0.43469962 1.4290019 45
-0.5329746 -0.60053432 1.5381395 79
-0.87088919 -0.98126656 1.9995594 55
-1.06955 -1.2050985 2.0050688 78
-0.083971858 -0.092273548 1.9910811 64
-0.14801584 -0.16098149 1.993349 75
-0.34788698 -0.39036515 2.049309 96
-0.3609913 -0.40534115 1.5302565 37
-0.45870131 -0.51522034 1.4895285 55
-0.59423059 -0.66743815 1.5318898 65
-0.96377993 -1.082499 1.9932711 82
-1.2426758 -1.3962318 2.1045849 22
-1.2983956 -1.4660336 2.0042477 66
-0.78148514 -0.88238466 1.0324655 8
-0.79449087 -0.89675409 0.87010491 5
-0.94694376 -1.0688246 0.83372045 5
-0.91052908 -1.0277232 0.64306861 36
nan nan nan 0
-1.006965 -1.1357722 0.37965176 4
nan nan nan 0
-0.73388541 -0.82631236 1.0651257 7
-0.84738976 -0.95377511 1.012536 38
-0.79994267 -0.90068436 0.79321969 6
-0.92918199 -1.0458313 0.73417598 6
nan nan nan 0
-0.99159378 -1.1152936 0.45065451 4
-0.9740845 -1.0952152 0.296386 5
-0.90641701 -1.0187751 0.14868334 5
-0.021161105 -0.02301324 1.9891979 67
-0.21096687 -0.23449616 2.0057628 38
nan nan nan 0
-0.36028418 -0.4028492 1.7739165 37
-0.3887375 -0.43480626 1.4336045 40
-0.53506768 -0.59867024 1.5381395 77
-0.87430912 -0.97822058 1.9995594 57
-1.0737501 -1.2013578 2.0050688 78
-0.084309489 -0.091965161 1.9910811 64
-0.14860488 -0.16043791 1.993349 75
-0.3493154 -0.38908744 2.049309 96
-0.36016968 -0.40144652 1.5208709 37
-0.46631217 -0.52010167 1.5075319 73
-0.59655684 -0.6653598 1.5318898 63
-0.96755278 -1.0791283 1.9932711 84
-1.2455218 -1.3891435 2.1009099 23
-1.3035052 -1.4614924 2.0042477 62
-0.78715158 -0.88255662 1.0356033 6
nan nan nan 0
-0.95066887 -1.0655128 0.83372045 5
-0.91428971 -1.024379 0.64306861 35
nan nan nan 0
-1.0141951 -1.1359146 0.38058439 4
nan nan nan 0
-0.73676533 -0.82374561 1.0651257 7
-0.85340911 -0.95382363 1.0154792 38
-0.81186259 -0.90738523 0.80081695 6
-0.87549883 -0.97816491 0.69431299 6
-0.87610865 -0.97850245 0.54600835 4
-0.99567485 -1.1116518 0.45065451 4
-0.96817821 -1.0805728 0.29431656 11
-0.99350744 -1.1084533 0.15372163 5
-0.021241307 -0.022939231 1.9891979 67
-0.21178412 -0.23375832 2.0057628 36
nan nan nan 0
-0.36068866 -0.40047938 1.7691448 37
-0.39025286 -0.43344668 1.4336045 39
-0.53715414 -0.59679878 1.5381395 75
-0.87771845 -0.97516268 1.9995594 59
-1.0757923 -1.1952195 2.0012317 76
-0.084629998 -0.091670305 1.9910811 62
-0.14916401 -0.15991822 1.993349 75
-0.35067144 -0.38786578 2.049309 96
-0.36041188 -0.39890644 1.5161781 37
-0.47542205 -0.52655238 1.530036 85
-0.5988757 -0.66327339 1.5318898 61
-0.97131371 -1.0757442 1.9932711 87
-1.2503632 -1.3847874 2.1009099 25
-1.3085986 -1.4569334 2.0042477 54
-0.79022747 -0.8798036 1.0356033 5
nan nan nan 0
-0.95142156 -1.0588924 0.83140242 5
-0.91785997 -1.0211813 0.64306861 28
nan nan nan 0
-1.0214384 -1.1360202 0.38151699 4
nan nan nan 0
-0.73713702 -0.81839406 1.0618008 7
-0.85673338 -0.9508388 1.0154792 38
-0.81791097 -0.90774864 0.80334938 7
-0.81205803 -0.9009366 0.64815581 18
-0.87635654 -0.97193104 0.54436564 5
-0.99954915 -1.1081694 0.45065451 4
-0.9653092 -1.0698334 0.29293695 10
-1.06432 -1.1791507 0.15775225 4
-0.021321252 -0.022864949 1.9891979 67
-0.21259882 -0.23301764 2.0057628 35
nan nan nan 0
-0.36108094 -0.39811164 1.7643731 37
-0.39176354 -0.43208179 1.4336045 36
-0.53923404 -0.59492022 1.5381395 75
-0.88111699 -0.97209299 1.9995594 61
-1.0799578 -1.191457 2.0012317 73
-0.084949471 -0.091374338 1.9910811 62
-0.14972132 -0.15939654 1.993349 77
-0.35202321 -0.38663933 2.049309 96
-0.3606407 -0.39636955 1.5114855 37
-0.47725713 -0.52488971 1.530036 90
-0.60118729 -0.66117889 1.5318898 59
-0.97506279 -1.0723472 1.9932711 87
-1.2529085 -1.3779061 2.0972347 25
-1.3136765 -1.4523567 2.0042477 52
-0.79590517 -0.8799268 1.038741 5
nan nan nan 0
-0.88377368 -0.97672409 0.77576983 7
-0.92141885 -1.0179712 0.64306861 20
nan nan nan 0
-1.0286949 -1.1360891 0.38244963 4
nan nan nan 0
-0.7450071 -0.82134795 1.0684506 8
-0.86004716 -0.94784254 1.0154792 38
-0.8297658 -0.91446638 0.81094664 6
-0.80909723 -0.89137554 0.6439597 23
-0.89879155 -0.98984331 0.55422175 7
-1.0034113 -1.1046736 0.45065451 4
-0.96570742 -1.0627921 0.29224712 9
nan nan nan 0
-0.021400936 -0.022790384 1.9891979 67
-0.21341088 -0.2322741 2.0057628 33
nan nan nan 0
-0.36045384 -0.39464334 1.7548296 37
-0.39195201 -0.42926893 1.4290019 35
-0.54130745 -0.59303433 1.5381395 75
-0.88450491 -0.96901143 1.9995594 65
-1.0841103 -1.1876801 2.0012317 64
-0.085267909 -0.091077246 1.9910811 58
-0.15027681 -0.15887296 1.993349 78
-0.35337067 -0.38540813 2.049309 96
-0.36085624 -0.39383596 1.5067927 37
-0.47908646 -0.52322054 1.530036 90
-0.6034916 -0.65907633 1.5318898 55
-0.97880012 -1.0689369 1.9932711 87
-1.2577108 -1.3735242 2.0972347 22
-1.318738 -1.4477623 2.0042477 48
-0.79635036 -0.87426531 1.0356033 4
nan nan nan 0
-0.81556487 -0.89504194 0.72013724 25
-0.92496663 -1.0147487 0.64306861 18
-0.90851974 -0.99635601 0.48602635 3
-1.035964 -1.136121 0.38338223 4
nan nan nan 0
-0.74786955 -0.81874239 1.0684506 10
-0.86607707 -0.94781852 1.0184224 38
-0.83876914 -0.91792971 0.81601149 5
-0.81220382 -0.88854575 0.6439597 24
-0.89268082 -0.97624451 0.5492937 10
-1.0138224 -1.1083373 0.45299914 4
-0.96606827 -1.0557612 0.29155731 8
nan nan nan 0
-0.021480359 -0.022715542 1.9891979 67
-0.21422037 -0.23152775 2.0057628 30
nan nan nan 0
-0.36081809 -0.3922835 1.7500579 37
-0.39344808 -0.42789814 1.4290019 35
-0.54337424 -0.59114116 1.5381395 73
-0.88788193 -0.96591794 1.9995594 67
-1.0882494 -1.1838886 2.0012317 49
-0.085585311 -0.090779051 1.9910811 56
-0.15119921 -0.15873356 1.9983203 80
-0.35386053 -0.38324824 2.0444696 95
-0.35988826 -0.39003748 1.4974072 37
-0.47795731 -0.51834309 1.5210344 80
-0.60578847 -0.65696573 1.5318898 53
-0.98252535 -1.0655138 1.9932711 87
-1.2601994 -1.3666334 2.0935595 15
-1.3237836 -1.4431502 2.0042477 48
-0.80729169 -0.88008642 1.0450165 4
nan nan nan 0
-0.81868422 -0.89218968 0.72013724 25
-0.92850316 -1.0115137 0.64306861 8
-0.90874738 -0.989645 0.48461714 4
-1.0399234 -1.1324979 0.38338223 4
nan nan nan 0
-0.74819481 -0.81337845 1.0651257 4
-0.86938035 -0.94478959 1.0184224 37
-0.8448875 -0.91816872 0.81854391 5
-0.8091529 -0.87902689 0.63976359 24
-0.91527677 -0.99396628 0.5591498 12
-1.0176852 -1.1047918 0.45299914 3
-0.96974766 -1.0523826 0.29155731 7
nan nan nan 0
-0.02155952 -0.022640422 1.9891979 67
-0.21555707 -0.23134692 2.0107021 28
nan nan nan 0
-0.36117026 -0.38992596 1.7452862 37
-0.39361191 -0.42508873 1.4243995 37
-0.54543436 -0.58924079 1.5381395 71
-0.89124823 -0.96281278 1.9995594 67
-1.0923753 -1.1800826 2.0012317 34
-0.08590167 -0.090479754 1.9910811 53
-0.15175237 -0.15820481 1.9983203 82
-0.35519618 -0.38201067 2.0444696 95
-0.36007279 -0.38751477 1.4927144 37
-0.47235447 -0.50869262 1.4985301 71
-0.60807806 -0.65484715 1.5318898 51
-0.98623878 -1.0620778 1.9932711 87
-1.2603484 -1.3572576 2.0862093 10
-1.331233 -1.4411401 2.0077524 44
-0.80771738 -0.87440354 1.0418788 4
nan nan nan 0
-0.81878692 -0.8860727 0.71781921 27
-0.93202829 -1.0082664 0.64306861 8
-0.94802368 -1.0252111 0.50011832 6
-1.0505403 -1.1360743 0.38524747 4
nan nan nan 0
-1.4412977 -1.5559227 1.9694844 7
-0.87542027 -0.94471389 1.0213655 38
-0.84808737 -0.91521388 0.81854391 16
-0.81838721 -0.88285398 0.6439597 16
-0.93479598 -1.0080792 0.5673632 7
-1.0149242 -1.0941056 0.45065451 3
-0.97678381 -1.0526211 0.29224712 7
nan nan nan 0
-0.021607781 -0.022533959 1.984198 67
-0.21636331 -0.23059309 2.0107021 24
nan nan nan 0
-0.36151037 -0.38757071 1.7405144 37
-0.39509332 -0.42371219 1.4243995 39
-0.54748791 -0.58733326 1.5381395 69
-0.89460361 -0.95969588 1.9995594 67
-1.0964879 -1.1762623 2.0012317 15
-0.086216979 -0.090179347 1.9910811 53
-0.15230368 -0.15767413 1.9983203 84
-0.35652745 -0.38076851 2.0444696 93
-0.35906509 -0.38373548 1.4833288 37
-0.46669006 -0.49908763 1.4760261 55
-0.61036021 -0.65272057 1.5318898 46
-0.98994005 -1.0586287 1.9932711 87
-1.2604473 -1.3478978 2.0788589 8
-1.3362554 -1.4364846 2.0077524 44
nan nan nan 0
-0.97568071 -1.0484962 1.023627 3
-0.82489288 -0.88645244 0.72013724 27
-0.93554217 -1.0050069 0.64306861 7
-0.95159656 -1.0218958 0.50011832 6
-1.0578474 -1.1359953 0.3861801 4
nan nan nan 0
-1.4390782 -1.5426902 1.9595098 7
-0.88147032 -0.9446075 1.0243087 37
-0.85421836 -0.91540003 0.82107633 19
-0.90198594 -0.9662506 0.6985091 5
-0.93508607 -1.0013585 0.5657205 6
nan nan nan 0
-0.98383337 -1.0528235 0.29293695 6
nan nan nan 0
-0.021686308 -0.022458397 1.984198 67
-0.21770068 -0.23040108 2.0156415 18
nan nan nan 0
-0.3618384 -0.38521788 1.7357427 37
-0.39523262 -0.42090631 1.4197969 39
-0.54953474 -0.58541864 1.5381395 69
-0.89794815 -0.95656729 1.9995594 76
-1.0983931 -1.1700903 1.9973947 9
-0.086531237 -0.089877851 1.9910811 49
-0.15285313 -0.15714154 1.9983203 84
-0.3578544 -0.37952167 2.0444696 89
-0.3592189 -0.38122386 1.4786361 37
-0.45947158 -0.48794308 1.449021 55
-0.6126349 -0.65058601 1.5318898 46
-0.99362934 -1.0551666 1.9932711 87
-1.2604964 -1.3385535 2.0715086 8
-1.3412615 -1.4318113 2.0077524 44
nan nan nan 0
-0.98791218 -1.0542375 1.0318514 3
-0.83101135 -0.88680023 0.72245526 26
-0.93904459 -1.0017351 0.64306861 7
-0.98141021 -1.0465628 0.51139188 8
-1.0685266 -1.1394622 0.38804534 4
nan nan nan 0
-1.4802499 -1.5757625 2.006058 14
-0.88476217 -0.9415248 1.0243087 37
-0.8574084 -0.91241264 0.82107633 17
-0.98617589 -1.0490733 0.75305843 4
-0.95798653 -1.0187298 0.5755766 4
nan nan nan 0
-0.9875024 -1.0493828 0.29293695 6
nan nan nan 0
-0.021764569 -0.022382561 1.984198 67
-0.21850362 -0.22963974 2.0156415 15
nan nan nan 0
-0.36215448 -0.38286749 1.730971 37
-0.39804178 -0.42094359 1.4243995 39
-0.55157489 -0.58349687 1.5381395 66
-0.90128171 -0.95342708 1.9995594 76
-1.1002684 -1.1639193 1.9935577 9
-0.086844444 -0.089575246 1.9910811 49
-0.15377483 -0.15698798 2.0032918 86
-0.35917699 -0.37827018 2.0444696 86
-0.35817164 -0.37746406 1.4692504 36
-0.45667651 -0.48159567 1.4355185 57
-0.61490214 -0.64844358 1.5318898 46
-0.99730653 -1.0516918 1.9932711 87
-1.2604955 -1.3292255 2.0641582 8
-1.3462514 -1.4271208 2.0077524 44
nan nan nan 0
-0.99732584 -1.0568649 1.0373343 4
-0.90403479 -0.95800155 0.77576983 13
-0.94253564 -0.99845123 0.64306861 7
-1.014701 -1.0745218 0.52407461 4
-1.0792428 -1.1428684 0.38991058 4
nan nan nan 0
-1.5011392 -1.5868629 2.0260069 15
-0.89082158 -0.94136655 1.0272518 37
-0.86355138 -0.91254556 0.82360876 9
-1.0054322 -1.0621041 0.76354867 5
-0.96153682 -1.0153795 0.5755766 4
nan nan nan 0
-0.99456567 -1.0495238 0.29362676 6
nan nan nan 0
-0.021842567 -0.022306452 1.984198 67
-0.21930388 -0.22887562 2.0156415 10
nan nan nan 0
-0.36142844 -0.37943819 1.7214276 38
-0.39950871 -0.41955158 1.4243995 39
-0.55195647 -0.57983267 1.5337508 64
-0.90460432 -0.95027512 1.9995594 80
-1.1175872 -1.1740036 2.0165794 8
-0.087156586 -0.089271553 1.9910811 45
-0.15432188 -0.15645026 2.0032918 86
-0.36049524 -0.37701413 2.0444696 82
-0.35829484 -0.37496397 1.4645576 34
-0.46136284 -0.48314855 1.4445202 57
-0.61716187 -0.64629322 1.5318898 48
-1.0009716 -1.0482042 1.9932711 82
-1.260445 -1.3199137 2.0568078 8
-1.3536808 -1.4249984 2.0112567 39
nan nan nan 0
-0.99812847 -1.050346 1.0345929 4
-0.97451293 -1.0254915 0.82676637 7
-0.94601506 -0.99515504 0.64306861 7
-1.0151398 -1.0674969 0.52266544 4
-1.0967661 -1.1533329 0.39364105 4
nan nan nan 0
-1.4989419 -1.5735016 2.0160325 9
-0.8968907 -0.94117743 1.030195 37
-0.86970574 -0.91264665 0.82614118 8
-1.0185285 -1.0684433 0.76984292 7
nan nan nan 0
-1.0502317 -1.1009303 0.45768839 3
-1.001642 -1.0496284 0.29431656 6
-1.0105859 -1.0586307 0.15271395 10
-0.021920297 -0.02223007 1.984198 67
-0.2195618 -0.22754972 2.0107021 7
nan nan nan 0
-0.36171678 -0.37709647 1.7166559 37
-0.40097076 -0.41815451 1.4243995 40
-0.55397707 -0.57790244 1.5337508 62
-0.90791583 -0.94711173 1.9995594 82
-1.1172413 -1.1654668 2.0089054 8
-0.087467678 -0.088966779 1.9910811 44
-0.15486705 -0.15591061 2.0032918 86
-0.36180907 -0.37575349 2.0444696 80
-0.35720837 -0.37122408 1.4551722 33
-0.47361296 -0.49252293 1.4760261 66
-0.61941415 -0.64413494 1.5318898 46
-1.0046244 -1.0447037 1.9932711 80
-1.2603449 -1.3106186 2.0494576 8
-1.3586468 -1.4202645 2.0112567 38
nan nan nan 0
-1.0075707 -1.0528976 1.0400758 4
-0.99646467 -1.0412881 0.84067458 7
-0.94948304 -0.99184674 0.64306861 12
-1.0288137 -1.0743413 0.52689302 5
-1.0973877 -1.1459495 0.39270842 7
nan nan nan 0
-1.4914995 -1.5547856 1.9994081 8
-0.90296912 -0.94095737 1.0331382 36
-0.88184136 -0.91893721 0.83373845 8
-1.0222517 -1.0648814 0.76984292 6
nan nan nan 0
-1.040599 -1.0832367 0.45299914 4
-1.0018684 -1.042555 0.29362676 6
-1.035049 -1.0767066 0.15392315 4
-0.021997761 -0.022153419 1.984198 67
-0.22143796 -0.22789618 2.0205805 4
nan nan nan 0
-0.36199319 -0.37475738 1.711884 38
-0.40378511 -0.41815767 1.4290019 39
-0.55599099 -0.57596523 1.5337508 62
-0.91121638 -0.94393677 1.9995594 82
-1.1457955 -1.1869317 2.0511119 6
-0.087777689 -0.088660918 1.9910811 44
-0.15503226 -0.15499204 1.9983203 86
-0.3631185 -0.37448823 2.0444696 77
-0.35730109 -0.3687357 1.4504794 32
-0.48138911 -0.49712434 1.4940293 74
-0.6216588 -0.64196885 1.5318898 46
-1.0082649 -1.0411906 1.9932711 78
-1.2601953 -1.3013406 2.0421071 8
-1.3635963 -1.4155132 2.0112567 38
nan nan nan 0
-1.0141414 -1.052385 1.0428174 4
-1.0000933 -1.0378035 0.84067458 7
-0.95293951 -0.98852646 0.64306861 20
-1.0225675 -1.0603839 0.52266544 7
-1.1082009 -1.149184 0.39457369 8
nan nan nan 0
-1.4969176 -1.54957 1.9994081 8
-0.90624821 -0.93779969 1.0331382 33
-0.89403158 -0.92515409 0.84133577 9
-0.92502081 -0.95688772 0.7027052 14
-0.96883404 -1.0018603 0.57393396 3
-1.0477533 -1.0830911 0.45417145 4
-1.0158329 -1.0497276 0.2956962 6
-1.0214268 -1.0551394 0.15291549 3
-0.022074956 -0.022076499 1.984198 69
-0.21951441 -0.22434564 1.9958843 2
nan nan nan 0
-0.36225772 -0.37242097 1.7071123 38
-0.40524226 -0.41674566 1.4290019 39
-0.55799806 -0.57402092 1.5337508 58
-0.91450578 -0.94075024 1.9995594 82
-1.1655742 -1.1990162 2.0779707 6
-0.088086642 -0.088353977 1.9910811 44
-0.15557235 -0.15444994 1.9983203 86
-0.36442345 -0.37321845 2.0444696 60
-0.35738075 -0.36625117 1.4457866 32
-0.49376437 -0.50635481 1.5255351 88
-0.62389588 -0.63979501 1.5318898 51
-1.0118932 -1.0376648 1.9932711 76
-1.2576296 -1.2896525 2.0310817 9
-1.368529 -1.4107448 2.0112567 39
nan nan nan 0
-1.0207208 -1.0518395 1.0455588 4
-0.99753928 -1.0279475 0.83603847 8
-0.95315516 -0.98186761 0.6411956 24
-1.0229205 -1.0533664 0.52125627 6
-1.1190499 -1.1523566 0.39643893 9
nan nan nan 0
-1.5101291 -1.5523653 2.0093827 19
-0.90951622 -0.93463057 1.0331382 26
-0.90326893 -0.9282071 0.84640062 9
-0.87137097 -0.89511603 0.6649403 17
-0.97561997 -1.0018555 0.5755766 9
-1.0718778 -1.1003171 0.46120536 6
nan nan nan 0
-1.0251037 -1.0515674 0.15291549 3
-0.022183273 -0.022029618 1.9891979 69
-0.2202962 -0.22357801 1.9958843 1
nan nan nan 0
-0.36251032 -0.37008721 1.7023406 37
-0.40669453 -0.41532853 1.4290019 39
-0.55999839 -0.57206964 1.5337508 58
-0.91778409 -0.93755233 1.9995594 82
-1.185451 -1.2109767 2.1048291 6
-0.088394523 -0.088045955 1.9910811 42
-0.15611054 -0.15390596 1.9983203 86
-0.36572403 -0.3719441 2.0444696 47
-0.35744753 -0.3637706 1.4410939 33
-0.49705476 -0.50618196 1.530036 90
-0.6261254 -0.6376133 1.5318898 51
-1.0155092 -1.0341263 1.9932711 72
-1.257373 -1.280417 2.0237315 9
-1.370953 -1.4034081 2.0077524 42
nan nan nan 0
-1.0243863 -1.04827 1.0455588 4
-0.92061663 -0.94207805 0.77576983 10
-0.9565767 -0.97853446 0.6411956 25
-1.0232371 -1.0463594 0.51984704 6
nan nan nan 0
nan nan nan 0
-1.4711133 -1.5017345 1.9528601 38
-0.90711504 -0.92567617 1.0272518 6
-0.91555589 -0.93428606 0.85399795 9
-0.8744902 -0.89206886 0.6649403 19
-0.99564368 -1.0153027 0.58379006 9
nan nan nan 0
nan nan nan 0
-1.011269 -1.030157 0.15190783 4
-0.022260034 -0.021952048 1.9891979 69
nan nan nan 0
nan nan nan 0
-0.36170223 -0.36669311 1.6927972 37
-0.40814182 -0.41390634 1.4290019 39
-0.56199193 -0.57011139 1.5337508 56
-0.92105114 -0.93434292 1.9995594 82
-1.1851697 -1.2022649 2.0971551 6
-0.088907525 -0.087940149 1.9960728 42
-0.15626483 -0.15298705 1.993349 86
-0.3679052 -0.37155896 2.049309 39
-0.35750133 -0.36129409 1.4364011 36
-0.49881864 -0.50444382 1.530036 92
-0.62834728 -0.63542384 1.5318898 53
-1.0191127 -1.0305752 1.9932711 67
-1.2570673 -1.271199 2.016381 9
-1.3758433 -1.398614 2.0077524 44
nan nan nan 0
-1.030972 -1.0476681 1.0483003 5
-0.86796671 -0.88202047 0.73404539 29
-0.95673442 -0.97188574 0.63932252 22
-1.0268834 -1.0427814 0.51984704 9
nan nan nan 0
nan nan nan 0
nan nan nan 0
nan nan nan 0
-0.92486811 -0.93722188 0.85906279 9
nan nan nan 0
-0.99918169 -1.011821 0.58379006 9
nan nan nan 0
-1.0163271 -1.028465 0.29362676 7
-1.0078343 -1.0195148 0.15150478 8
-0.022336524 -0.021874214 1.9891979 69
nan nan nan 0
nan nan nan 0
-0.36192742 -0.36436868 1.6880255 37
-0.40958416 -0.41247916 1.4290019 39
-0.56397849 -0.56814617 1.5337508 54
-0.92430705 -0.93112218 1.9995594 84
-1.1961348 -1.2049463 2.1086662 5
-0.089213952 -0.087629266 1.9960728 40
-0.15679789 -0.15244065 1.993349 95
-0.36919993 -0.37027249 2.049309 33
-0.35754219 -0.35882163 1.4317083 38
-0.50211304 -0.5042426 1.5345368 90
-0.63056147 -0.63322657 1.5318898 55
-1.0227039 -1.0270115 1.9932711 61
-1.2591046 -1.264401 2.0127058 10
-1.3782073 -1.3912692 2.0042477 50
nan nan nan 0
-1.0346228 -1.044063 1.0483003 5
-0.86792189 -0.87583852 0.73172736 26
-0.96012098 -0.96854019 0.63932252 17
-1.0271392 -1.035784 0.51843786 5
-1.2106106 -1.2207991 0.41788918 7
nan nan nan 0
-1.0578395 -1.0648862 1.4175596 97
nan nan nan 0
-0.92205608 -0.92787158 0.85399795 8
-1.0566791 -1.0629721 0.78033316 32
-1.0060374 -1.0116756 0.58543277 11
nan nan nan 0
-1.0303905 -1.035442 0.2956962 9
-1.0043375 -1.0089092 0.15110171 5
-0.022412745 -0.021796111 1.9891979 69
nan nan nan 0
nan nan nan 0
-0.36214083 -0.3620472 1.6832538 36
-0.4124029 -0.41242841 1.4336045 39
-0.56595826 -0.56617409 1.5337508 48
-0.92755163 -0.92789006 1.9995594 82
-1.1958005 -1.1962291 2.1009922 6
-0.089519292 -0.087317318 1.9960728 40
-0.15732905 -0.15189241 1.993349 93
-0.37049019 -0.36898145 2.049309 24
-0.35879254 -0.35757133 1.4317083 42
-0.50387013 -0.50248688 1.5345368 90
-0.6364615 -0.63470483 1.5404216 61
-1.0262825 -1.0234354 1.9932711 57
-1.2611101 -1.2576044 2.0090308 11
-1.3830553 -1.3864499 2.0042477 52
nan nan nan 0
-1.0294 -1.0315657 1.0400758 5
-0.91478473 -0.91670638 0.76417971 11
-0.97987223 -0.98158771 0.64868772 15
-1.0307486 -1.0321923 0.51843786 5
nan nan nan 0
nan nan nan 0
-1.0087293 -1.0083846 1.3510627 62
nan nan nan 0
-0.928339 -0.92769486 0.85653037 6
-1.1021249 -1.1009752 0.80760783 34
-1.0095626 -1.0081577 0.58543277 11
nan nan nan 0
-1.0304931 -1.0283409 0.29500639 9
-1.0043162 -1.001869 0.15090019 5
-0.022488691 -0.021717742 1.9891979 69
nan nan nan 0
nan nan nan 0
-0.36234248 -0.35972869 1.6784821 37
-0.41384003 -0.4109863 1.4336045 39
-0.56793118 -0.56419516 1.5337508 42
-0.93078482 -0.92464668 1.9995594 78
-1.1999689 -1.1920478 2.1009922 6
-0.089823537 -0.087004311 1.9960728 39
-0.15824418 -0.15171131 1.9983203 89
-0.3717759 -0.36768597 2.049309 17
-0.35881191 -0.35510293 1.4270155 46
-0.50562108 -0.50072491 1.5345368 88
-0.63681996 -0.63064414 1.5361557 67
-1.0298488 -1.0198467 1.9932711 51
-1.2630833 -1.250809 2.0053556 10
-1.3878865 -1.3816136 2.0042477 56
nan nan nan 0
-1.0003914 -0.99552178 1.0099196 5
-1.0278887 -1.0228815 0.84531063 7
-0.98986596 -0.98470026 0.65243381 9
-1.0309436 -1.0252054 0.51702863 6
-6.4194808 -6.3837318 1.8102911 3
nan nan nan 0
-0.99899191 -0.99170291 1.3344384 42
nan nan nan 0
-0.92851132 -0.92141187 0.85399795 4
-1.1252939 -1.1162992 0.82019615 15
-1.0130756 -1.0046276 0.58543277 13
-1.0356867 -1.0266916 0.44244829 3
-1.0411116 -1.0317091 0.296386 9
-1.0078073 -0.99835712 0.15090019 6
-0.022564363 -0.021639111 1.9891979 67
nan nan nan 0
nan nan nan 0
-0.3614687 -0.35636467 1.6689386 38
-0.41527209 -0.40953925 1.4336045 38
-0.56989712 -0.56220919 1.5337508 40
-0.93400681 -0.92139196 1.9995594 78
-1.2041227 -1.1878518 2.1009922 6
-0.090126693 -0.086690232 1.9960728 38
-0.15877278 -0.151158 1.9983203 89
-0.3730571 -0.366386 2.049309 16
-0.36004925 -0.35384828 1.4270155 46
-0.50736582 -0.49895695 1.5345368 88
-0.64645565 -0.635732 1.5532194 80
-1.0334024 -1.0162457 1.9932711 44
-1.2674419 -1.2463924 2.0053556 10
-1.395237 -1.3792678 2.0077524 56
-0.84931993 -0.83959973 1.0450165 4
-0.97411811 -0.96263248 0.98250502 5
-1.0314529 -1.0192871 0.84531063 6
nan nan nan 0
-1.0345159 -1.0216006 0.51702863 5
-6.4941535 -6.4130583 1.8242804 3
nan nan nan 0
-0.98117208 -0.9672367 1.3078396 40
nan nan nan 0
nan nan nan 0
nan nan nan 0
-1.019941 -1.0043987 0.58707541 12
-1.0392642 -1.0230702 0.44244829 4
-1.0552959 -1.0384892 0.29845548 12
-1.0148475 -0.99833673 0.15110171 5
-0.022639759 -0.021560214 1.9891979 67
nan nan nan 0
nan nan nan 0
-0.36164317 -0.35405594 1.6641669 37
-0.41669914 -0.40808722 1.4336045 38
-0.57185608 -0.56021655 1.5337508 40
-0.93721741 -0.91812611 1.9995594 74
-1.2082617 -1.1836414 2.1009922 6
-0.090428747 -0.086375102 1.9960728 38
-0.15929946 -0.15060288 1.9983203 89
-0.37433374 -0.36508158 2.049309 15
-0.36128223 -0.35258934 1.4270155 48
-0.50910443 -0.49718288 1.5345368 86
-0.65986627 -0.64440435 1.5788151 95
-1.0369436 -1.0126323 1.9932711 42
-1.2742103 -1.2443293 2.0090308 12
-1.400043 -1.3743892 2.0077524 60
-0.87446964 -0.85844666 1.0701188 8
-0.91479897 -0.89772326 0.92493421 6
-1.0191945 -1.0001657 0.83372045 5
nan nan nan 0
-1.0380757 -1.0179831 0.51702863 4
-6.544558 -6.4178658 1.8317413 5
nan nan nan 0
-0.98187381 -0.96119356 1.3045148 42
nan nan nan 0
nan nan nan 0
-3.0082715 -2.942837 2.0328705 4
-1.0234408 -1.0008323 0.58707541 11
-1.0080715 -0.98545843 0.4307251 4
nan nan nan 0
-1.0218999 -0.99827927 0.15130325 4
-0.022714881 -0.021481056 1.9891979 67
nan nan nan 0
-0.068990663 -0.067023613 0.48588815 4
-0.36180595 -0.35175037 1.6593952 37
-0.4181211 -0.40663013 1.4336045 38
-0.57380813 -0.55821693 1.5337508 39
-0.94041657 -0.91484898 1.9995594 70
-1.212386 -1.1794164 2.1009922 6
-0.090729706 -0.08605893 1.9960728 38
-0.15982419 -0.15004589 1.9983203 89
