# .PCD v0.7 - Point Cloud Data file format
VERSION 0.7
FIELDS x y z intensity
SIZE 4 4 4 4
TYPE F F F F
COUNT 1 1 1 1
WIDTH 1434
HEIGHT 1
VIEWPOINT 0 0 0 1 0 0 0
POINTS 1434
DATA ascii
0.3994444 1.1634079 2.0821953 30
0.46968427 1.3679712 1.9892817 78
0.57285553 1.6684459 1.9906548 86
0.62535107 1.8369814 1.986725 77
0.7587173 2.2287343 1.9800742 67
0.92962486 2.7292104 1.9749157 69
1.1603516 3.4065707 1.9695536 9
1.4957918 4.3888464 1.9616836 48
2.0362332 5.9711556 1.9431345 35
3.1138868 9.131319 1.923138 26
3.3755195 9.89289 1.0295259 38
0.69233429 2.0244653 1.9861088 75
0.84358174 2.4653213 1.9808358 22
1.0376394 3.0324326 1.9682654 69
1.317573 3.8483253 1.9678308 8
1.7357271 5.0667677 1.9521464 44
2.4791653 7.2328205 1.9348084 4
3.2146671 9.3732672 1.4725219 114
nan nan nan 0
0.010625584 0.029402357 1.9891979 77
0.10295037 0.29486546 1.9860058 96
0.13452688 0.38816234 1.9985133 95
0.19861642 0.57428914 1.9886441 89
0.26841527 0.77650702 1.9951125 96
0.36076903 1.0442356 2.0911107 32
0.44037911 1.2746481 2.0532877 21
0.52407289 1.5168804 1.9973947 78
0.041931938 0.11658212 1.9761063 86
0.075072154 0.20539694 1.993349 93
0.16729908 0.48077387 1.9960775 97
0.23318243 0.67080218 1.9854547 95
0.31914756 0.91909587 2.0746372 37
0.40350306 1.1620065 2.0821953 29
0.47346783 1.3634762 1.9852921 84
0.57867599 1.6664362 1.9906548 86
0.63175958 1.8347872 1.986725 77
0.76649249 2.2260723 1.9800742 67
0.93778396 2.7219958 1.9721743 67
1.1722357 3.4024994 1.9695536 11
1.5111027 4.3835983 1.9616836 42
2.0570641 5.9640117 1.9431345 36
3.1457419 9.1203928 1.923138 25
nan nan nan 0
0.69939679 2.0220363 1.9861088 77
0.85218215 2.4623618 1.9808358 36
1.0482183 3.0287921 1.9682654 69
1.3309981 3.8437026 1.9678308 8
1.7549487 5.0651398 1.9537891 41
2.5043974 7.2241225 1.9348084 4
3.2538581 9.3807039 1.4752812 115
nan nan nan 0
0.010712608 0.029324317 1.984198 77
0.103979 0.29450428 1.9860058 96
0.13588101 0.3876904 1.9985133 96
0.20061983 0.57359231 1.9886441 89
0.27112415 0.77556527 1.9951125 95
0.36441192 1.0429698 2.0911107 32
0.44111291 1.262477 2.0367558 20
0.52936459 1.5150418 1.9973947 80
0.042438045 0.116707 1.9810979 86
0.075788669 0.20513363 1.993349 91
0.16897629 0.48018694 1.9960775 97
0.23552252 0.66998416 1.9854547 93
0.32235387 0.9179762 2.0746372 37
0.40755674 1.1605909 2.0821953 29
0.47822434 1.3618151 1.9852921 87
0.58448941 1.6644061 1.9906548 88
0.63816029 1.8325708 1.986725 75
0.7742582 2.2233832 1.9800742 67
0.94727981 2.7187057 1.9721743 67
1.1826477 3.3942034 1.9672356 11
1.5263948 4.3782973 1.9616836 42
2.0778694 5.9567943 1.9431345 37
3.1775587 9.1093578 1.923138 25
nan nan nan 0
0.70645076 2.0195825 1.9861088 77
0.85943693 2.4555571 1.9778926 52
1.0587842 3.0251145 1.9682654 69
1.344407 3.8390331 1.9678308 8
1.7632489 5.0322423 1.9439329 22
2.5279908 7.2107491 1.9336361 4
3.289861 9.3786345 1.4766608 115
3.2196078 9.173234 0.48584458 12
0.010814903 0.029286744 1.984198 75
0.10500639 0.29413956 1.9860058 96
0.13723347 0.38721377 1.9985133 96
0.20262082 0.57288849 1.9886441 89
0.27317852 0.77277219 1.99051 93
0.36805031 1.0416914 2.0911107 32
0.44082966 1.2476633 2.0160913 20
0.53464985 1.5131847 1.9973947 80
0.042845167 0.11655815 1.9810979 84
0.076504253 0.20486785 1.993349 93
0.17065141 0.4795942 1.9960775 97
0.2378598 0.66915798 1.9854547 93
0.32555622 0.91684544 2.0746372 36
0.41160548 1.1591612 2.0821953 29
0.48297507 1.3601375 1.9852921 87
0.59029567 1.6623557 1.9906548 86
0.64455324 1.830332 1.986725 77
0.78201455 2.2206669 1.9800742 67
0.9567641 2.7153826 1.9721743 67
1.1944885 3.3900545 1.9672356 11
1.5416689 4.3729424 1.9616836 48
2.0986502 5.9495053 1.9431345 37
3.2093372 9.0982103 1.923138 25
nan nan nan 0
0.71349603 2.0171044 1.9861088 77
0.86800319 2.4525421 1.9778926 73
1.0693374 3.0214005 1.9682654 69
1.3562847 3.830039 1.9657328 9
1.7855356 5.0394111 1.9488611 4
2.5531456 7.2018809 1.9336361 4
3.3275454 9.3810959 1.4787303 116
3.2516091 9.1619396 0.48584458 5
0.010917068 0.029248815 1.984198 75
0.10603248 0.29377124 1.9860058 96
0.13858426 0.38673234 1.9985133 96
0.20461935 0.57217783 1.9886441 89
0.27587432 0.77181387 1.99051 79
0.37168422 1.0404004 2.0911107 32
0.44139516 1.235517 1.9995594 27
0.53992856 1.5113093 1.9973947 80
0.043251775 0.11640789 1.9810979 84
0.077218913 0.20459954 1.993349 93
0.17232448 0.47899556 1.9960775 97
0.24019414 0.66832358 1.9854547 93
0.3287546 0.91570348 2.0746372 37
0.41564921 1.1577173 2.0821953 29
0.48771989 1.3584434 1.9852921 84
0.59609485 1.6602851 1.9906548 86
0.65093839 1.828071 1.986725 75
0.7897613 2.2179239 1.9800742 69
0.96623671 2.7120264 1.9721743 67
1.2063148 3.3858643 1.9672356 11
1.5569239 4.3675342 1.9616836 49
2.119405 5.9421434 1.9431345 37
3.2410762 9.0869522 1.923138 26
nan nan nan 0
0.72053272 2.0146017 1.9861088 77
0.87519705 2.4456916 1.9749495 71
1.0798776 3.0176492 1.9682654 68
1.3681159 3.8210084 1.9636347 10
1.8684161 5.2154245 2.0162113 3
2.5766294 7.1883492 1.9324638 4
3.3652868 9.3834085 1.4807998 114
nan nan nan 0
0.011019098 0.029210528 1.984198 75
0.1070573 0.2933993 1.9860058 96
0.13993336 0.38624623 1.9985133 96
0.20661539 0.57146001 1.9886441 88
0.27856678 0.77084625 1.99051 63
0.37531367 1.0390967 2.0911107 32
0.44474924 1.2313222 1.9954264 28
0.54411155 1.5064 1.9935577 80
0.04365785 0.1162562 1.9810979 84
0.077932626 0.20432876 1.993349 93
0.17399544 0.47839111 1.9960775 97
0.24252555 0.66748106 1.9854547 93
0.33194903 0.9145503 2.0746372 37
0.41968787 1.1562594 2.0821953 29
0.49143043 1.3538996 1.9813027 87
0.60188669 1.6581941 1.9906548 86
0.65731561 1.8257878 1.986725 75
0.79749858 2.2151535 1.9800742 69
0.97569758 2.7086368 1.9721743 69
1.2166249 3.3774648 1.9649175 12
1.57216 4.3620734 1.9616836 49
2.1401341 5.9347091 1.9431345 36
3.2727759 9.0755835 1.923138 25
nan nan nan 0
0.72756064 2.012074 1.9861088 77
0.8837288 2.4426217 1.9749495 71
1.0904045 3.0138612 1.9682654 69
1.3783556 3.8076746 1.9594386 30
1.8866098 5.2088709 2.0162113 3
2.6000497 7.1747422 1.9312915 4
3.4013963 9.3809137 1.4821793 113
3.5046127 9.6603184 0.50821447 38
0.011120995 0.029171886 1.984198 75
0.1080808 0.29302385 1.9860058 96
0.14128077 0.38575542 1.9985133 95
0.20860888 0.57073528 1.9886441 88
0.28125587 0.76986915 1.99051 54
0.37893853 1.0377803 2.0911107 32
0.44904464 1.2297621 1.9954264 32
0.54936659 1.5044914 1.9935577 74
0.044063393 0.1161031 1.9810979 86
0.078645393 0.20405547 1.993349 95
0.17566426 0.47778088 1.9960775 97
0.24485402 0.66663045 1.9854547 93
0.33513936 0.91338599 2.0746372 36
0.42372137 1.1547873 2.0821953 29
0.49615341 1.3521758 1.9813027 87
0.6076712 1.6560831 1.9906548 86
0.66368473 1.823482 1.986725 73
0.80522603 2.2123563 1.9800742 69
0.98514646 2.7052147 1.9721743 69
1.226891 3.3690345 1.9625994 13
1.5873768 4.3565588 1.9616836 50
2.1591938 5.9226947 1.9417253 36
3.3061182 9.0687189 1.9240707 24
nan nan nan 0
0.73457962 2.0095222 1.9861088 77
0.8922497 2.439522 1.9749495 73
1.1009183 3.0100369 1.9682654 69
1.3885192 3.7943158 1.9552425 14
1.9177701 5.2377295 2.0293527 3
2.6250784 7.1656227 1.9312915 4
3.4375298 9.3782845 1.483559 113
3.5383117 9.6480265 0.50821447 37
0.011222756 0.029132888 1.984198 75
0.10910298 0.29264477 1.9860058 97
0.14262645 0.3852599 1.9985133 95
0.21059985 0.57000369 1.9886441 89
0.28394148 0.76888269 1.99051 54
0.38255873 1.0364512 2.0911107 33
0.45236009 1.2255471 1.9912933 32
0.5546149 1.5025648 1.9935577 76
0.044468403 0.11594857 1.9810979 86
0.079357199 0.2037797 1.993349 95
0.17733096 0.47716478 1.9960775 97
0.24717951 0.66577166 1.9854547 93
0.33908293 0.91425228 2.0791378 36
0.42774978 1.1533012 2.0821953 29
0.50087041 1.3504357 1.9813027 87
0.6122694 1.6507734 1.9869798 86
0.66881442 1.8178073 1.9832203 73
0.81294364 2.209532 1.9800742 67
0.99458343 2.7017593 1.9721743 67
1.2386436 3.3647311 1.9625994 15
1.6025743 4.3509912 1.9616836 54
2.1798546 5.9151216 1.9417253 35
3.3394523 9.0617323 1.9250033 20
nan nan nan 0
0.74288398 2.0104485 1.9894335 77
0.90075976 2.4363928 1.9749495 73
1.1114185 3.0061755 1.9682654 69
1.4017553 3.7894456 1.9552425 14
1.9458767 5.2575769 2.0392089 5
2.6500754 7.1564159 1.9312915 4
3.4754066 9.3801584 1.4856285 114
3.6205914 9.7667799 0.51385736 48
0.01132438 0.029093537 1.984198 75
0.11012384 0.29226217 1.9860058 96
0.14397039 0.38475969 1.9985133 95
0.21258825 0.56926507 1.9886441 89
0.28662366 0.76788688 1.99051 54
0.38617426 1.0351095 2.0911107 33
0.45663527 1.2239605 1.9912933 32
0.55985647 1.5006195 1.9935577 78
0.044872865 0.11579265 1.9810979 86
0.080068044 0.20350145 1.993349 95
0.17899549 0.47654286 1.9960775 97
0.24950197 0.66490477 1.9854547 93
0.34227222 0.91306311 2.0791378 36
0.43177292 1.1518011 2.0821953 30
0.50558126 1.3486792 1.9813027 87
0.61802793 1.6486261 1.9869798 88
0.6751557 1.8154618 1.9832203 75
0.82065135 2.2066808 1.9800742 62
1.00255 2.6943519 1.9694327 67
1.2488364 3.3562353 1.9602815 15
1.6177523 4.3453708 1.9616836 60
2.200489 5.9074769 1.9417253 35
3.3727782 9.0546236 1.925936 18
1.4016902 3.7610013 0.45257652 4
0.7498973 2.007843 1.9894335 77
0.90925896 2.4332335 1.9749495 75
1.1219053 3.0022776 1.9682654 69
1.4181533 3.7930317 1.9594386 15
1.9377433 5.1799827 2.0129259 6
2.6750395 7.1471214 1.9312915 4
3.5133383 9.3818836 1.4876978 114
3.6704376 9.7961884 0.51567113 56
0.011425866 0.02905383 1.984198 75
0.11114335 0.29187596 1.9860058 97
0.14531256 0.38425478 1.9985133 95
0.21457407 0.56851947 1.9886441 89
0.28861275 0.76505387 1.9859076 54
0.38978514 1.0337552 2.0911107 32
0.46090493 1.2223592 1.9912933 36
0.56509119 1.4986563 1.9935577 78
0.045276783 0.11563531 1.9810979 86
0.080777906 0.20322073 1.993349 93
0.18065785 0.47591516 1.9960775 97
0.2518214 0.66402978 1.9854547 93
0.34545732 0.91186279 2.0791378 37
0.43579084 1.1502869 2.0821953 31
0.51028591 1.3469062 1.9813027 84
0.62377894 1.6464586 1.9869798 86
0.68148875 1.8130939 1.9832203 67
0.82834917 2.2038026 1.9800742 42
1.0119491 2.6908362 1.9694327 67
1.2605443 3.3518558 1.9602815 13
1.6329106 4.3396969 1.9616836 64
2.2210965 5.8997598 1.9417253 35
3.4078257 9.0519905 1.9278013 17
1.4235873 3.7793875 0.45480755 26
0.75690132 2.005213 1.9894335 75
0.91774702 2.4300447 1.9749495 75
1.1323783 2.998343 1.9682654 69
1.4329891 3.792304 1.9615366 40
1.9441227 5.1422658 2.0014269 5
2.6999712 7.1377401 1.9312915 4
3.5513248 9.3834572 1.4897673 117
3.7258406 9.8393822 0.51808953 37
0.011527213 0.02901377 1.984198 75
0.11216151 0.29148623 1.9860058 96
0.14665298 0.38374522 1.9985133 96
0.21655726 0.56776702 1.9886441 89
0.29128152 0.76404178 1.9859076 56
0.39339125 1.0323882 2.0911107 32
0.46416691 1.2181133 1.9871606 40
0.57031906 1.4966744 1.9935577 80
0.04568015 0.11547655 1.9810979 86
0.081486784 0.20293751 1.993349 93
0.18231802 0.47528163 1.9960775 97
0.25413778 0.66314673 1.9854547 93
0.34785959 0.90861768 2.0746372 37
0.43980342 1.1487588 2.0821953 32
0.51498437 1.3451167 1.9813027 84
0.62952238 1.6442713 1.9869798 86
0.68907988 1.8140379 1.986725 67
0.8360368 2.2008977 1.9800742 32
1.0213355 2.6872873 1.9694327 67
1.2706627 3.3432937 1.9579635 12
1.6480491 4.3339705 1.9616836 63
2.2416768 5.8919706 1.9417253 35
3.4306681 9.0170822 1.923138 22
1.4367712 3.7743952 0.45480755 28
0.76389629 2.0025587 1.9894335 77
0.92622375 2.4268265 1.9749495 73
1.1428376 2.9943721 1.9682654 68
1.449456 3.7957587 1.9657328 56
1.9485772 5.1001573 1.9882855 5
2.7248702 7.1282725 1.9312915 4
3.5893648 9.3848791 1.4918368 118
nan nan nan 0
0.011628421 0.028973356 1.984198 75
0.11317831 0.29109293 1.9860058 96
0.14799161 0.38323095 1.9985133 96
0.21853782 0.56700766 1.9886441 89
0.29394674 0.76302034 1.9859076 56
0.39699253 1.0310087 2.0911107 33
0.46841612 1.2164857 1.9871606 59
0.57553995 1.4946746 1.9935577 78
0.046082959 0.1153164 1.9810979 86
0.082194671 0.20265186 1.993349 93
0.18397593 0.47464234 1.9960775 97
0.25645104 0.66225559 1.9854547 95
0.3510291 0.90739793 2.0746372 38
0.44192868 1.142352 2.0736635 30
0.51967663 1.343311 1.9813027 87
0.63525814 1.6420637 1.9869798 86
0.69540781 1.8116214 1.986725 77
0.84371424 2.1979659 1.9800742 32
1.0322089 2.6876094 1.9721743 67
1.2823253 3.3388383 1.9579635 12
1.6631675 4.3281913 1.9616836 59
2.2622302 5.8841095 1.9417253 35
3.4585974 8.995883 1.9212729 23
1.4427859 3.7507653 0.45302272 69
0.77088183 1.9998802 1.9894335 77
0.9346894 2.4235785 1.9749495 73
1.1532829 2.9903648 1.9682654 69
1.4626969 3.7906761 1.9657328 57
1.9544623 5.0624852 1.9767867 6
2.7497361 7.1187172 1.9312915 4
3.6274574 9.3861504 1.4939061 114
1.4485312 3.7461753 0.25569627 2
0.011729485 0.028932588 1.984198 75
0.11419372 0.29069608 1.9860058 97
0.14932843 0.38271207 1.9985133 93
0.22051571 0.56624138 1.9886441 89
0.29731709 0.76381016 1.99051 52
0.40058905 1.0296168 2.0911107 33
0.47265959 1.2148432 1.9871606 74
0.5807538 1.4926565 1.9935577 78
0.046485208 0.11515484 1.9810979 86
0.08290156 0.2023637 1.993349 95
0.18563163 0.47399721 1.9960775 97
0.25876117 0.66135639 1.9854547 93
0.35419437 0.90616703 2.0746372 38
0.44211558 1.1310861 2.0565999 28
0.52436244 1.3414887 1.9813027 87
0.64098608 1.6398363 1.9869798 86
0.70172733 1.8091829 1.986725 77
0.85138142 2.1950076 1.9800742 32
1.0415843 2.68399 1.9721743 67
1.295575 3.3384717 1.9602815 12
1.6782656 4.32236 1.9616836 59
2.2810185 5.8717055 1.9403161 34
3.4864202 8.9745979 1.9194076 24
1.4630861 3.7642727 0.45480755 20
0.77785802 1.997177 1.9894335 75
0.9416759 2.4165349 1.9720063 73
1.1637143 2.9863207 1.9682654 70
1.4775684 3.7897754 1.9678308 57
1.9583923 5.0204358 1.9636453 8
2.7728007 7.104547 1.9301192 5
3.6656032 9.3872709 1.4959757 113
1.4652348 3.7504029 0.25609931 35
0.011830407 0.028891468 1.984198 75
0.11520775 0.29029569 1.9860058 97
0.15066344 0.3821885 1.9985133 93
0.22249091 0.56546819 1.9886441 89
0.30284175 0.77004004 2.0089202 40
0.40418065 1.0282122 2.0911107 32
0.47689733 1.2131858 1.9871606 82
0.58596069 1.4906203 1.9935577 80
0.046886895 0.11499187 1.9810979 86
0.083607435 0.20207308 1.993349 93
0.18728505 0.47334635 1.9960775 97
0.26106817 0.66044909 1.9854547 93
0.35735533 0.90492511 2.0746372 40
0.44318721 1.1222587 2.0438018 22
0.52904195 1.33965 1.9813027 87
0.64670628 1.6375889 1.9869798 86
0.70803833 1.8067225 1.986725 77
0.85903835 2.1920221 1.9800742 39
1.0524731 2.6842306 1.9749157 59
1.3072206 3.3339293 1.9602815 16
1.6933432 4.3164749 1.9616836 59
2.3015008 5.8637071 1.9403161 34
3.5141366 8.953228 1.9175423 23
1.4762169 3.7591429 0.45480755 20
0.78482467 1.9944497 1.9894335 77
0.95010543 2.413233 1.9720063 73
1.1741314 2.9822404 1.9682654 66
1.4907881 3.7845943 1.9678308 57
1.9568577 4.96524 1.9455757 10
2.7975833 7.0948253 1.9301192 6
3.7038009 9.3882389 1.4980452 112
nan nan nan 0
0.011931185 0.028849997 1.984198 75
0.11622036 0.28989181 1.9860058 97
0.15199661 0.38166022 1.9985133 95
0.22446342 0.56468809 1.9886441 86
0.31057769 0.78168732 2.0411379 36
0.4077673 1.026795 2.0911107 32
0.48112923 1.2115138 1.9871606 84
0.5911603 1.4885657 1.9935577 80
0.047288001 0.1148275 1.9810979 86
0.08431229 0.20178001 1.993349 91
0.1889362 0.47268975 1.9960775 97
0.26337197 0.6595338 1.9854547 93
0.35970497 0.90164948 2.0701361 43
0.44420269 1.1134379 2.0310042 22
0.53371495 1.3377954 1.9813027 87
0.65241861 1.6353215 1.9869798 86
0.71434063 1.8042401 1.986725 77
0.86668468 2.1890101 1.9800742 60
1.0618364 2.6805403 1.9749157 59
1.3204817 3.3334641 1.9625994 25
1.7084001 4.3105383 1.9616836 59
2.321955 5.855638 1.9403161 24
3.5435569 8.9363403 1.9166098 22
nan nan nan 0
0.79178184 1.9916979 1.9894335 77
0.95852339 2.4099019 1.9720063 73
1.1845341 2.9781239 1.9682654 66
1.5039897 3.7793677 1.9678308 56
1.984659 4.984704 1.9554318 35
2.8205333 7.0805006 1.9289469 7
3.7402163 9.3844519 1.4994247 110
3.9247513 9.8424683 0.5211125 46
0.012031818 0.028808173 1.984198 75
0.11723157 0.28948435 1.9860058 96
0.15332793 0.38112733 1.9985133 96
0.22643317 0.56390113 1.9886441 86
0.31985405 0.79691583 2.0825605 31
0.411349 1.0253655 2.0911107 32
0.48535526 1.2098271 1.9871606 82
0.59635282 1.4864932 1.9935577 80
0.047688536 0.11466175 1.9810979 86
0.085224316 0.20197614 1.9983203 93
0.19058505 0.47202736 1.9960775 97
0.26567256 0.65861046 1.9854547 93
0.36285013 0.90038842 2.0701361 47
0.44613686 1.1070424 2.0224724 26
0.53838152 1.335924 1.9813027 84
0.65812302 1.6330341 1.9869798 85
0.72063422 1.8017355 1.986725 77
0.87576622 2.1895864 1.983212 69
1.0711868 2.6768174 1.9749157 69
1.3321097 3.3288345 1.9625994 33
1.7234365 4.3045483 1.9616836 49
2.3405969 5.8430443 1.9389069 11
3.5729022 8.9193563 1.9156771 23
nan nan nan 0
0.79872936 1.9889219 1.9894335 77
0.96692973 2.4065413 1.9720063 73
1.1949226 2.9739709 1.9682654 69
1.5171732 3.7740948 1.9678308 55
2.0002844 4.9733644 1.9537891 41
2.8452315 7.0706124 1.9289469 8
3.7784996 9.3851204 1.5014942 110
3.9646838 9.8426094 0.52171707 30
0.012132304 0.028765999 1.984198 75
0.11824134 0.28907338 1.9860058 96
0.15465738 0.38058981 1.9985133 96
0.22840019 0.56310731 1.9886441 89
0.32263386 0.79579455 2.0825605 31
0.41492569 1.0239234 2.0911107 31
0.48957542 1.2081255 1.9871606 84
0.60033399 1.4814314 1.9897208 80
0.048088491 0.11449458 1.9810979 88
0.085928828 0.20167743 1.9983203 91
0.19223157 0.47135922 1.9960775 97
0.26796991 0.65767908 1.9854547 95
0.36599082 0.8991164 2.0701361 49
0.44704846 1.0982319 2.0096743 30
0.54417777 1.3368282 1.9852921 87
0.66509748 1.6338669 1.9906548 86
0.72691911 1.7992091 1.986725 75
0.88340402 2.186516 1.983212 71
1.080524 2.6730618 1.9749157 69
1.3453816 3.3282714 1.9649175 36
1.7384515 4.2985063 1.9616836 45
2.3609788 5.8348384 1.9389069 11
3.6021726 8.902277 1.9147446 23
nan nan nan 0
0.80566716 1.9861218 1.9894335 77
0.97532421 2.4031513 1.9720063 73
1.2052964 2.9697816 1.9682654 68
1.5303379 3.7687759 1.9678308 55
2.0158551 4.9619761 1.9521464 45
2.8698952 7.060637 1.9289469 12
3.8168337 9.3856373 1.5035636 108
1.5118074 3.7156971 0.25549474 2
0.012232643 0.028723475 1.984198 75
0.11924967 0.28865889 1.9860058 96
0.15598492 0.38004765 1.9985133 96
0.2303644 0.56230658 1.9886441 89
0.32615012 0.79647148 2.087163 31
0.41849729 1.0224687 2.0911107 31
0.49485549 1.2090133 1.9912933 82
0.60550147 1.4793267 1.9897208 78
0.048487857 0.11432602 1.9810979 88
0.08642067 0.20088604 1.993349 91
0.19387574 0.47068536 1.9960775 97
0.27026403 0.65673965 1.9854547 95
0.36995524 0.89984751 2.0746372 45
0.44889581 1.0918404 2.0011425 33
0.54884082 1.3349205 1.9852921 87
0.67079663 1.6315353 1.9906548 86
0.73319501 1.7966607 1.986725 75
0.89103091 2.183419 1.983212 69
1.0898482 2.6692739 1.9749157 69
1.3569912 3.323555 1.9649175 49
1.7534455 4.2924118 1.9616836 39
2.3813317 5.8265615 1.9389069 21
3.6332254 8.8896494 1.9147446 23
nan nan nan 0
0.81259507 1.9832973 1.9894335 77
0.98370683 2.3997324 1.9720063 73
1.2156554 2.9655564 1.9682654 69
1.543484 3.7634108 1.9678308 57
2.0331635 4.9549098 1.9521464 45
2.8963699 7.0550733 1.9301192 11
3.8570983 9.3905792 1.5063229 107
1.5190716 3.6965344 0.25489014 2
0.012332831 0.0286806 1.984198 75
0.12025656 0.28824085 1.9860058 96
0.15731059 0.37950084 1.9985133 95
0.23232582 0.56149906 1.9886441 88
0.32892835 0.7953282 2.087163 33
0.42206383 1.0210017 2.0911107 31
0.4990727 1.2072786 1.9912933 82
0.61066157 1.4772042 1.9897208 78
0.048886634 0.11415607 1.9810979 86
0.087121367 0.20058315 1.993349 91
0.19551757 0.47000572 1.9960775 97
0.27255481 0.65579224 1.9854547 93
0.37309405 0.89855057 2.0746372 39
0.4517042 1.0878582 1.9968767 34
0.55349725 1.3329965 1.9852921 87
0.67648774 1.6291838 1.9906548 86
0.73946208 1.7940903 1.986725 75
0.89864707 2.1802955 1.983212 69
1.099159 2.6654534 1.9749157 69
1.3685844 3.3187981 1.9649175 56
1.7684182 4.2862649 1.9616836 40
2.4016557 5.8182135 1.9389069 28
3.6623595 8.8723717 1.9138119 23
5.6571827 13.698214 1.4208519 2
0.81951308 1.9804487 1.9894335 77
0.99207741 2.3962841 1.9720063 73
1.2259998 2.9612949 1.9682654 68
1.5583484 3.7621937 1.9699289 58
2.0504467 4.9477825 1.9521464 45
2.9209793 7.04492 1.9301192 10
3.8936493 9.3862066 1.5077026 107
nan nan nan 0
0.01243287 0.028637376 1.984198 75
0.12126197 0.2878193 1.9860058 96
0.15863433 0.3789494 1.9985133 95
0.23428439 0.56068468 1.9886441 88
0.33245555 0.79597777 2.0917654 34
0.42562523 1.0195221 2.0911107 32
0.50328386 1.2055292 1.9912933 82
0.61581427 1.4750636 1.9897208 78
0.049284816 0.11398473 1.9810979 86
0.087820999 0.20027782 1.993349 91
0.197157 0.46932036 1.9960775 97
0.27484232 0.65483689 1.9854547 93
0.3770704 0.89925104 2.0791378 38
0.45449021 1.0838698 1.9926107 35
0.55814689 1.3310562 1.9852921 87
0.68085951 1.6236862 1.9869798 86
0.74572015 1.7914983 1.986725 75
0.90625232 2.1771452 1.983212 69
1.1084564 2.6616004 1.9749157 69
1.3801607 3.3140006 1.9649175 58
1.7815864 4.2757869 1.9598107 40
2.4219503 5.8097949 1.9389069 25
3.6914175 8.8549986 1.9128793 24
5.6704574 13.595649 1.4128201 3
0.82642114 1.9775761 1.9894335 73
1.0004359 2.3928063 1.9720063 75
1.2363292 2.9569972 1.9682654 68
1.5714715 3.7567315 1.9699289 57
2.0658822 4.9362383 1.9505038 45
2.9455526 7.0346813 1.9301192 19
3.9359565 9.3953953 1.5111516 107
nan nan nan 0
0.012532758 0.028593801 1.984198 77
0.12226591 0.28739426 1.9860058 96
0.15995616 0.37839335 1.9985133 95
0.23624012 0.55986345 1.9886441 89
0.33523196 0.79481244 2.0917654 33
0.42825073 1.0158226 2.0867221 32
0.50748891 1.203765 1.9912933 78
0.62220478 1.4758589 1.9935577 78
0.049682394 0.11381199 1.9810979 88
0.088519566 0.19997005 1.993349 93
0.19879404 0.46862927 1.9960775 97
0.27712643 0.6538735 1.9854547 83
0.38020712 0.89792931 2.0791378 38
0.45725396 1.0798751 1.9883448 34
0.56278974 1.3290999 1.9852921 89
0.68652314 1.6212996 1.9869798 88
0.7519691 1.7888843 1.986725 75
0.91384643 2.1739686 1.983212 69
1.1177404 2.6577151 1.9749157 69
1.3900028 3.305079 1.9625994 57
1.8000968 4.2780881 1.9635568 30
2.4422154 5.8013053 1.9389069 25
3.7203987 8.837533 1.9119467 24
5.6521573 13.419728 1.3976489 3
0.83331919 1.9746792 1.9894335 62
1.0087824 2.3892994 1.9720063 73
1.2466435 2.9526634 1.9682654 68
1.5845753 3.7512228 1.9699289 56
2.0831003 4.9289975 1.9505038 46
2.9700904 7.0243559 1.9301192 26
3.9706581 9.3861599 1.5118414 108
4.1748023 9.8639345 0.52574772 90
0.012632491 0.02854988 1.984198 77
0.12326836 0.28696576 1.9860058 96
0.16127601 0.37783268 1.9985133 95
0.23819296 0.55903542 1.9886441 88
0.33800432 0.79363745 2.0917654 33
0.43179399 1.0143216 2.0867221 32
0.5116877 1.2019863 1.9912933 78
0.62735271 1.473678 1.9935577 78
0.049962152 0.11337311 1.9761063 86
0.089217052 0.19965984 1.993349 91
0.20042865 0.46793252 1.9960775 97
0.2794072 0.65290213 1.9854547 69
0.38333914 0.89659673 2.0791378 39
0.46102062 1.0782725 1.9883448 34
0.56742573 1.3271273 1.9852921 87
0.69217831 1.6188934 1.9869798 88
0.75820893 1.7862486 1.986725 75
0.91990823 2.167182 1.9800742 69
1.1270108 2.6537971 1.9749157 69
1.4015312 3.3002069 1.9625994 35
1.8005159 4.2376442 1.9485725 7
2.462451 5.7927446 1.9389069 24
3.7512248 8.8244925 1.9119467 24
5.6541381 13.294513 1.3873862 3
0.84020704 1.9717584 1.9894335 46
1.0171164 2.3857636 1.9720063 73
1.2569426 2.9482939 1.9682654 66
1.5976598 3.7456689 1.9699289 57
2.1002929 4.9216957 1.9505038 46
2.9945917 7.0139456 1.9301192 26
4.0033979 9.3722429 1.5118414 109
4.217062 9.8676777 0.52655381 85
0.012732073 0.02850561 1.984198 77
0.1242693 0.28653371 1.9860058 96
0.16259393 0.37726745 1.9985133 96
0.24014291 0.55820054 1.9886441 88
0.34077257 0.79245275 2.0917654 34
0.43533203 1.0128082 2.0867221 33
0.51588029 1.2001927 1.9912933 82
0.63249302 1.4714792 1.9935577 71
0.050357595 0.11319801 1.9761063 86
0.08991345 0.1993472 1.993349 91
0.2020608 0.46723005 1.9960775 97
0.28168455 0.65192288 1.9854547 48
0.3864665 0.89525312 2.0791378 42
0.46374795 1.074262 1.9840788 37
0.57205486 1.3251386 1.9852921 87
0.69782513 1.6164674 1.9869798 83
0.7644394 1.783591 1.986725 75
0.92746747 2.1639576 1.9800742 69
1.1346196 2.6460042 1.9721743 69
1.4130425 3.2952943 1.9625994 12
1.8536803 4.3208022 1.9879062 4
2.4807642 5.7797055 1.9374977 24
3.7800677 8.8068295 1.9110141 23
5.657279 13.174023 1.3775696 3
0.84708464 1.9688135 1.9894335 37
1.0254381 2.3821986 1.9720063 73
1.2672265 2.9438884 1.9682654 70
1.6107248 3.7400692 1.9699289 57
2.1174605 4.9143348 1.9505038 46
3.0171328 6.9989867 1.9289469 26
nan nan nan 0
4.2554393 9.862071 0.52695686 75
0.012831498 0.028460993 1.984198 77
0.12526874 0.28609818 1.9860058 96
0.16390984 0.3766976 1.9985133 96
0.24208994 0.55735886 1.9886441 89
0.3435367 0.79125834 2.0917654 34
0.43886471 1.0112824 2.0867221 33
0.52006662 1.1983846 1.9912933 84
0.63762558 1.4692624 1.9935577 71
0.05075242 0.11302155 1.9761063 86
0.090608753 0.19903213 1.993349 91
0.20369051 0.46652186 1.9960775 97
0.28395846 0.65093565 1.9854547 46
0.38958916 0.89389867 2.0791378 49
0.46749496 1.0726367 1.9840788 42
0.57667696 1.3231336 1.9852921 89
0.70346332 1.6140217 1.9869798 83
0.7706607 1.7809117 1.986725 75
0.93501544 2.1607068 1.9800742 69
1.1438489 2.6420274 1.9721743 67
1.4245367 3.2903419 1.9625994 12
1.9185024 4.429163 2.0384781 4
2.5009241 5.7710104 1.9374977 24
3.8107862 8.793581 1.9110141 20
5.6655912 13.067383 1.3690916 4
0.85395193 1.9658446 1.9894335 37
1.0337473 2.3786049 1.9720063 73
1.2774949 2.9394469 1.9682654 69
1.6237704 3.7344239 1.9699289 56
2.1346016 4.9069133 1.9505038 47
3.0415452 6.9884124 1.9289469 26
nan nan nan 0
4.2978196 9.8654776 0.52776301 69
0.012930768 0.02841603 1.984198 75
0.12626664 0.28565916 1.9860058 97
0.16522376 0.37612316 1.9985133 95
0.24403401 0.55651045 1.9886441 89
0.34629661 0.79005438 2.0917654 34
0.44239208 1.0097443 2.0867221 34
0.52424663 1.1965619 1.9912933 84
0.64275038 1.4670278 1.9935577 78
0.051266618 0.11310723 1.9810979 88
0.091302946 0.19871463 1.993349 91
0.20531774 0.46580803 1.9960775 97
0.28622892 0.64994049 1.9854547 46
0.39270708 0.8925333 2.0791378 55
0.47123635 1.0709983 1.9840788 62
0.58007818 1.3183539 1.9813027 89
0.7104584 1.6146592 1.9906548 85
0.77687252 1.7782108 1.986725 75
0.94255209 2.1574297 1.9800742 69
1.1513896 2.634187 1.9694327 67
1.4360135 3.2853494 1.9625994 24
1.9376663 4.430934 2.0422242 3
2.5191305 5.7578506 1.9360884 24
3.8355513 8.7667246 1.9082161 17
5.6412778 12.887851 1.3534743 3
0.86080879 1.9628519 1.9894335 40
1.0420438 2.3749819 1.9720063 73
1.2877476 2.9349699 1.9682654 68
1.6367961 3.7287331 1.9699289 55
2.1517169 4.8994327 1.9505038 47
3.0639658 6.9733028 1.9277744 26
nan nan nan 0
4.3402753 9.8687077 0.5285691 65
0.013029879 0.028370719 1.984198 75
0.12726301 0.28521666 1.9860058 97
0.16653568 0.3755441 1.9985133 95
0.24597511 0.55565524 1.9886441 89
0.34905231 0.78884083 2.0917654 34
0.44494495 1.0060029 2.0823333 33
0.52842015 1.1947248 1.9912933 82
0.64786732 1.4647751 1.9935577 80
0.051661123 0.11292759 1.9810979 88
0.091996044 0.19839472 1.993349 93
0.20694245 0.46508849 1.9960775 97
0.2884959 0.6489374 1.9854547 46
0.3958202 0.89115703 2.0791378 59
0.47391328 1.0669634 1.979813 79
0.58467656 1.316321 1.9813027 87
0.71609026 1.6121694 1.9906548 86
0.78307492 1.7754881 1.986725 73
0.95007718 2.1541266 1.9800742 69
1.1605777 2.6301517 1.9694327 67
1.4474728 3.2803166 1.9625994 40
1.9624828 4.4453487 2.0515895 4
2.5392139 5.7490225 1.9360884 24
3.8720839 8.7667637 1.9110141 14
5.6741533 12.840751 1.3507969 3
0.86765516 1.9598352 1.9894335 56
1.0503278 2.37133 1.9720063 73
1.2979848 2.9304569 1.9682654 68
1.6498017 3.722997 1.9699289 53
2.1688058 4.8918915 1.9505038 47
3.0863175 6.9581218 1.9266022 27
nan nan nan 0
4.3828063 9.8717623 0.52937526 77
0.013128832 0.028325062 1.984198 77
0.12825783 0.2847707 1.9860058 95
0.16784555 0.37496051 1.9985133 95
0.24791321 0.55479324 1.9886441 89
0.35180375 0.78761756 2.0917654 34
0.44747713 1.002256 2.0779448 32
0.53258735 1.192873 1.9912933 82
0.65297639 1.4625047 1.9935577 78
0.052054998 0.11274657 1.9810979 88
0.092688002 0.19807237 1.993349 91
0.20856465 0.46436331 1.9960775 97
0.29075935 0.64792639 1.9854547 48
0.39892849 0.88976997 2.0791378 57
0.47763479 1.0653027 1.979813 87
0.58926779 1.3142722 1.9813027 87
0.72171342 1.6096599 1.9906548 86
0.78926778 1.7727439 1.986725 73
0.9575907 2.1507971 1.9800742 69
1.1697514 2.6260846 1.9694327 67
1.4589143 3.2752442 1.9625994 53
1.9647785 4.4088297 2.0384781 7
2.5592663 5.7401233 1.9360884 27
3.9166644 8.7845993 1.9175423 9
5.6763368 12.725356 1.3414265 3
0.87449104 1.9567945 1.9894335 73
1.0585988 2.3676491 1.9720063 73
1.3082061 2.9259083 1.9682654 69
1.6627873 3.7172153 1.9699289 53
2.1858687 4.8842912 1.9505038 47
3.1105871 6.9473062 1.9266022 27
5.3668823 11.98099 1.9209023 3
4.4274545 9.8791981 0.53038293 73
0.013246664 0.028318323 1.9891979 77
0.12925108 0.28432128 1.9860058 95
0.16915339 0.37437233 1.9985133 96
0.24984828 0.55392444 1.9886441 89
0.3545509 0.78638476 2.0917654 35
0.44801986 0.99413544 2.0647788 26
0.53674799 1.1910067 1.9912933 82
0.65676039 1.457294 1.9897208 80
0.052325502 0.11230192 1.9761063 86
0.093378842 0.19774762 1.993349 93
0.21018432 0.46363243 1.9960775 97
0.29301926 0.64690745 1.9854547 52
0.40292987 0.89035606 2.0836387 50
0.48135048 1.063629 1.979813 87
0.59385192 1.3122072 1.9813027 87
0.72732776 1.6071309 1.9906548 86
0.79545099 1.769978 1.986725 75
0.96509254 2.1474416 1.9800742 67
1.1806259 2.6257992 1.9721743 66
1.4721551 3.2741721 1.9649175 54
1.970647 4.3808055 2.0291131 6
2.5792875 5.7311549 1.9360884 28
3.9654481 8.8111897 1.925936 7
5.6880083 12.632809 1.3342872 3
0.87978071 1.9503261 1.9861088 79
1.0668569 2.3639395 1.9720063 73
1.3184114 2.921324 1.9682654 69
1.6757528 3.7113883 1.9699289 55
2.2048485 4.8809347 1.9521464 47
3.132817 6.9319768 1.9254299 28
5.4086709 11.962184 1.9209023 3
4.470149 9.8818913 0.53118902 71
0.013345433 0.028271914 1.9891979 75
0.13024275 0.28386834 1.9860058 96
0.17045915 0.37377959 1.9985133 95
0.25178033 0.55304897 1.9886441 89
0.35729375 0.78514236 2.0917654 36
0.44851136 0.98602331 2.0516129 20
0.53973693 1.1865643 1.9871606 84
0.6618433 1.4549924 1.9897208 80
0.05271719 0.11211858 1.9761063 86
0.094068542 0.19742048 1.993349 93
0.21180142 0.46289593 1.9960775 97
0.2952756 0.6458807 1.9854547 54
0.40603533 0.88894415 2.0836387 47
0.48506033 1.0619422 1.979813 87
0.59842879 1.3101263 1.9813027 87
0.73293334 1.6045823 1.9906548 85
0.80162448 1.7671906 1.986725 77
0.97258258 2.1440597 1.9800742 66
1.1897844 2.6216621 1.9721743 67
1.483575 3.2690134 1.9649175 56
1.9840102 4.3696785 2.02724 6
2.599277 5.7221169 1.9360884 29
3.9900858 8.7838764 1.923138 6
5.6867409 12.513133 1.3244706 3
0.88658321 1.9472432 1.9861088 79
1.0751021 2.3602011 1.9720063 75
1.3286006 2.9167042 1.9682654 69
1.6886978 3.7055166 1.9699289 55
2.221873 4.873209 1.9521464 48
3.1569951 6.9209986 1.9254299 28
5.440114 11.920707 1.9174532 3
4.5129156 9.8844051 0.53199518 36
0.013444038 0.028225157 1.9891979 75
0.13123284 0.28341201 1.9860058 96
0.17176285 0.3731823 1.9985133 95
0.25370929 0.5521667 1.9886441 88
0.36084768 0.78566569 2.0963681 36
0.44895169 0.97791976 2.0384469 20
0.54387558 1.1846731 1.9871606 84
0.66691804 1.4526733 1.9897208 80
0.053108234 0.11193388 1.9761063 86
0.094757095 0.19709092 1.993349 93
0.21341594 0.46215379 1.9960775 97
0.29752836 0.64484608 1.9854547 54
0.40913585 0.88752139 2.0836387 40
0.48876423 1.0602425 1.979813 87
0.60299832 1.3080294 1.9813027 87
0.73852986 1.6020141 1.9906548 85
0.80778825 1.7643816 1.986725 77
0.98168147 2.1441913 1.983212 56
1.1989286 2.6174932 1.9721743 59
1.494977 3.2638149 1.9649175 56
1.9780067 4.3163676 2.0066366 6
2.6192353 5.7130089 1.9360884 31
4.0227704 8.7743597 1.9240707 5
5.711699 12.452467 1.3204547 3
0.89337498 1.9441367 1.9861088 79
1.0833343 2.3564339 1.9720063 73
1.3387737 2.9120488 1.9682654 68
1.7016221 3.6995993 1.9699289 53
2.2388701 4.8654232 1.9521464 52
3.1831672 6.9143524 1.9266022 29
5.4754763 11.888148 1.9153837 3
4.5557542 9.8867426 0.53280127 29
0.013542481 0.028178057 1.9891979 77
0.13222134 0.28295219 1.9860058 96
0.17306446 0.3725805 1.9985133 96
0.25563517 0.55127776 1.9886441 86
0.36358795 0.78440136 2.0963681 36
0.44934106 0.96982551 2.025281 24
0.54800755 1.1827675 1.9871606 84
0.67198479 1.4503366 1.9897208 78
0.053498637 0.11174781 1.9761063 86
0.095444493 0.19675894 1.993349 93
0.21502784 0.46140602 1.9960775 97
0.300506 0.64536798 1.9901476 50
0.41315001 0.88806236 2.0881395 38
0.49246222 1.05853 1.979813 87
0.60756052 1.3059165 1.9813027 87
0.7441175 1.5994264 1.9906548 85
0.8124463 1.7583139 1.9832203 75
0.98916012 2.1407516 1.983212 39
1.208058 2.6132922 1.9721743 59
1.5063607 3.2585764 1.9649175 57
1.9794394 4.2799826 1.9935253 7
2.641176 5.7081852 1.9374977 31
4.0533738 8.7602644 1.9240707 4
5.7091069 12.333029 1.3106381 3
0.90015578 1.9410063 1.9861088 79
1.0915531 2.352638 1.9720063 73
1.3489306 2.9073577 1.9682654 68
1.7145257 3.6936369 1.9699289 53
2.257829 4.8618617 1.9537891 57
3.2072835 6.9031987 1.9266022 30
5.5315518 11.900398 1.9202124 4
4.5986643 9.8888988 0.53360742 61
0.013640759 0.028130613 1.9891979 77
0.13320823 0.28248891 1.9860058 96
0.17436396 0.37197408 1.9985133 96
0.25755793 0.55038202 1.9886441 84
0.3663238 0.78312737 2.0963681 37
0.44967929 0.96174037 2.012115 29
0.55213279 1.1808473 1.9871606 84
0.67704332 1.4479821 1.9897208 76
0.053888381 0.11156039 1.9761063 86
0.096130729 0.19642457 1.993349 93
0.21663716 0.46065262 1.9960775 97
0.30349082 0.64587688 1.9948403 44
0.4162474 0.8866148 2.0881395 37
0.49615413 1.0568047 1.979813 87
0.61211532 1.3037879 1.9813027 89
0.74969596 1.5968193 1.9906548 86
0.81857902 1.7554672 1.9832203 73
0.99827182 2.1408136 1.9863497 33
1.2171727 2.6090593 1.9721743 67
1.515853 3.2492838 1.9625994 47
1.9786817 4.23944 1.978541 9
2.6610851 5.6989307 1.9374977 33
4.0839281 8.7460623 1.9240707 4
5.697319 12.195714 1.2990366 3
0.90692574 1.9378524 1.9861088 79
1.0997587 2.3488135 1.9720063 75
1.3608992 2.9065361 1.9707979 68
1.7274084 3.6876295 1.9699289 53
2.2747862 4.853951 1.9537891 56
3.2313607 6.8919611 1.9266022 30
5.5898829 11.916885 1.9257309 4
4.6395221 9.8863554 0.53421199 51
0.01373887 0.028082825 1.9891979 77
0.13419348 0.28202224 1.9860058 96
0.17566131 0.37136316 1.9985133 95
0.25947756 0.54947966 1.9886441 89
0.36822119 0.78007716 2.0917654 37
0.45098901 0.95583153 2.0033376 34
0.55625141 1.1789129 1.9871606 82
0.68209362 1.4456099 1.9897208 76
0.054404769 0.11163168 1.9810979 86
0.096815795 0.19608784 1.993349 95
0.21824382 0.45989361 1.9960775 97
0.3109192 0.65572834 2.0276897 39
0.41933975 0.88515639 2.0881395 37
0.49984005 1.0550662 1.979813 87
0.61666268 1.3016431 1.9813027 89
0.75526536 1.5941925 1.9906548 86
0.82470179 1.7525991 1.9832203 71
1.0057386 2.137316 1.9863497 26
1.2262727 2.6047947 1.9721743 67
1.5271859 3.2439725 1.9625994 47
1.9776655 4.1989551 1.9635568 10
2.6809618 5.6896067 1.9374977 33
4.1165271 8.7361965 1.9250033 3
nan nan nan 0
0.91368461 1.9346749 1.9861088 79
1.107951 2.3449602 1.9720063 75
1.3710366 2.9017677 1.9707979 69
1.7402703 3.6815772 1.9699289 53
2.2917159 4.8459806 1.9537891 55
3.2553985 6.8806391 1.9266022 30
5.6166158 11.865968 1.9209023 4
4.6825562 9.8881607 0.53501809 44
0.013816956 0.027995843 1.984198 77
0.13517711 0.28155208 1.9860058 95
0.17695655 0.37074775 1.9985133 95
0.26139399 0.54857051 1.9886441 89
0.37094194 0.77878714 2.0917654 38
0.45329279 0.95208824 1.9989488 36
0.56036317 1.1769639 1.9871606 84
0.68713558 1.4432201 1.9897208 76
0.054794103 0.11144109 1.9810979 86
0.097499676 0.1957487 1.993349 93
0.21984781 0.45912898 1.9960775 97
0.3161855 0.66086566 2.0464609 38
0.42336625 0.88565201 2.0926404 37
0.50351989 1.053315 1.979813 89
0.62250233 1.3022019 1.9852921 87
0.76082551 1.5915464 1.9906548 86
0.83081442 1.7497097 1.9832203 69
1.013193 2.1337922 1.9863497 20
1.2353576 2.6004984 1.9721743 66
1.5385002 3.238622 1.9625994 56
1.9863404 4.1794648 1.9579377 12
2.698746 5.6758814 1.9360884 33
4.149106 8.7262106 1.925936 3
1.7669344 3.7144673 0.4615007 2
0.92043227 1.9314736 1.9861088 79
1.1161296 2.3410785 1.9720063 73
1.3811574 2.8969643 1.9707979 69
1.7531108 3.6754801 1.9699289 52
2.3086176 4.8379517 1.9537891 50
3.2793968 6.8692336 1.9266022 30
5.6580014 11.84629 1.9209023 4
4.723506 9.8852777 0.53562272 38
0.013914596 0.027947441 1.984198 77
0.13615909 0.28107852 1.9860058 95
0.17824961 0.37012777 1.9985133 96
0.26330727 0.54765475 1.9886441 89
0.37365815 0.77748752 2.0917654 38
0.45557606 0.94834077 1.9945602 38
0.56446809 1.1750008 1.9871606 84
0.69216913 1.4408127 1.9897208 76
0.055182774 0.11124915 1.9810979 86
0.098182373 0.19540714 1.993349 93
0.22144914 0.45835879 1.9960775 97
0.32374221 0.6706363 2.0793102 38
0.42645514 0.8841688 2.0926404 36
0.50719351 1.051551 1.979813 89
0.62704402 1.3000211 1.9852921 89
0.76637638 1.5888809 1.9906548 86
0.83845794 1.750015 1.986725 56
1.0189532 2.1267319 1.983212 20
1.2444276 2.5961702 1.9721743 66
1.5497957 3.2332318 1.9625994 56
1.9969082 4.1641455 1.9541916 14
2.7185421 5.6664267 1.9360884 33
4.1859155 8.7249622 1.9287338 2
1.7906644 3.7307255 0.46373177 2
0.92716879 1.928249 1.9861088 79
1.1242948 2.337168 1.9720063 73
1.3912612 2.8921256 1.9707979 68
1.7639614 3.6652484 1.9678308 52
2.3234425 4.8256087 1.9521464 49
3.2991357 6.8489861 1.9242575 23
5.6778193 11.781855 1.914004 4
4.7666616 9.8867302 0.53642881 33
0.014012066 0.027898701 1.984198 78
0.13713941 0.2806015 1.9860058 96
0.17954053 0.36950332 1.9985133 96
0.26521733 0.54673231 1.9886441 89
0.3755174 0.77442068 2.087163 38
0.45783859 0.94458878 1.9901714 39
0.5685662 1.1730231 1.9871606 84
0.69719428 1.4383879 1.9897208 76
0.05557077 0.11105584 1.9810979 86
0.09886387 0.19506325 1.993349 93
0.22304775 0.45758298 1.9960775 97
0.32608122 0.66950214 2.0793102 38
0.42953888 0.88267481 2.0926404 36
0.51086104 1.0497742 1.979813 87
0.63157815 1.2978243 1.9852921 89
0.77191794 1.5861961 1.9906548 86
0.84456152 1.7470776 1.986725 44
1.0263708 2.1231623 1.983212 23
1.2534822 2.5918105 1.9721743 67
1.5610723 3.2278025 1.9625994 56
2.0114315 4.1571493 1.9541916 40
2.7383051 5.6569028 1.9360884 33
4.2163458 8.7102976 1.9287338 2
1.7993349 3.715488 0.46283937 2
0.93389398 1.9250009 1.9861088 79
1.1324462 2.3332295 1.9720063 73
1.3994654 2.8833728 1.9682654 65
1.7767448 3.6590683 1.9678308 52
2.3402729 4.8174686 1.9521464 44
3.3123999 6.8155704 1.918396 12
nan nan nan 0
4.8011436 9.8700314 0.53642881 28
0.014109365 0.027849618 1.984198 78
0.13811804 0.28012109 1.9860058 96
0.18082924 0.36887437 1.9985133 96
0.26712418 0.54580319 1.9886441 88
0.37821835 0.7731052 2.087163 39
0.46008059 0.94083285 1.9857829 39
0.57265735 1.1710315 1.9871606 76
0.70221096 1.4359454 1.9897208 80
0.055958085 0.11086119 1.9810979 86
0.099544168 0.19471696 1.993349 93
0.22464366 0.45680162 1.9960775 97
0.32841623 0.66835982 2.0793102 38
0.43261737 0.88117009 2.0926404 36
0.51452237 1.0479846 1.979813 87
0.63610458 1.2956119 1.9852921 87
0.77745014 1.583492 1.9906548 85
0.85065484 1.7441189 1.986725 37
1.0337757 2.1195667 1.983212 31
1.2625217 2.5874193 1.9721743 67
1.57233 3.2223334 1.9625994 56
2.0259304 4.1501026 1.9541916 40
2.7601399 5.6516209 1.9374977 34
4.2273231 8.6558008 1.9203403 2
1.8122933 3.7091846 0.46283937 2
0.94060773 1.9217293 1.9861088 81
1.1423614 2.3328924 1.9749495 73
1.4095218 2.8784702 1.9682654 47
1.7875099 3.6487689 1.9657328 52
2.3549962 4.8050299 1.9505038 35
3.3639891 6.8607011 1.9336361 4
5.6334357 11.484058 1.8739947 2
4.8619804 9.907032 0.53884721 18
0.014206493 0.027800199 1.984198 78
0.13909501 0.27963725 1.9860058 97
0.18211575 0.36824089 1.9985133 95
0.26902777 0.54486746 1.9886441 89
0.38091466 0.77178019 2.087163 39
0.46336192 0.93922108 1.9857829 39
0.57674152 1.1690253 1.9871606 76
0.70721906 1.4334855 1.9897208 78
0.056212906 0.11040737 1.9761063 86
0.10022325 0.19436829 1.993349 91
0.22623682 0.45601466 1.9960775 97
0.33074725 0.66720933 2.0793102 38
0.43569061 0.87965459 2.0926404 36
0.51817739 1.0461822 1.979813 87
0.64062327 1.2933835 1.9852921 89
0.78297281 1.5807686 1.9906548 85
0.85673773 1.7411389 1.986725 37
1.0411681 2.1159451 1.983212 39
1.2715458 2.5829964 1.9721743 67
1.5835685 3.2168255 1.9625994 53
2.0404048 4.1430058 1.9541916 46
2.779851 5.6419511 1.9374977 34
4.2358012 8.5969267 1.9110141 2
1.8252298 3.7028358 0.46283937 2
0.94731015 1.9184343 1.9861088 81
1.1504977 2.3288908 1.9749495 73
1.4195609 2.8735325 1.9682654 30
1.8002357 3.6425071 1.9657328 52
2.3717549 4.7967801 1.9505038 14
3.4116232 6.896841 1.9465315 3
4.9464488 9.9952068 1.6456658 31
4.8876657 9.8720913 0.53804111 12
0.014303447 0.02775044 1.984198 78
0.14007027 0.27915004 1.9860058 96
0.18340003 0.36760294 1.9985133 93
0.27092808 0.54392505 1.9886441 89
0.38360637 0.77044594 2.087163 38
0.46663758 0.93759793 1.9857829 39
0.58081865 1.1670051 1.9871606 84
0.71221858 1.4310081 1.9897208 76
0.056597959 0.11021048 1.9761063 86
0.1009011 0.19401728 1.993349 91
0.22782725 0.45522219 1.9960775 97
0.33307421 0.66605079 2.0793102 38
0.43875849 0.87812841 2.0926404 37
0.52182609 1.0443671 1.979813 87
0.64378697 1.2884433 1.9813027 87
0.78697062 1.5749933 1.9869798 83
0.86281019 1.7381378 1.986725 39
1.0468167 2.1088109 1.9800742 54
1.2805544 2.5785422 1.9721743 67
1.5947876 3.211278 1.9625994 53
2.0548542 4.1358581 1.9541916 46
2.8016634 5.6365099 1.9389069 35
4.2767162 8.6040831 1.9156771 2
1.8381439 3.6964421 0.46283937 2
0.95233577 1.911773 1.9827838 79
1.15862 2.3248603 1.9749495 75
1.4295827 2.8685598 1.9682654 15
1.8088894 3.6280777 1.9615366 38
2.3884842 4.7884717 1.9505038 14
3.4877646 6.9892702 1.9746671 3
4.9746718 9.9645872 1.6435962 30
nan nan nan 0
0.014420893 0.027738772 1.9891979 77
0.14104384 0.2786594 1.9860058 96
0.18468209 0.36696053 1.9985133 95
0.27282509 0.54297602 1.9886441 89
0.38717028 0.77084792 2.0917654 38
0.46990758 0.93596339 1.9857829 48
0.58488876 1.1649705 1.9871606 82
0.7172094 1.4285133 1.9897208 74
0.05698232 0.11001223 1.9761063 86
0.10157774 0.19366388 1.993349 91
0.22941488 0.45442414 1.9960775 97
0.33539712 0.66488409 2.0793102 38
0.44182107 0.87659144 2.0926404 37
0.52546841 1.0425391 1.979813 87
0.64828056 1.2861882 1.9813027 84
0.79246366 1.5722365 1.9869798 81
0.86887217 1.7351154 1.986725 48
1.0541714 2.1051438 1.9800742 67
1.2895474 2.5740566 1.9721743 67
1.6059874 3.2056918 1.9625994 57
2.0692782 4.1286602 1.9541916 44
2.8213215 5.6266956 1.9389069 39
4.3067241 8.5891018 1.9156771 2
1.8510358 3.6900032 0.46283937 2
0.95900333 1.908437 1.9827838 79
1.1649127 2.3171906 1.9720063 73
1.4395872 2.8635521 1.9682654 15
1.8195033 3.6176867 1.9594386 17
2.4051845 4.7801056 1.9505038 16
3.5165112 6.9857364 1.9770118 7
5.0094247 9.9471626 1.6435962 21
nan nan nan 0
0.014517631 0.027688265 1.9891979 77
0.14201568 0.27816534 1.9860058 97
0.1859619 0.36631361 1.9985133 95
0.27471873 0.54202038 1.9886441 89
0.38985866 0.76949173 2.0917654 38
0.47317183 0.93431735 1.9857829 60
0.58895171 1.1629217 1.9871606 82
0.72219145 1.4260011 1.9897208 78
0.057500497 0.11006908 1.9810979 86
0.10225314 0.19330812 1.993349 93
0.23099971 0.45362058 1.9960775 97
0.33771598 0.66370928 2.0793102 38
0.44487828 0.87504393 2.0926404 37
0.52910435 1.0406985 1.979813 87
0.65276623 1.2839174 1.9813027 87
0.79794687 1.5694609 1.9869798 83
0.87331563 1.7288888 1.9832203 66
1.0615134 2.1014514 1.9800742 69
1.2985246 2.5695395 1.9721743 67
1.6171675 3.2000661 1.9625994 57
2.0836775 4.1214118 1.9541916 44
2.840945 5.6168132 1.9389069 38
4.3433309 8.5871668 1.918475 2
1.8616565 3.6790757 0.46239313 2
0.9656592 1.9050778 1.9827838 81
1.172994 2.3131101 1.9720063 73
1.4495741 2.8585095 1.9682654 33
1.8280135 3.6032186 1.9552425 15
2.4239926 4.7758918 1.9521464 38
3.492461 6.8780727 1.9512208 7
5.616044 11.055486 1.8194994 5
1.7291524 3.4024632 0.24763504 18
0.014614193 0.02763742 1.9891979 77
0.14298579 0.27766794 1.9860058 97
0.18723944 0.36566228 1.9985133 95
0.27660906 0.54105812 1.9886441 89
0.39254233 0.76812619 2.0917654 37
0.47643036 0.93265992 1.9857829 69
0.5930075 1.1608588 1.9871606 82
0.72716475 1.4234715 1.9897208 78
0.057884358 0.1098677 1.9810979 86
0.10292729 0.19295001 1.993349 93
0.23258173 0.45281148 1.9960775 97
0.3400307 0.66252643 2.0793102 38
0.44693625 0.87154788 2.0881395 37
0.53273386 1.0388452 1.979813 87
0.65724391 1.2816311 1.9813027 87
0.80342048 1.5666659 1.9869798 83
0.8793453 1.7258298 1.9832203 71
1.0688424 2.0977333 1.9800742 69
1.3074862 2.5649912 1.9721743 69
1.6283281 3.1944017 1.9625994 56
2.0980513 4.1141133 1.9541916 47
2.8605342 5.6068621 1.9389069 38
4.3777442 8.5807056 1.9203403 2
1.8880714 3.6991689 0.46507037 2
0.97230315 1.9016955 1.9827838 79
1.1810611 2.3090017 1.9720063 73
1.4595435 2.8534322 1.9682654 55
1.8922676 3.6978216 2.007694 6
2.440649 4.7674012 1.9521464 46
3.5142329 6.8615141 1.9500486 6
5.6636333 11.053443 1.8222585 3
1.7091131 3.3341644 0.24481359 51
0.014710576 0.02758624 1.9891979 78
0.14395417 0.27716714 1.9860058 95
0.18851469 0.36500645 1.9985133 95
0.27849606 0.54008931 1.9886441 89
0.39522123 0.76675129 2.0917654 37
0.47968301 0.93099129 1.9857829 81
0.59705603 1.1587818 1.9871606 80
0.73212916 1.4209245 1.9897208 78
0.058267515 0.10966498 1.9810979 84
0.10360018 0.19258955 1.993349 93
0.23416092 0.45199686 1.9960775 97
0.34234127 0.66133541 2.0793102 38
0.44997579 0.86998236 2.0881395 35
0.53635681 1.0369793 1.979813 89
0.66171372 1.2793289 1.9813027 87
0.81044173 1.5668628 1.9906548 85
0.88536423 1.7227497 1.9832203 71
1.0761584 2.0939894 1.9800742 69
1.3164316 2.5604117 1.9721743 69
1.6394686 3.1886985 1.9625994 56
2.1123993 4.1067653 1.9541916 46
2.8800883 5.5968428 1.9389069 37
4.4121652 8.5741072 1.9222056 2
1.9100902 3.7102668 0.4668552 2
0.97893548 1.8982899 1.9827838 79
1.189114 2.3048646 1.9720063 73
1.4714717 2.8521519 1.9707979 65
1.9551219 3.787986 2.0580471 5
2.4572754 4.7588525 1.9521464 46
3.5180852 6.810339 1.9394977 6
5.690815 11.01161 1.8188095 5
1.7092686 3.3059888 0.24380594 45
0.014806781 0.02753472 1.9891979 78
0.14492078 0.27666298 1.9860058 95
0.18978766 0.36434618 1.9985133 96
0.28037959 0.53911382 1.9886441 82
0.39789528 0.76536697 2.0917654 36
0.48292986 0.92931122 1.9857829 83
0.60109729 1.1566906 1.9871606 82
0.73708463 1.4183602 1.9897208 76
0.058649965 0.10946092 1.9810979 84
0.10427181 0.19222675 1.993349 93
0.23573726 0.45117673 1.9960775 97
0.34464768 0.66013634 2.0793102 38
0.45099536 0.86454475 2.0791378 33
0.53997332 1.0351008 1.979813 87
0.66617531 1.2770115 1.9813027 87
0.81590623 1.5640244 1.9906548 85
0.89137232 1.7196487 1.9832203 77
1.0834612 2.0902202 1.9800742 69
1.3253611 2.5558009 1.9721743 66
1.6505892 3.1829562 1.9625994 53
2.1267219 4.0993657 1.9541916 47
2.8996074 5.5867558 1.9389069 37
4.4443302 8.5630131 1.923138 3
1.9367995 3.7300956 0.46953249 2
0.98555577 1.8948612 1.9827838 79
1.1971521 2.3006999 1.9720063 75
1.4814185 2.846998 1.9707979 65
1.9683325 3.7811382 2.0580471 5
2.4738719 4.7502465 1.9521464 47
3.5283606 6.7721524 1.9324638 9
5.6788602 10.895065 1.8036335 5
1.7207983 3.3000021 0.24380594 46
0.014902805 0.027482867 1.9891979 78
0.14552253 0.27546847 1.9810666 95
0.19105831 0.3636815 1.9985133 95
0.28225976 0.53813183 1.9886441 67
0.40056446 0.76397341 2.0917654 36
0.48617083 0.92761976 1.9857829 83
0.60513121 1.1545854 1.9871606 82
0.74203116 1.4157788 1.9897208 76
0.059031695 0.10925552 1.9810979 86
0.10494217 0.1918616 1.993349 93
0.23731072 0.45035109 1.9960775 97
0.34775391 0.66045624 2.084003 38
0.45299649 0.86103809 2.0746372 24
0.54358321 1.0332097 1.979813 87
0.67062891 1.2746783 1.9813027 87
0.82136065 1.5611669 1.9906548 85
0.89736956 1.7165269 1.9832203 77
1.0907508 2.0864255 1.9800742 69
1.3362123 2.5548639 1.9749157 66
1.6616899 3.1771753 1.9625994 54
2.1410184 4.0919175 1.9541916 47
2.9190912 5.5766001 1.9389069 34
4.4719157 8.5430956 1.9222056 6
1.9521184 3.7277241 0.46997872 2
0.99216408 1.8914095 1.9827838 79
1.2051759 2.2965074 1.9720063 73
1.4913474 2.8418097 1.9707979 65
1.9688612 3.7501345 2.045459 6
2.4904382 4.7415819 1.9521464 45
3.5542395 6.7640982 1.9336361 17
5.6892056 10.822577 1.7953558 5
1.7183545 3.2674451 0.24259675 42
0.01497718 0.027392691 1.984198 78
0.14648321 0.27495882 1.9810666 95
0.19232664 0.36301237 1.9985133 95
0.28413644 0.53714329 1.9886441 60
0.40322879 0.76257056 2.0917654 35
0.48940584 0.92591709 1.9857829 83
0.6091578 1.1524659 1.9871606 80
