# .PCD v0.7 - Point Cloud Data file format
VERSION 0.7
FIELDS x y z intensity
SIZE 4 4 4 4
TYPE F F F F
COUNT 1 1 1 1
WIDTH 1332
HEIGHT 1
VIEWPOINT 0 0 0 1 0 0 0
POINTS 1332
DATA ascii
-1.2747893 -0.55059719 0.149691 18
-0.028857488 -0.011913057 1.984198 67
-0.28737858 -0.12230285 1.9860058 86
-0.08934363 -0.038294978 0.49078339 7
-0.39647153 -0.17011696 1.4255807 34
-0.75677079 -0.32484114 1.999715 25
-0.96672124 -0.41515043 1.9945602 81
-1.265007 -0.54323965 2.0946171 44
-1.4805312 -0.6357888 2.0050688 78
-0.11578685 -0.04799924 2.0010643 112
-0.20343152 -0.083111614 2.0032918 88
-0.09914577 -0.042340465 0.45237118 5
-0.48010272 -0.20510076 1.4739432 91
-0.8585394 -0.36710078 1.9936218 88
-1.0782622 -0.46104443 1.9883448 89
-1.3326617 -0.56981474 1.9932711 87
-1.6313559 -0.69752401 2.0016804 85
-1.8084511 -0.77885062 2.0147614 39
-2.1945097 -0.94511104 2.0083144 35
-2.6943421 -1.1598154 2.0078135 37
-3.3950465 -1.4614387 2.0205503 59
-1.329401 -0.57198334 0.67303711 24
-1.5295604 -0.65778649 0.57903326 28
-1.3357391 -0.5744341 0.36752769 18
-1.3861166 -0.5958122 0.22813296 16
-1.9971502 -0.85681075 2.0160325 37
-2.4207726 -1.0380504 2.0014381 69
-3.0248995 -1.2971015 2.018914 63
-1.42351 -0.61012 0.80341172 12
-1.4330132 -0.61389714 0.63142788 36
nan nan nan 0
-1.4476572 -0.61957258 0.31156197 26
-1.2721102 -0.54417908 0.14948946 18
-0.028898895 -0.011812253 1.984198 66
-0.28780371 -0.12129896 1.9860058 90
-0.090414166 -0.038380396 0.49567863 9
-0.3970629 -0.16873197 1.4255807 34
-0.75790012 -0.32219756 1.999715 27
-0.96595973 -0.41083571 1.9901714 81
-1.2668955 -0.53882062 2.0946171 44
-1.4797912 -0.62936223 2.0012317 76
-0.1159537 -0.047594778 2.0010643 112
-0.20372039 -0.082401 2.0032918 88
-0.099292956 -0.041994125 0.45237118 5
-0.49035168 -0.20745765 1.5020999 98
-0.8598156 -0.36410168 1.9936218 90
-1.079865 -0.4572778 1.9883448 89
-1.3346425 -0.56515938 1.9932711 87
-1.6337807 -0.69182527 2.0016804 85
-1.8111589 -0.77253324 2.0147614 39
-2.1977956 -0.93744498 2.0083144 32
-2.6983743 -1.1504034 2.0078135 33
-3.4001269 -1.4495788 2.0205503 59
-1.3527136 -0.57642621 0.68240231 23
-1.5318474 -0.65244335 0.57903326 28
-1.3512945 -0.57554275 0.37032557 18
-1.4156805 -0.60267407 0.23081023 22
-2.0001287 -0.8498342 2.0160325 37
-2.4243813 -1.0295941 2.0014381 69
-3.0294085 -1.2865348 2.018914 64
-1.4256309 -0.6051473 0.80341172 6
-1.4438421 -0.61258012 0.63471329 35
-1.6155711 -0.68510669 0.51395965 8
-1.4589303 -0.61838073 0.31294161 26
-1.274002 -0.53973532 0.14948946 18
-0.028939953 -0.011711305 1.984198 67
-0.28822538 -0.1202936 1.9860058 90
-0.091486372 -0.038458802 0.50057387 12
-0.3976495 -0.16734494 1.4255807 34
-0.75902015 -0.31955001 1.999715 29
-0.96738791 -0.4074614 1.9901714 83
-1.2687685 -0.53439504 2.0946171 46
-1.4819791 -0.62419289 2.0012317 78
-0.11611913 -0.047189727 2.0010643 112
-0.20400679 -0.08168938 2.0032918 88
-0.10059924 -0.042132869 0.45721036 5
-0.50380599 -0.21107897 1.539642 101
-0.8610813 -0.36109817 1.9936218 90
-1.0814546 -0.45350561 1.9883448 91
-1.3366072 -0.56049716 1.9932711 87
-1.6361856 -0.68611813 2.0016804 86
-1.8138443 -0.76620638 2.0147614 39
-2.2046404 -0.93128234 2.011452 31
-2.7062256 -1.1426038 2.0105548 27
-3.4051661 -1.4377013 2.0205503 58
-1.3718022 -0.57891065 0.68989444 26
-1.5385356 -0.64895666 0.58044243 32
-1.3668734 -0.57654965 0.37312341 24
-1.449898 -0.61127126 0.23393369 28
-2.003083 -0.84284723 2.0160325 37
-2.4279606 -1.0211251 2.0014381 71
-3.0338809 -1.2759523 2.018914 64
nan nan nan 0
-1.4546791 -0.61119497 0.63799864 34
-1.5910637 -0.66817111 0.50692576 7
-1.4702125 -0.61711764 0.31432122 27
-1.2758782 -0.53528488 0.14948946 18
-0.029021382 -0.011625873 1.9891979 67
-0.28936172 -0.11958338 1.9909451 90
-0.36896649 -0.15347385 1.9446659 14
-0.39823118 -0.16595587 1.4255807 35
-0.76013094 -0.31689861 1.999715 39
-0.96880436 -0.40408209 1.9901714 85
-1.2706263 -0.52996302 2.0946171 54
-1.484149 -0.61901605 2.0012317 73
-0.11628315 -0.046784114 2.0010643 112
-0.20429069 -0.080976769 2.0032918 86
-0.1007457 -0.041781455 0.45721036 5
-0.51729149 -0.21460883 1.5771841 101
-0.86233652 -0.35809019 1.9936218 90
-1.0830311 -0.44972786 1.9883448 91
-1.3385556 -0.55582809 1.9932711 87
-1.6417016 -0.68170261 2.0053556 83
-1.8165079 -0.75987023 2.0147614 38
-2.2078779 -0.92358106 2.011452 31
-2.7063398 -1.1315373 2.0078135 24
-3.4101639 -1.4258063 2.0205503 58
-1.4037567 -0.58663148 0.70300567 34
-1.5407915 -0.64358222 0.58044243 33
-1.377943 -0.57556146 0.37498868 24
-1.4933836 -0.62347412 0.23794958 31
-2.0025661 -0.83441389 2.0127075 37
-2.43151 -1.0126437 2.0014381 71
-3.0383165 -1.2653543 2.018914 64
-3.843266 -1.5998002 2.0118899 11
-1.4655241 -0.60974157 0.64128399 34
nan nan nan 0
-1.4860765 -0.61768407 0.31639069 28
-1.277739 -0.530828 0.14948946 25
-0.029061787 -0.011524498 1.9891979 67
-0.28977737 -0.11857259 1.9909451 93
-0.3704415 -0.15257266 1.9495611 14
-0.39742741 -0.16399513 1.420809 36
-0.7612325 -0.31424332 1.999715 61
-0.97020894 -0.40069789 1.9901714 81
-1.2724684 -0.52552444 2.0946171 54
-1.4863006 -0.61383164 2.0012317 73
-0.11617655 -0.046271235 1.9960728 112
-0.2045721 -0.080263175 2.0032918 84
-0.10205459 -0.04190702 0.46204957 5
-0.54836649 -0.22525926 1.6663467 100
-0.86358118 -0.35507789 1.9936218 90
-1.0845944 -0.44594464 1.9883448 91
-1.3404876 -0.55115229 1.9932711 87
-1.6440711 -0.67596787 2.0053556 86
-1.8191494 -0.75352472 2.0147614 38
-2.214685 -0.91735828 2.0145898 30
-2.7295902 -1.1300809 2.0215206 19
-3.4110272 -1.4121994 2.0182323 55
-1.4100796 -0.58350039 0.70487869 58
-1.5474619 -0.64003348 0.58185166 33
-1.3935618 -0.57638037 0.37778652 25
-1.5093577 -0.62396514 0.23928821 20
-2.0054665 -0.82741851 2.0127075 37
-2.4350302 -1.0041499 2.0014381 71
-3.0427148 -1.254741 2.018914 63
-3.8614151 -1.5915636 2.0181842 35
-1.47201 -0.60642105 0.64292669 35
-7.4340682 -3.0610697 2.0297663 7
-1.4973824 -0.61626238 0.31777033 28
-1.2795841 -0.52636462 0.14948946 35
-0.029101839 -0.011422984 1.9891979 66
-0.2901895 -0.11756035 1.9909451 95
-0.37191465 -0.15166304 1.9544563 16
-0.39799744 -0.16260687 1.420809 37
-0.76232481 -0.3115842 1.999715 81
-0.97160172 -0.39730877 1.9901714 81
-1.2716905 -0.52001452 2.0904844 56
-1.4884342 -0.60863978 2.0012317 80
-0.11633736 -0.04586542 1.9960728 112
-0.20485103 -0.07954859 2.0032918 84
-0.10220025 -0.041550528 0.46204957 5
-0.59870428 -0.24349611 1.8118224 98
-0.86481541 -0.35206127 1.9936218 88
-1.0861443 -0.44215596 1.9883448 93
-1.3424034 -0.54646975 1.9932711 87
-1.6464207 -0.67022485 2.0053556 86
-1.8217685 -0.74717021 2.0147614 38
-2.2178736 -0.90962195 2.0145898 30
-2.7489944 -1.1268899 2.0324864 17
-3.415936 -1.4002841 2.0182323 55
-1.4163976 -0.58033228 0.70675176 40
-1.5585655 -0.63826406 0.58467007 34
-1.4046569 -0.57523566 0.37965176 24
-1.4976999 -0.61303324 0.23794958 5
-2.0083427 -0.82041311 2.0127075 37
-2.4385204 -0.99564403 2.0014381 71
-3.0470762 -1.2441123 2.018914 63
-3.8753512 -1.5815047 2.0223801 32
-1.4828632 -0.60484624 0.64621204 36
-7.4582095 -3.040606 2.033283 17
-1.5086966 -0.61476922 0.31914994 28
-1.2814137 -0.52189481 0.14948946 29
-0.029141534 -0.01132133 1.9891979 66
-0.29131934 -0.11683574 1.9958843 95
-0.3724418 -0.15036389 1.9544563 16
-0.39717805 -0.16065663 1.4160373 38
-0.76159686 -0.3081885 1.9951125 95
-0.97520345 -0.39481387 1.9945602 85
-1.2734981 -0.51557225 2.0904844 60
-1.4935213 -0.60464346 2.0050688 78
-0.11649675 -0.045459043 1.9960728 111
-0.20512746 -0.078833036 2.0032918 88
-0.10351162 -0.041662883 0.46688879 5
-0.63636911 -0.25622809 1.9197561 95
-0.86603904 -0.34904039 1.9936218 86
-1.0876812 -0.43836191 1.9883448 91
-1.3415072 -0.540654 1.9892817 87
-1.6487503 -0.66447371 2.0053556 88
-1.8243655 -0.74080646 2.0147614 38
-2.2210352 -0.9018746 2.0145898 30
-2.768409 -1.1235772 2.0434525 15
-3.4208031 -1.3883517 2.0182323 58
-1.4227107 -0.57712734 0.70862478 40
-1.5652297 -0.63462228 0.58607924 35
-1.4248654 -0.57771182 0.38338223 21
-4.2783408 -1.7337787 0.5065679 33
-2.0111942 -0.81339759 2.0127075 37
-2.4419808 -0.98712593 2.0014381 71
-3.0514002 -1.2334683 2.018914 64
-3.885056 -1.5696677 2.0244782 28
-1.4849654 -0.59966642 0.64621204 37
-7.4823008 -3.0200114 2.0368001 16
-1.5200185 -0.6132046 0.32052958 28
-1.2832276 -0.51741868 0.14948946 25
-0.029180877 -0.011219538 1.9891979 66
-0.2917254 -0.11581814 1.9958843 95
-0.37012783 -0.14792952 1.9397707 18
-0.3977364 -0.15926924 1.4160373 38
-0.76266795 -0.30552819 1.9951125 95
-0.97657567 -0.3914074 1.9945602 83
-1.2752899 -0.51112378 2.0904844 58
-1.4956228 -0.59942645 2.0050688 78
-0.11665472 -0.045052119 1.9960728 112
-0.20540138 -0.078116529 2.0032918 88
-0.10599361 -0.042231858 0.47656718 5
-0.65168703 -0.25975531 1.9619911 93
-0.86725217 -0.34601519 1.9936218 80
-1.0892048 -0.4345625 1.9883448 91
-1.3433863 -0.53596795 1.9892817 87
-1.6510597 -0.65871441 2.0053556 88
-1.8269403 -0.73443371 2.0147614 38
-2.22417 -0.89411622 2.0145898 30
-2.7878342 -1.1201426 2.0544183 15
-3.4256287 -1.3764024 2.0182323 59
-1.4247164 -0.57215762 0.70862478 45
-1.5763395 -0.63272876 0.58889765 35
-1.449667 -0.58188373 0.38804534 17
-4.2705011 -1.7132713 0.50522929 38
-2.0140212 -0.80637234 2.0127075 37
-2.4454119 -0.97859579 2.0014381 71
-3.0556874 -1.2228094 2.018914 64
-3.890512 -1.5560968 2.0244782 27
-1.4651245 -0.58571428 0.63799864 35
-7.5108509 -3.0010886 2.0414894 15
-1.5359467 -0.61340499 0.32259902 28
-1.285026 -0.51293623 0.14948946 25
-0.029219862 -0.011117609 1.9891979 67
-0.29212788 -0.11479912 1.9958843 95
-0.3696951 -0.14626212 1.9348755 23
-0.39828995 -0.1578799 1.4160373 38
-0.76372981 -0.3028641 1.9951125 95
-0.97793597 -0.38799614 1.9945602 83
-1.2770662 -0.5066691 2.0904844 52
-1.4977061 -0.5942021 2.0050688 78
-0.11681128 -0.044644646 1.9960728 112
-0.20567282 -0.077399075 2.0032918 88
-0.10731059 -0.042322807 0.48140639 5
-0.65901083 -0.26001209 1.980762 93
-0.87048024 -0.34378573 1.9981228 73
-1.0907149 -0.43075785 1.9883448 89
-1.3452489 -0.53127539 1.9892817 87
-1.6501958 -0.65170193 2.0016804 86
-1.8294928 -0.72805202 2.0147614 38
-2.2272773 -0.88634694 2.0145898 29
-2.8072689 -1.1165862 2.0653841 13
-3.4304123 -1.3644363 2.0182323 59
-1.431013 -0.56889355 0.7104978 44
-1.5829966 -0.62899393 0.59030682 35
-1.5110354 -0.60040069 0.4001694 17
-4.2764554 -1.698354 0.50522929 40
-2.0168238 -0.79933715 2.0127075 37
-2.448813 -0.97005373 2.0014381 71
-3.0599372 -1.2121356 2.018914 64
-3.8917003 -1.5408361 2.0223801 27
-1.4539865 -0.57538337 0.63307059 31
-7.5258007 -2.9766402 2.0426617 12
-1.5472893 -0.6116811 0.32397866 28
-1.2868086 -0.50844753 0.14948946 29
-0.029258493 -0.011015545 1.9891979 67
-0.29180261 -0.11349721 1.9909451 95
-0.36830714 -0.14422837 1.9250849 26
-0.39883864 -0.15648866 1.4160373 39
-0.76478237 -0.30019635 1.9951125 95
-0.97928441 -0.38458011 1.9945602 83
-1.2762078 -0.50117964 2.0863512 48
-1.4997712 -0.58897048 2.0050688 78
-0.1169664 -0.044236626 1.9960728 112
-0.20594172 -0.076680668 2.0032918 88
-0.10862949 -0.042405076 0.4862456 5
-0.66312939 -0.25896555 1.9901476 93
-0.87370324 -0.34153795 2.0026236 47
-1.092212 -0.42694795 1.9883448 89
-1.3470953 -0.52657634 1.9892817 89
-1.6524606 -0.64593774 2.0016804 86
-1.832023 -0.72166145 2.0147614 38
-2.2303576 -0.87856692 2.0145898 29
-2.8189306 -1.1098437 2.0708671 13
-3.435154 -1.3524536 2.0182323 59
-1.437304 -0.56559253 0.71237081 39
-1.5941117 -0.62697613 0.59312522 34
-1.5771215 -0.62029386 0.41322607 30
-4.2730875 -1.6797719 0.50433683 40
-2.0196016 -0.7922923 2.0127075 37
-2.4521842 -0.96149993 2.0014381 69
-3.0641496 -1.2014471 2.018914 64
-3.8970549 -1.5272422 2.0223801 29
-1.4383975 -0.56341511 0.62649989 29
-7.5361452 -2.9503522 2.0426617 10
-1.5586385 -0.60988533 0.32535827 26
-1.2792701 -0.50031328 0.14908642 29
-0.029296767 -0.010913346 1.9891979 67
-0.29219702 -0.11247794 1.9909451 95
-0.36785892 -0.14257398 1.9201897 26
-0.39938244 -0.1550955 1.4160373 39
-0.76582557 -0.2975249 1.9951125 95
-0.98062086 -0.38115942 1.9945602 83
-1.2779495 -0.49672174 2.0863512 40
-1.4988297 -0.58257025 2.0012317 76
-0.11712011 -0.043828066 1.9960728 112
-0.20620814 -0.075961336 2.0032918 88
-0.10995026 -0.042478643 0.49108481 5
-0.6640293 -0.25664923 1.9901476 91
-0.87489015 -0.33848608 2.0026236 22
-1.0936956 -0.42313278 1.9883448 89
-1.3489252 -0.52187085 1.9892817 87
-1.6547053 -0.64016557 2.0016804 85
-1.8345309 -0.71526212 2.0147614 38
-2.2334108 -0.87077624 2.0145898 30
-2.8344758 -1.1045517 2.0790915 12
-3.4398541 -1.3404545 2.0182323 60
-1.4479092 -0.56393695 0.71611691 39
-1.6007609 -0.62314814 0.5945344 28
-1.6021652 -0.62369478 0.41788918 34
-4.2789249 -1.6648458 0.50433683 41
-2.0223548 -0.78523773 2.0127075 37
-2.4555254 -0.95293432 2.0014381 71
-3.0683248 -1.1907439 2.018914 61
-3.8981307 -1.5119884 2.020282 31
-1.4447587 -0.56009775 0.62814254 27
-7.5463982 -2.9240282 2.0426617 13
-1.5699936 -0.60801774 0.32673791 26
-1.2670313 -0.49043456 0.14848182 21
-0.029375831 -0.01082553 1.9941976 67
-0.29258785 -0.1114573 1.9909451 93
-0.36835435 -0.14128906 1.9201897 30
-0.40131554 -0.15423617 1.420809 38
-0.76685941 -0.29484987 1.9951125 95
-0.9819454 -0.37773412 1.9945602 83
-1.2796756 -0.49225786 2.0863512 38
-1.5008543 -0.57733488 2.0012317 78
-0.11727238 -0.04341897 1.9960728 112
-0.20647204 -0.075241067 2.0032918 86
-0.11127283 -0.042543501 0.495924 5
-0.66492116 -0.25432974 1.9901476 91
-0.87810016 -0.3362087 2.0071244 17
-1.095166 -0.41931248 1.9883448 91
-1.3507386 -0.5171591 1.9892817 89
-1.6569299 -0.63438565 2.0016804 83
-1.8370165 -0.70885402 2.0147614 38
-2.2364368 -0.86297482 2.0145898 30
-2.8461165 -1.0976601 2.0845745 12
-3.4445121 -1.328439 2.0182323 60
-1.4585203 -0.56221414 0.71986294 35
nan nan nan 0
-1.5997487 -0.61633241 0.41695657 36
-4.2800632 -1.6481099 0.50389063 40
-2.0250835 -0.77817357 2.0127075 37
-2.4588368 -0.94435716 2.0014381 71
-3.0684378 -1.1784805 2.0163815 61
-3.9033849 -1.4983722 2.020282 34
-1.4643413 -0.56181759 0.63471329 26
-7.5610976 -2.8994088 2.043834 12
-1.581355 -0.60607833 0.32811755 32
-1.3853694 -0.53068697 0.15352008 12
-0.029413439 -0.010722923 1.9941976 66
-0.29297513 -0.11043529 1.9909451 93
-0.36789331 -0.13964115 1.9152945 32
-0.40185148 -0.15283439 1.420809 39
-0.76788396 -0.29217124 1.9951125 95
-0.98325795 -0.37430418 1.9945602 85
-1.2787563 -0.48678684 2.0822184 37
-1.5028603 -0.57209235 2.0012317 78
-0.11742322 -0.043009352 1.9960728 112
-0.20673342 -0.074519895 2.0032918 86
-0.1125972 -0.042599637 0.50076324 5
-0.66580486 -0.25200722 1.9901476 91
-0.87926841 -0.33314154 2.0071244 17
-1.0966229 -0.41548708 1.9883448 89
-1.3525356 -0.51244098 1.9892817 89
-1.6591341 -0.62859803 2.0016804 88
-1.836148 -0.70116514 2.0112567 38
-2.2394354 -0.85516298 2.0145898 29
-2.8538375 -1.0892097 2.087316 13
-3.4449892 -1.3148276 2.0159142 46
-1.4734683 -0.56207639 0.72548205 28
-6.1503901 -2.3449197 2.0234587 31
-1.6064805 -0.61249447 0.41788918 37
-4.2811365 -1.6313865 0.50344443 40
-2.0277874 -0.77109998 2.0127075 37
-2.4621184 -0.93576843 2.0014381 71
-3.0725329 -1.1677624 2.0163815 64
-3.9043489 -1.4831259 2.0181842 37
-1.4795383 -0.56173128 0.63964134 25
-7.5757174 -2.8747225 2.0450063 12
-1.5788305 -0.59879851 0.32742774 33
-1.457287 -0.55241036 0.15654305 14
-0.02945069 -0.010620186 1.9941976 66
-0.29335883 -0.10941195 1.9909451 93
-0.36837852 -0.1383561 1.9152945 33
-0.40238252 -0.15143073 1.420809 40
-0.7688992 -0.28948906 1.9951125 95
-0.98455852 -0.3708697 1.9945602 83
-1.2804477 -0.48232019 2.0822184 34
-1.5048481 -0.56684291 2.0012317 78
-0.11757264 -0.042599209 1.9960728 112
-0.20648913 -0.073619127 1.9983203 88
-0.11156713 -0.041765638 0.495924 5
-0.66668051 -0.24968158 1.9901476 93
-0.87838674 -0.32930586 2.0026236 17
-1.0980666 -0.41165665 1.9883448 89
-1.3543161 -0.50771666 1.9892817 89
-1.6613183 -0.62280279 2.0016804 86
-1.8385844 -0.69475156 2.0112567 38
-2.2424068 -0.84734064 2.0145898 29
-2.8615339 -1.0807185 2.0900574 14
-3.449558 -1.3027943 2.0159142 46
-1.4754213 -0.55692959 0.72548205 28
-6.1585383 -2.3234365 2.0234587 33
-1.6086086 -0.60688305 0.41788918 37
-4.2868056 -1.6164327 0.50344443 46
-2.030467 -0.76401705 2.0127075 37
-2.4653697 -0.92716831 2.0014381 69
-3.0765903 -1.1570301 2.0163815 64
-3.909502 -1.4694883 2.0181842 38
-1.4947525 -0.56154567 0.6445694 25
-7.5902562 -2.8499696 2.0461786 11
-1.5484561 -0.58110404 0.32259902 27
-1.5340499 -0.57539231 0.15976754 18
-0.029444451 -0.010508375 1.9891979 67
-0.29372004 -0.10843853 1.9909451 95
-0.3688353 -0.13713378 1.9152945 35
-0.40428206 -0.15061688 1.4255807 40
-0.7698549 -0.28693768 1.9951125 95
-0.98578292 -0.36760274 1.9945602 81
-1.2794033 -0.47708821 2.0780854 31
-1.5067196 -0.56184953 2.0012317 78
-0.11770589 -0.04222963 1.9960728 112
-0.20671941 -0.072970062 1.9983203 86
-0.11759509 -0.043599926 0.52012008 7
-0.66746157 -0.24758589 1.9901476 91
-0.87947392 -0.32639122 2.0026236 18
-1.0994257 -0.40801305 1.9883448 83
-1.3559923 -0.50322276 1.9892817 89
-1.6632667 -0.61758053 2.0016804 83
-1.8408782 -0.68865073 2.0112567 38
-2.2452044 -0.8398999 2.0145898 29
-2.8651018 -1.0712235 2.0900574 14
-3.4538591 -1.291348 2.0159142 59
-1.481506 -0.55391526 0.72735506 32
-6.1658072 -2.3040776 2.0234587 34
-1.6106123 -0.60154539 0.41788918 37
-4.2874765 -1.6004666 0.50299823 48
-2.0329893 -0.75727952 2.0127075 37
-2.4684308 -0.91898775 2.0014381 71
-3.0802102 -1.1473591 2.0163815 64
-3.9140992 -1.4571989 2.0181842 40
-1.5097872 -0.56178766 0.64949745 26
-7.5991726 -2.8261101 2.0461786 10
-1.5270643 -0.56760967 0.31914994 23
-1.5405331 -0.57230997 0.15996908 18
-0.029482767 -0.010400385 1.9891979 67
-0.29411551 -0.10736126 1.9909451 95
-0.36837971 -0.13542974 1.9103992 35
-0.40483141 -0.14913408 1.4255807 40
-0.77090144 -0.28411409 1.9951125 95
-0.98712367 -0.36398718 1.9945602 81
-1.2811432 -0.47239575 2.0780854 27
-1.5087688 -0.55632335 2.0012317 78
-0.11785988 -0.041797936 1.9960728 112
-0.20698547 -0.072211906 1.9983203 80
nan nan nan 0
-0.66836452 -0.24513789 1.9901476 91
-0.87861979 -0.32241541 1.9981228 21
-1.1009136 -0.40398073 1.9883448 77
-1.3606571 -0.49928769 1.9932711 89
-1.665519 -0.61148024 2.0016804 85
-1.8433899 -0.68189895 2.0112567 38
-2.2482679 -0.83166522 2.0145898 29
-2.869009 -1.0607151 2.0900574 14
-3.4627244 -1.2802167 2.0182323 59
-1.4748297 -0.54526633 0.72360903 21
-6.1742105 -2.2814631 2.0234587 36
-1.608198 -0.59393632 0.41695657 37
-4.2933135 -1.5847414 0.50299823 28
-2.0357511 -0.74982309 2.0127075 37
-2.4717824 -0.90993434 2.0014381 71
-3.0843949 -1.1360618 2.0163815 64
-3.9194138 -1.4428432 2.0181842 44
-1.5251322 -0.56114221 0.6544255 33
-7.6140409 -2.7999163 2.0473509 11
-1.5151901 -0.55688387 0.3170805 20
-1.54731 -0.56838244 0.16017061 19
-0.0294757 -0.010288758 1.984198 67
-0.29446992 -0.10638536 1.9909451 95
-0.36882681 -0.1342074 1.9103992 36
-0.40532371 -0.14779082 1.4255807 40
-0.77183938 -0.28155613 1.9951125 95
-0.98832524 -0.36071175 1.9945602 83
-1.2800593 -0.46717995 2.0739524 24
-1.5106052 -0.55131704 2.0012317 78
-0.11799784 -0.041406866 1.9960728 112
-0.2072238 -0.071525127 1.9983203 80
-0.37567776 -0.1362461 1.5750667 16
-0.66917372 -0.24292015 1.9901476 93
-0.87968415 -0.3195 1.9981228 35
-1.1022474 -0.40032774 1.9883448 66
-1.3623053 -0.49477285 1.9932711 89
-1.6675376 -0.60595381 2.0016804 86
-1.8456409 -0.67578226 2.0112567 38
-2.2473578 -0.82286662 2.011452 28
-2.8725107 -1.0511954 2.0900574 15
-3.4669509 -1.2687267 2.0182323 59
nan nan nan 0
-6.1772366 -2.2593284 2.0220494 29
-1.6147726 -0.59028667 0.41788918 33
-4.2985449 -1.5704956 0.50299823 28
-2.0382266 -0.74306828 2.0127075 37
-2.4747863 -0.90173262 2.0014381 71
-3.088145 -1.1258273 2.0163815 64
-3.9241769 -1.4298379 2.0181842 46
-1.5402967 -0.56092948 0.65935355 26
-7.6232839 -2.7746518 2.0473509 11
-1.5309899 -0.55693501 0.31914994 20
-1.5679673 -0.57007653 0.16097674 21
-0.029511437 -0.010185806 1.984198 67
-0.29483947 -0.10535681 1.9909451 95
-0.36929303 -0.13291913 1.9103992 37
-0.40724212 -0.14688171 1.4303524 40
-0.77281743 -0.27886021 1.9951125 95
-0.98957837 -0.35725969 1.9945602 81
-1.2816823 -0.46270889 2.0739524 19
-1.5125206 -0.54604065 2.0012317 76
-0.11814881 -0.040974103 1.9960728 112
-0.20748456 -0.070765138 1.9983203 78
-0.37617463 -0.13486825 1.5750667 16
-0.67005962 -0.24046586 1.9901476 93
-0.88079405 -0.31642741 1.9981228 40
-1.1036381 -0.39647773 1.9883448 50
-1.364024 -0.49001449 1.9932711 87
-1.6697472 -0.59983784 2.0016804 86
-1.8479887 -0.66933572 2.0112567 38
-2.2502165 -0.81501687 2.011452 28
-2.8800943 -1.0425851 2.0927989 15
-3.4713583 -1.2566171 2.0182323 59
-4.4560533 -1.6121924 2.0028906 10
-6.1854758 -2.2366722 2.0220494 29
nan nan nan 0
-4.2946334 -1.5520958 0.50210577 3
-2.040808 -0.73594898 2.0127075 37
-2.4779189 -0.89308852 2.0014381 71
-3.0922508 -1.1145012 2.0163815 64
-3.9293909 -1.4154456 2.0181842 49
-1.5645587 -0.56327856 0.66756696 24
-7.6334023 -2.7466922 2.0473509 11
-1.5423408 -0.55467165 0.32052958 16
-1.5841507 -0.56939542 0.16158132 23
-0.02954681 -0.010082729 1.984198 67
-0.29520547 -0.10432699 1.9909451 95
-0.36975473 -0.13162927 1.9103992 37
-0.40775234 -0.14545928 1.4303524 40
-0.77378619 -0.27616087 1.9951125 95
-0.99081939 -0.35380325 1.9945602 83
-1.2832897 -0.45823216 2.0739524 19
-1.5144174 -0.54075772 2.0012317 78
-0.11829112 -0.040561441 1.9960728 112
-0.20773031 -0.070040442 1.9983203 80
-0.37071553 -0.13145293 1.5508708 18
-0.67089492 -0.23812547 1.9901476 93
-0.88189322 -0.31335092 1.9981228 57
-1.1074727 -0.39349604 1.9926107 39
-1.3657264 -0.48525017 1.9932711 87
-1.671831 -0.5940057 2.0016804 86
-1.8503138 -0.6628809 2.0112567 38
-2.2530477 -0.80715716 2.011452 28
-2.8837159 -1.0325255 2.0927989 16
-3.4715524 -1.2429987 2.0159142 60
-4.4703836 -1.5997519 2.0066366 15
-6.1932459 -2.2150674 2.0220494 35
-9.5836515 -3.4276738 2.0238609 69
nan nan nan 0
-2.0433643 -0.72882074 2.0127075 37
-2.4810214 -0.88443351 2.0014381 71
-3.0961223 -1.1037004 2.0163815 64
-3.9343081 -1.4017209 2.0181842 49
-1.5709641 -0.559398 0.66920966 24
-7.6383648 -2.7184007 2.0461786 11
-1.5535994 -0.55260366 0.32190922 16
nan nan nan 0
-0.029581826 -0.0099795312 1.984198 67
-0.29556784 -0.10329589 1.9909451 95
-0.37021196 -0.13033777 1.9103992 37
-0.4082576 -0.14403509 1.4303524 40
-0.77474546 -0.27345818 1.9951125 95
-0.99430728 -0.35114017 1.9989488 79
-1.2822279 -0.45281282 2.0698195 18
-1.5162958 -0.5354681 2.0012317 74
-0.11843198 -0.040148281 1.9960728 111
-0.20797352 -0.069314905 1.9983203 82
-0.3687982 -0.12932581 1.5411923 23
-0.67172205 -0.23578215 1.9901476 93
-0.88092703 -0.30954871 1.9936218 78
-1.1088395 -0.38962781 1.9926107 37
-1.3674119 -0.48047996 1.9932711 87
-1.6738944 -0.58816636 2.0016804 83
-1.8559779 -0.65760916 2.0147614 38
-2.2558515 -0.79928762 2.011452 28
-2.8873026 -1.0224532 2.0927989 16
-3.4758704 -1.2308732 2.0159142 60
-4.4759407 -1.5841377 2.0066366 18
-6.2009397 -2.1934354 2.0220494 35
-9.5955572 -3.3941998 2.0238609 98
-9.3856478 -3.3181062 0.98490483 28
-2.0458961 -0.72168362 2.0127075 37
-2.4840934 -0.87576771 2.0014381 71
-3.0999563 -1.0928862 2.0163815 64
-3.9348965 -1.3864708 2.0160861 49
-1.5951788 -0.56175399 0.67742306 23
-7.6432219 -2.6901073 2.0450063 11
-1.564862 -0.55046386 0.32328883 18
-4.3594189 -1.5326315 0.28008151 83
-0.029616483 -0.0098762102 1.984198 67
-0.2959266 -0.10226355 1.9909451 95
-0.36970305 -0.12871002 1.905504 37
-0.4087579 -0.14260912 1.4303524 40
-0.77569526 -0.27075213 1.9951125 95
-0.99552691 -0.34766725 1.9989488 67
-1.2838006 -0.44833425 2.0698195 18
-1.5181556 -0.53017193 2.0012317 74
-0.1185714 -0.039734632 1.9960728 111
-0.20872155 -0.068754934 2.0032918 88
-0.37043577 -0.12844968 1.5460315 27
-0.67254102 -0.23343597 1.9901476 93
-0.88200223 -0.30647179 1.9936218 80
-1.1126564 -0.38661087 1.9968767 35
-1.3690807 -0.47570384 1.9932711 87
-1.6759372 -0.58231974 2.0016804 83
-1.8582621 -0.65112656 2.0147614 38
-2.2623017 -0.7926957 2.0145898 29
-2.8908541 -1.0123683 2.0927989 16
-3.4801455 -1.2187326 2.0159142 60
-4.4989457 -1.57463 2.0141287 28
-6.208559 -2.171777 2.0220494 35
-9.5980749 -3.3574409 2.021996 100
-9.397172 -3.2853239 0.98490483 41
-2.0484028 -0.71453774 2.0127075 37
-2.4871352 -0.8670913 2.0014381 71
-3.1037519 -1.0820587 2.0163815 64
-3.939712 -1.372727 2.0160861 53
-1.6194289 -0.56394768 0.68563652 19
-7.647975 -2.6618133 2.043834 12
-1.5761285 -0.54825211 0.32466847 20
-4.3647418 -1.5174048 0.28008151 97
-0.029650776 -0.0097727692 1.984198 66
-0.29628173 -0.10122994 1.9909451 95
-0.37015009 -0.12741873 1.905504 37
-0.40925321 -0.14118141 1.4303524 40
-0.77663565 -0.2680428 1.9951125 95
-0.99673444 -0.34419012 1.9989488 50
-1.2853578 -0.44385022 2.0698195 18
-1.519997 -0.52486938 2.0012317 78
-0.11870938 -0.039320499 1.9960728 111
-0.20896026 -0.068025932 2.0032918 88
-0.37088192 -0.12715584 1.5460315 29
-0.67335171 -0.23108694 1.9901476 93
-0.88306659 -0.30339116 1.9936218 78
-1.1139991 -0.38272464 1.9968767 34
-1.3707328 -0.47092199 1.9932711 87
-1.6779596 -0.57646608 2.0016804 83
-1.8605236 -0.64463609 2.0147614 38
-2.2650547 -0.78479397 2.0145898 29
-2.8943703 -1.0022712 2.0927989 17
-3.4843786 -1.2065773 2.0159142 60
-4.5000339 -1.5574 2.0122557 28
-6.2161016 -2.1500916 2.0220494 35
-9.605094 -3.3223109 2.0210633 100
-9.3991699 -3.2492473 0.98401242 39
-2.0544145 -0.70860064 2.0160325 37
-2.4901466 -0.85840428 2.0014381 71
-3.1075101 -1.071218 2.0163815 64
-3.9444797 -1.3589665 2.0160861 53
nan nan nan 0
-7.6526237 -2.6335189 2.0426617 12
-1.5967643 -0.54918945 0.32742774 22
-4.3652878 -1.5005358 0.27987999 97
-0.029684708 -0.0096692089 1.984198 67
-0.2966333 -0.10019511 1.9909451 95
-0.37059259 -0.12612587 1.905504 37
-0.40974355 -0.139752 1.4303524 40
-0.77756655 -0.2653302 1.9951125 95
-0.99792981 -0.34070873 1.9989488 34
-1.2868992 -0.4393608 2.0698195 18
-1.5218198 -0.51956046 2.0012317 78
-0.11884591 -0.038905881 1.9960728 111
-0.20919645 -0.067296118 2.0032918 88
-0.37132347 -0.12586045 1.5460315 31
-0.67415428 -0.2287351 1.9901476 91
-0.88412029 -0.30030683 1.9936218 78
-1.1153283 -0.37883371 1.9968767 32
-1.3723683 -0.46613434 1.9932711 87
-1.6799617 -0.5706054 2.0016804 85
-1.8627625 -0.63813764 2.0147614 38
-2.2677805 -0.77688265 2.0145898 31
-2.8938951 -0.99080747 2.0900574 18
-3.4843776 -1.1929721 2.0135961 59
-4.5054431 -1.5416825 2.0122557 28
-6.2235689 -2.1283803 2.0220494 36
-9.6026878 -3.283994 2.0182655 99
-9.4010305 -3.2131975 0.98312008 41
-2.0568755 -0.70142508 2.0160325 37
-2.4931281 -0.84970689 2.0014381 71
-3.1112306 -1.0603642 2.0163815 65
-3.9491994 -1.3451893 2.0160861 53
-5.2623205 -1.7914431 2.0227818 39
-7.6525669 -2.6036592 2.0403171 14
-1.6174258 -0.54998958 0.33018699 6
-4.3610382 -1.4820739 0.27947691 77
-0.029719949 -0.0095603447 1.984198 67
-0.29699853 -0.099107213 1.9909451 95
-0.37008724 -0.12444231 1.9006088 37
-0.41025299 -0.13824928 1.4303524 40
-0.77853382 -0.2624785 1.9951125 95
-0.99917185 -0.33704886 1.9989488 19
-1.2858347 -0.43374172 2.0656867 18
-1.5237139 -0.5139792 2.0012317 78
-0.11898771 -0.038470034 1.9960728 111
-0.20944169 -0.066528916 2.0032918 86
-0.3717823 -0.12449862 1.5460315 32
-0.67498815 -0.22626266 1.9901476 91
-0.88526684 -0.29690987 1.9936218 78
-1.1143019 -0.3737191 1.9926107 32
-1.374148 -0.46086141 1.9932711 87
-1.6821402 -0.56415063 2.0016804 83
-1.8650889 -0.63130605 2.0147614 37
-2.2742999 -0.76981366 2.0177276 31
-2.8975072 -0.98019403 2.0900574 17
-3.4887269 -1.1801931 2.0135961 59
-4.5110631 -1.5251589 2.0122557 32
-6.231328 -2.1055555 2.0220494 35
-9.6059189 -3.2439547 2.0164001 98
-9.403861 -3.1738908 0.98222762 43
-2.0595536 -0.69352216 2.0160325 36
-2.4963722 -0.84012765 2.0014381 69
-3.1152792 -1.0484101 2.0163815 64
-3.9543355 -1.3300157 2.0160861 55
-5.2646842 -1.7697195 2.0211391 41
-7.6532931 -2.5711608 2.0379725 14
-9.8674078 -3.3150027 1.5421933 36
-4.3759136 -1.4692605 0.27987999 20
-0.029751487 -0.0094617363 1.984198 67
-0.29732558 -0.0981218 1.9909451 93
-0.37049785 -0.12321437 1.9006088 37
-0.4107092 -0.13688807 1.4303524 40
-0.77939993 -0.25989535 1.9951125 95
-1.0002841 -0.33373365 1.9989488 19
-1.2845964 -0.42858472 2.0615535 18
-1.5254101 -0.50892353 2.0012317 76
-0.11910798 -0.038096029 1.9960728 111
-0.20964967 -0.065870605 2.0032918 86
-0.37097761 -0.12293446 1.5411923 32
-0.6756956 -0.224141 1.9901476 91
-0.88619524 -0.29412726 1.9936218 80
-1.1154705 -0.37021658 1.9926107 30
-1.375589 -0.45654216 1.9932711 87
-1.6838067 -0.55915719 2.0016804 81
-1.8637903 -0.62398553 2.0112567 38
-2.2768402 -0.76226759 2.0177276 32
-2.8967764 -0.96925354 2.087316 16
-3.4926212 -1.1686177 2.0135961 58
-4.5114355 -1.5095084 2.0103827 34
-6.2379122 -2.085969 2.0220494 35
-9.6020861 -3.2090898 2.0136023 99
-9.4043388 -3.1411767 0.98133516 41
-2.0581796 -0.68586791 2.0127075 36
-2.4989994 -0.83228093 2.0014381 71
-3.118376 -1.0391624 2.0163815 65
-3.9582644 -1.318277 2.0160861 55
-5.2743926 -1.7555826 2.0227818 42
-7.6562753 -2.5469072 2.0368001 14
-9.8636761 -3.2792997 1.5401238 82
-4.2856855 -1.4239997 0.27584937 8
-0.029784333 -0.0093578268 1.984198 67
-0.29766625 -0.09708333 1.9909451 95
-0.3699584 -0.12160249 1.8957136 37
-0.41118452 -0.13545358 1.4303524 40
-0.78030241 -0.25717318 1.9951125 95
-1.0014429 -0.33023998 1.9989488 21
-1.2834123 -0.42321682 2.0574207 18
-1.5271772 -0.50359577 2.0012317 76
-0.11924681 -0.037659224 1.9960728 111
-0.20988968 -0.065101758 2.0032918 88
-0.37142569 -0.12157393 1.5411923 33
-0.6765126 -0.22166295 1.9901476 91
-0.88721651 -0.29103208 1.9936218 80
-1.1142781 -0.36550778 1.9883448 29
-1.3771744 -0.45173767 1.9932711 87
-1.6858448 -0.55298197 2.0016804 78
-1.865957 -0.61747587 2.0112567 38
-2.2794869 -0.75431526 2.0177276 33
-2.9001422 -0.95913595 2.087316 16
-3.4966791 -1.1564192 2.0135961 58
-4.5125365 -1.491508 2.0085096 35
-6.2409606 -2.0615873 2.0206404 34
-9.6039 -3.1724713 2.0117371 99
-9.4010601 -3.103647 0.97999662 40
-2.0605609 -0.67867929 2.0127075 37
-2.5018892 -0.82355279 2.0014381 69
-3.1221638 -1.0277259 2.0163815 64
-3.9630694 -1.3037604 2.0160861 53
-5.2763057 -1.7347641 2.0211391 44
-7.6609411 -2.5173111 2.0356278 14
-9.8568096 -3.2369449 1.5373646 85
-4.1864467 -1.3740079 0.27141568 3
-0.029816817 -0.0092538036 1.984198 67
-0.29800335 -0.096043691 1.9909451 93
-0.37038058 -0.12031036 1.8957136 37
-0.41165483 -0.13401745 1.4303524 40
-0.78119534 -0.25444782 1.9951125 95
-1.0025896 -0.32674226 1.9989488 23
-1.2848817 -0.41873428 2.0574207 21
-1.5289258 -0.49826181 2.0012317 78
-0.11910097 -0.037156973 1.9910811 111
-0.21011567 -0.06436871 2.0032918 89
-0.37065101 -0.11988966 1.5363531 34
-0.67728221 -0.21930015 1.9901476 91
-0.88615549 -0.28726184 1.9891212 80
-1.1155472 -0.36161599 1.9883448 29
-1.3787428 -0.44692767 1.9932711 87
-1.6877648 -0.54709387 2.0016804 78
-1.868101 -0.61095876 2.0112567 38
-2.2821064 -0.74635381 2.0177276 34
-2.8994977 -0.94770753 2.0845745 15
-3.5006943 -1.1442063 2.0135961 60
-4.517715 -1.4757471 2.0085096 36
-6.2481194 -2.0397894 2.0206404 34
-9.6055765 -3.1358788 2.0098717 99
-9.4023676 -3.0677228 0.97910416 42
-2.0629177 -0.67148244 2.0127075 37
-2.5047488 -0.81481457 2.0014381 71
-3.1257322 -1.0168214 2.0163815 64
-3.9675963 -1.2899187 2.0160861 52
-5.2823286 -1.7163358 2.0211391 40
-7.6696815 -2.4905541 2.0356278 15
-9.8539171 -3.197933 1.5352951 80
-4.1104293 -1.3331834 0.26798967 3
-0.029848939 -0.0091496669 1.984198 67
-0.29833677 -0.095002882 1.9909451 93
-0.36982879 -0.11870566 1.8908184 37
-0.41212016 -0.13257971 1.4303524 39
-0.7820788 -0.25171942 1.9951125 95
-1.003724 -0.32324055 1.9989488 34
-1.283657 -0.41338405 2.0532877 21
-1.5306556 -0.49292183 2.0012317 78
-0.11922994 -0.036741011 1.9910811 111
-0.21033907 -0.063634887 2.0032918 89
-0.37106726 -0.11859512 1.5363531 34
-0.6780436 -0.21693465 1.9901476 91
-0.88715285 -0.28416681 1.9891212 81
-1.1168027 -0.35771981 1.9883448 29
-1.3802944 -0.44211224 1.9932711 87
-1.6896642 -0.54119915 2.0016804 74
-1.8702222 -0.60443407 2.0112567 38
-2.2809937 -0.73718607 2.0145898 35
-2.9027884 -0.9375807 2.0845745 15
-3.5046673 -1.1319797 2.0135961 60
-4.5184274 -1.4585445 2.0066366 37
-6.2552013 -2.017967 2.0206404 34
-9.6071148 -3.0993137 2.0080066 99
-9.3987989 -3.0302992 0.9777655 43
-2.065249 -0.66427743 2.0127075 37
-2.5075777 -0.80606633 2.0014381 71
-3.1292627 -1.0059043 2.0163815 64
-3.9677539 -1.2746732 2.013988 52
-5.2882881 -1.6978865 2.0211391 36
-7.6736999 -2.4622817 2.0344553 16
-9.855588 -3.1604922 1.5339155 80
-4.3386641 -1.3904902 0.27746162 5
-0.029922627 -0.0090574753 1.9891979 69
-0.29866657 -0.093960911 1.9909451 93
-0.37024093 -0.11741401 1.8908184 37
-0.41258043 -0.13114034 1.4303524 39
-0.78295273 -0.24898788 1.9951125 95
-1.0048462 -0.31973493 1.9989488 39
-1.2850921 -0.40890074 2.0532877 22
-1.532367 -0.48757586 2.0012317 78
-0.11935747 -0.036324594 1.9910811 111
-0.21055992 -0.062900275 2.0032918 89
-0.37027949 -0.11692046 1.5315139 35
-0.67879665 -0.21456651 1.9901476 91
-0.88813931 -0.28106838 1.9891212 83
-1.1205308 -0.35460612 1.9926107 29
-1.3818293 -0.43729141 1.9932711 87
-1.6915431 -0.53529781 2.0016804 69
-1.8723209 -0.59790218 2.0112567 38
-2.2835531 -0.72921944 2.0145898 37
-2.90206 -0.92617112 2.0818331 17
-3.5085971 -1.1197392 2.0135961 50
-4.5234914 -1.4427633 2.0066366 39
-6.262207 -1.9961201 2.0206404 34
-9.6085138 -3.0627763 2.0061414 99
-9.3998289 -2.9944491 0.97687304 43
-2.0675552 -0.65706438 2.0127075 37
-2.5103762 -0.79730839 2.0014381 71
-3.1327548 -0.99497503 2.0163815 65
-3.9721792 -1.2608154 2.013988 50
-5.2941818 -1.6794167 2.0211391 11
-7.6776147 -2.4340115 2.033283 16
-9.8571186 -3.1230793 1.5325359 82
-4.4054084 -1.3949426 0.28008151 3
-0.029954065 -0.0089529697 1.9891979 69
-0.29899275 -0.0929178 1.9909451 95
-0.3706485 -0.1161209 1.8908184 37
-0.41303566 -0.12969936 1.4303524 40
-0.78381705 -0.24625336 1.9951125 93
-1.0059562 -0.31622544 1.9989488 58
-1.2865117 -0.40441248 2.0532877 18
-1.5340595 -0.48222393 2.0012317 78
-0.11948354 -0.035907734 1.9910811 110
-0.21077821 -0.062164903 2.0032918 88
-0.37068534 -0.11562724 1.5315139 35
-0.67954153 -0.21219575 1.9901476 91
-0.88911504 -0.27796647 1.9891212 83
-1.1217618 -0.35069254 1.9926107 28
-1.3833473 -0.43246526 1.9932711 87
-1.6934012 -0.52938992 2.0016804 62
-1.8743964 -0.59136277 2.0112567 38
-2.282372 -0.72007263 2.011452 39
-2.9052753 -0.91603535 2.0818331 17
-3.5124843 -1.1074849 2.0135961 50
-4.5240779 -1.4255713 2.0047636 39
-6.2691369 -1.9742488 2.0206404 32
-9.6097746 -3.0262663 2.004276 99
-9.4007235 -2.9586296 0.9759807 43
-2.0698361 -0.64984328 2.0127075 37
-2.513144 -0.78854066 2.0014381 71
-3.1362088 -0.98403352 2.0163815 65
-3.9765561 -1.2469423 2.013988 51
-5.3000126 -1.6609262 2.0211391 11
-7.6814251 -2.4057436 2.0321107 17
-9.8585081 -3.0856938 1.5311563 82
nan nan nan 0
-0.029985134 -0.0088483561 1.9891979 69
-0.29931524 -0.091873556 1.9909451 95
-0.37007883 -0.11452547 1.8859231 37
-0.41348588 -0.12825681 1.4303524 40
-0.7846719 -0.24351583 1.9951125 93
-1.007054 -0.31271207 1.9989488 75
-1.2879156 -0.39991924 2.0532877 18
-1.5357336 -0.47686613 2.0012317 78
-0.11960815 -0.035490442 1.9910811 109
-0.2109939 -0.06142877 2.0032918 86
-0.36988464 -0.11396233 1.5266747 35
-0.68027812 -0.20982243 1.9901476 89
-0.89007992 -0.27486119 1.9891212 88
-1.1254711 -0.34754419 1.9968767 28
-1.3819686 -0.42674458 1.9892817 84
-1.6952389 -0.52347565 2.0016804 55
-1.8764493 -0.58481634 2.0112567 38
-2.2811549 -0.71094298 2.0083144 40
-2.9084554 -0.9058885 2.0818331 18
-3.5163291 -1.0952173 2.0135961 58
-4.529027 -1.4097706 2.0047636 37
-6.2759895 -1.9523534 2.0206404 32
-9.610899 -2.9897854 2.0024109 98
-9.4014826 -2.9228399 0.97508824 43
-2.0720918 -0.64261425 2.0127075 37
-2.5158811 -0.77976334 2.0014381 71
-3.1396246 -0.9730801 2.0163815 65
-3.9808843 -1.2330539 2.013988 52
-5.3057775 -1.6424158 2.0211391 27
-7.6851339 -2.3774796 2.0309386 16
-9.8597574 -3.0483367 1.5297767 83
nan nan nan 0
-0.029973779 -0.008732019 1.984198 69
-0.29963416 -0.090828195 1.9909451 95
-0.37047637 -0.11323295 1.8859231 37
-0.41393107 -0.1268127 1.4303524 40
-0.7855171 -0.24077533 1.9951125 95
-1.0081393 -0.30919489 1.9989488 81
-1.2893035 -0.39542115 2.0532877 17
-1.5373887 -0.47150251 2.0012317 78
-0.11973131 -0.035072714 1.9910811 109
-0.21120703 -0.060691886 2.0032918 86
-0.37028015 -0.1126705 1.5266747 36
-0.68100637 -0.20744652 1.9901476 91
-0.89311689 -0.27238777 1.9936218 90
-1.1266775 -0.34361345 1.9968767 27
-1.3834499 -0.42191803 1.9892817 84
-1.6970558 -0.51755494 2.0016804 43
-1.8818877 -0.57931203 2.0147614 38
-2.279902 -0.70183057 2.0051763 48
-2.907603 -0.89450103 2.0790915 18
-3.5201306 -1.0829364 2.0135961 58
-4.5339198 -1.393953 2.0047636 37
-6.2827668 -1.9304342 2.0206404 33
-9.611886 -2.9533331 2.0005455 98
-9.4021063 -2.8870811 0.97419584 45
-2.0743225 -0.63537741 2.0127075 36
-2.5185878 -0.77097654 2.0014381 71
-3.143002 -0.96211487 2.0163815 65
-3.9851642 -1.2191505 2.013988 51
-5.3114786 -1.623885 2.0211391 40
-7.6887379 -2.3492188 2.0297663 16
-9.8608637 -3.0110087 1.528397 84
-4.4245524 -1.3501917 0.28028303 3
-0.030004077 -0.0086273374 1.984198 67
-0.29994938 -0.089781724 1.9909451 95
-0.36989456 -0.11164493 1.8810278 37
-0.41437119 -0.12536703 1.4303524 40
-0.78635275 -0.23803189 1.9951125 95
-1.0092125 -0.30567396 1.9989488 83
-1.2879829 -0.39010254 2.0491548 17
-1.5390252 -0.46613315 2.0012317 78
-0.119853 -0.034654561 1.9910811 109
-0.21141762 -0.059954271 2.0032918 86
-0.37067121 -0.1113773 1.5266747 36
-0.68172634 -0.20506811 1.9901476 91
-0.89406228 -0.26926854 1.9936218 90
-1.1303672 -0.34043059 2.0011425 27
-1.3849142 -0.41708633 1.9892817 87
-1.7020983 -0.51260561 2.0053556 38
-1.8838984 -0.57273948 2.0147614 38
-2.2786138 -0.69273579 2.0020387 56
-2.9107077 -0.88434613 2.0790915 19
-3.5238893 -1.0706424 2.0135961 61
-4.5387583 -1.3781179 2.0047636 39
-6.2894669 -1.9084916 2.0206404 33
-9.6127348 -2.9169111 1.9986804 99
-9.407361 -2.8527989 0.97374958 45
-2.0801017 -0.62921387 2.0160325 36
-2.5212636 -0.76218033 2.0014381 69
-3.1463413 -0.9511379 2.0163815 65
-3.9850509 -1.2039196 2.0118899 51
-5.3171148 -1.6053346 2.0211391 40
-7.6922379 -2.3209617 2.028594 17
-9.8618326 -2.9737103 1.5270175 81
nan nan nan 0
-0.030034008 -0.0085225506 1.984198 67
-0.30026093 -0.08873415 1.9909451 93
-0.37028202 -0.11035308 1.8810278 37
-0.41480631 -0.12391983 1.4303524 40
-0.78717887 -0.23528558 1.9951125 95
-1.0102733 -0.3021493 1.9989488 83
-1.2893368 -0.38560429 2.0491548 17
-1.5406431 -0.46075815 2.0012317 76
-0.11997324 -0.034235984 1.9910811 109
-0.21162561 -0.059215914 2.0032918 86
-0.37105772 -0.11008273 1.5266747 36
-0.68243802 -0.2026872 1.9901476 91
-0.89499676 -0.26614606 1.9936218 92
-1.1315485 -0.33648279 2.0011425 27
-1.3863616 -0.41224954 1.9892817 84
-1.7038772 -0.506661 2.0053556 36
-1.8858862 -0.5661599 2.0147614 38
-2.281018 -0.68477768 2.0020387 56
-2.9097719 -0.87297893 2.07635 19
-3.5233614 -1.0570619 2.0112782 60
-4.5435414 -1.3622664 2.0047636 39
-6.2960906 -1.8865255 2.0206404 34
-9.6134472 -2.8805184 1.9968151 99
-9.4077215 -2.8170865 0.97285718 45
-2.0822856 -0.62194908 2.0160325 36
-2.5239086 -0.75337481 2.0014381 71
-3.1496422 -0.94014937 2.0163815 64
-3.9892292 -1.190002 2.0118899 52
-5.3272119 -1.5881139 2.0227818 39
-7.7002926 -2.2940967 2.028594 18
-9.8626614 -2.9364419 1.5256377 81
-3.9502366 -1.175368 0.25992844 5
-0.030063573 -0.0084176613 1.984198 67
-0.30056885 -0.087685511 1.9909451 93
-0.37066498 -0.10905989 1.8810278 37
-0.41523632 -0.12247113 1.4303524 40
-0.7879954 -0.23253638 1.9951125 95
-1.0113219 -0.29862094 1.9989488 83
-1.2879761 -0.38030443 2.0450218 17
-1.5422421 -0.45537746 2.0012317 76
-0.12009202 -0.033816993 1.9910811 109
-0.21183102 -0.058476843 2.0032918 84
-0.37023261 -0.10843338 1.5218356 35
-0.68314135 -0.20030381 1.9901476 89
-0.89592028 -0.26302034 1.9936218 90
-1.1352187 -0.33326551 2.0054085 28
-1.3906842 -0.40825668 1.9932711 84
-1.7056354 -0.50071031 2.0053556 34
-1.887851 -0.55957359 2.0147614 38
-2.2796619 -0.67570496 1.9989008 58
-2.908792 -0.86162907 2.0736086 19
-3.5270295 -1.0447568 2.0112782 58
-4.5438232 -1.3450822 2.0028906 40
-6.3026371 -1.8645365 2.0206404 32
-9.6140223 -2.8441567 1.9949498 100
-9.4127216 -2.7828186 0.97241104 45
-2.0844438 -0.61467677 2.0160325 37
-2.5265231 -0.74456012 2.0014381 71
-3.1529047 -0.92914933 2.0163815 65
-3.9933586 -1.1760697 2.0118899 53
-5.3327227 -1.5695087 2.0227818 39
-7.7035899 -2.2658322 2.0274215 18
-9.863348 -2.8992038 1.5242581 82
-3.9495215 -1.1601636 0.25972688 4
-0.030091323 -0.0083179194 1.984198 67
-0.30085796 -0.08668831 1.9909451 95
-0.37004676 -0.10754603 1.8761326 37
-0.41564021 -0.12109348 1.4303524 40
-0.78876215 -0.22992201 1.9951125 95
-1.0123066 -0.29526561 1.9989488 81
-1.2865287 -0.37524331 2.040889 18
-1.5437436 -0.4502607 2.0012317 74
-0.12019766 -0.033439547 1.9910811 109
-0.21201368 -0.057811074 2.0032918 84
-0.37057143 -0.10726973 1.5218356 36
-0.68210971 -0.19767636 1.9854547 85
-0.89678758 -0.26004788 1.9936218 93
-1.1413274 -0.33095175 2.0139403 28
-1.3920304 -0.40364271 1.9932711 87
-1.7071999 -0.49534944 2.0053556 33
-1.8862736 -0.55230796 2.0112567 38
-2.2818902 -0.66814154 1.9989008 58
-2.9076202 -0.85080415 2.0708671 19
-3.5304749 -1.0330549 2.0112782 58
-4.5480261 -1.3308008 2.0028906 40
-6.3084636 -1.844727 2.0206404 33
-9.6139717 -2.8095038 1.9930845 97
-9.4123373 -2.7487977 0.97151858 45
-2.0864708 -0.60776114 2.0160325 37
-2.5289783 -0.7361778 2.0014381 71
-3.1558084 -0.91923958 2.0163815 64
-3.9970336 -1.1635184 2.0118899 53
-5.3376269 -1.5527476 2.0227818 40
-7.7060022 -2.2402625 2.0262492 19
-9.867651 -2.8668211 1.5235683 82
-3.9531469 -1.14775 0.25972688 3
-0.030120173 -0.0082128309 1.984198 67
-0.30115873 -0.085637584 1.9909451 95
-0.37041995 -0.10625368 1.8761326 37
-0.41606033 -0.1196419 1.4303524 40
-0.78955996 -0.22716731 1.9951125 95
-1.0133311 -0.29173023 1.9989488 81
-1.2851263 -0.36997175 2.0367558 18
-1.5453058 -0.44486931 2.0012317 73
-0.12031942 -0.032998778 1.9910811 108
-0.21222414 -0.057033617 2.0032918 86
-0.37096211 -0.1059108 1.5218356 36
-0.68282962 -0.19517498 1.9854547 85
-0.89768982 -0.2569159 1.9936218 92
-1.1474904 -0.32840085 2.0224724 29
-1.3934309 -0.39878118 1.9932711 89
-1.7122636 -0.49002168 2.0090308 32
-1.88819 -0.54572028 2.0112567 38
-2.2804687 -0.65909141 1.9957631 58
-2.9065549 -0.8394891 2.0681257 20
-3.5340593 -1.020725 2.0112782 58
-4.5528736 -1.3141224 2.0028906 40
-6.3151827 -1.8215929 2.0206404 33
-9.6190004 -2.7745667 1.9921521 97
-9.4123039 -2.7131665 0.97062618 44
-2.0885794 -0.60047436 2.0160325 36
-2.5315325 -0.72734553 2.0014381 71
-3.1591563 -0.9076668 2.0163815 64
-4.0012712 -1.1488607 2.0118899 53
-5.3387427 -1.5318713 2.0211391 40
-7.7141619 -2.2120037 2.0262492 20
-9.8685713 -2.8279064 1.5221887 82
-3.9285095 -1.125001 0.25851768 5
-0.030148659 -0.0081076417 1.984198 67
-0.30145586 -0.084585823 1.9909451 95
-0.3707886 -0.10496002 1.8761326 37
-0.41647542 -0.11818884 1.4303524 40
-0.79034805 -0.22440983 1.9951125 93
-1.0143433 -0.28819126 1.9989488 81
-1.2837032 -0.36471453 2.0326231 18
-1.5468494 -0.43947247 2.0012317 78
-0.12043387 -0.03257858 1.9910811 108
-0.21242192 -0.056292467 2.0032918 88
-0.37132955 -0.10461526 1.5218356 35
-0.68350679 -0.19279027 1.9854547 83
-0.89858115 -0.25378084 1.9936218 93
-1.1536494 -0.32581103 2.0310042 29
-1.3948144 -0.39391479 1.9932711 87
-1.7139635 -0.48404181 2.0090308 31
-1.8900834 -0.53912592 2.0112567 38
-2.2827556 -0.6511271 1.9957631 56
-2.9054468 -0.82819206 2.0653841 20
-3.5376008 -1.0083826 2.0112782 60
-4.5574331 -1.2982218 2.0028906 39
-6.3261161 -1.8008512 2.0220494 33
-9.6191778 -2.7382834 1.9902868 98
-9.4169273 -2.6789322 0.97017992 43
-2.0906627 -0.59318012 2.0160325 37
-2.5340562 -0.71850443 2.0014381 71
-3.1581578 -0.89545774 2.0138493 65
-4.0052571 -1.1348867 2.0118899 53
-5.3440576 -1.5132264 2.0211391 40
-7.7171588 -2.1837389 2.0250769 21
-9.8688526 -2.7907469 1.5208091 81
-3.9324124 -1.111281 0.25851768 5
-0.030176777 -0.0080023538 1.984198 67
-0.30174926 -0.083533026 1.9909451 95
-0.37017199 -0.10339127 1.8712374 37
-0.41688544 -0.11673436 1.4303524 40
-0.79112661 -0.22164965 1.9951125 93
-1.015343 -0.28464878 1.9989488 83
-1.2822589 -0.35947177 2.0284901 18
-1.5483739 -0.43407026 2.0012317 78
-0.12054686 -0.032157991 1.9910811 107
-0.21261714 -0.055550631 2.0032918 89
-0.37048054 -0.10298166 1.5169963 36
-0.68417555 -0.19040319 1.9854547 81
-0.89946157 -0.25064266 1.9936218 93
-1.1623166 -0.32388213 2.0438018 31
-1.3961809 -0.3890436 1.9932711 87
-1.7156427 -0.47805598 2.0090308 31
-1.8919538 -0.53252512 2.0112567 37
-2.2850144 -0.64315486 1.9957631 46
-2.9042943 -0.81691289 2.0626428 21
-3.5410991 -0.99602789 2.0112782 61
-4.5619369 -1.2823055 2.0028906 39
-6.3323641 -1.7787579 2.0220494 34
-9.6192179 -2.7020321 1.9884216 99
-9.4166317 -2.6433527 0.96928751 23
-2.0927207 -0.58587879 2.0160325 36
-2.5365489 -0.70965451 2.0014381 69
-3.1612644 -0.88442832 2.0138493 65
-4.0091944 -1.1208988 2.0118899 53
-5.3493071 -1.4945627 2.0211391 41
-7.7200532 -2.1554809 2.0239046 22
-9.873764 -2.75495 1.5201193 81
-3.9314554 -1.0962058 0.25831616 5
-0.030204525 -0.0078969691 1.984198 67
-0.302039 -0.082479216 1.9909451 93
-0.37053069 -0.10209851 1.8712374 37
-0.41729039 -0.11527845 1.4303524 40
-0.79189545 -0.21888675 1.9951125 93
-1.0163304 -0.28110284 1.9989488 83
-1.2807935 -0.35424349 2.0243571 19
-1.5498797 -0.42866275 2.0012317 78
-0.12065838 -0.031737007 1.9910811 107
-0.21280976 -0.054808121 2.0032918 89
-0.37083778 -0.10168781 1.5169963 35
-0.68483603 -0.18801384 1.9854547 81
-0.90033102 -0.24750142 1.9936218 92
-1.1709844 -0.32189667 2.0565999 32
-1.3975304 -0.38416761 1.9932711 87
-1.717301 -0.47206435 2.0090308 30
-1.8938011 -0.52591765 2.0112567 37
-2.2872458 -0.63517469 1.9957631 40
-2.9030991 -0.8056519 2.0599012 22
-3.5445542 -0.98366106 2.0112782 61
-4.5663853 -1.2663736 2.0028906 39
-6.3385348 -1.7566429 2.0220494 34
-9.6191244 -2.6658146 1.9865562 98
-9.4162035 -2.6078084 0.96839511 17
-2.094753 -0.57857025 2.0160325 36
-2.5390103 -0.70079601 2.0014381 71
-3.1643322 -0.87338805 2.0138493 65
-4.0130825 -1.1068974 2.0118899 54
-5.3544917 -1.4758813 2.0211391 42
-7.72753 -2.1285195 2.0239046 23
-9.8737707 -2.7178392 1.5187396 82
-3.9352579 -1.0824758 0.25831616 5
-0.030231908 -0.0077914875 1.984198 69
-0.30232507 -0.0814244 1.9909451 91
-0.37088481 -0.10080449 1.8712374 37
-0.41769025 -0.11382113 1.4303524 40
-0.79265475 -0.21612118 1.9951125 95
-1.0173055 -0.27755344 1.9989488 83
-1.2820224 -0.34977055 2.0243571 20
-1.5513666 -0.42325008 2.0012317 78
-0.12076843 -0.031315636 1.9910811 107
-0.21299976 -0.054064941 2.0032918 88
-0.37119046 -0.10039272 1.5169963 36
-0.68548816 -0.18562216 1.9854547 75
-0.90118945 -0.24435717 1.9936218 92
-1.1796523 -0.31985465 2.0693977 33
-1.398863 -0.37928697 1.9932711 84
-1.7189384 -0.46606699 2.0090308 31
-1.8956255 -0.51930386 2.0112567 38
-2.2932031 -0.62821531 1.9989008 37
-2.901861 -0.79440922 2.0571599 22
-3.5479665 -0.9712823 2.0112782 61
-4.5707779 -1.2504262 2.0028906 39
-6.3446274 -1.7345066 2.0220494 30
-9.6188946 -2.6296308 1.9846911 98
-9.4156408 -2.5722988 0.96750271 47
-2.0967598 -0.57125467 2.0160325 37
-2.5414412 -0.69192886 2.0014381 69
-3.1673615 -0.86233711 2.0138493 65
-4.016922 -1.0928823 2.0118899 54
-5.3550539 -1.4559425 2.0194964 41
-7.7302222 -2.1002581 2.0227323 25
-9.8736382 -2.6807611 1.51736 82
-3.9390125 -1.0687326 0.25831616 6
-0.03025892 -0.0076859109 1.984198 67
-0.30260745 -0.080368593 1.9909451 93
-0.37123439 -0.099509247 1.8712374 36
-0.41808501 -0.11236241 1.4303524 40
-0.79340428 -0.21335299 1.9951125 93
-1.0182681 -0.2740007 1.9989488 81
-1.2805181 -0.34456214 2.0202241 22
-1.5528345 -0.41783223 2.0012317 78
-0.12087701 -0.030893888 1.9910811 107
-0.2131872 -0.053321101 2.0032918 88
-0.37153864 -0.099096417 1.5169963 36
-0.68613189 -0.18322822 1.9854547 71
-0.90203691 -0.24120997 1.9936218 92
-1.1858008 -0.31708241 2.0779295 33
-1.4001782 -0.37440175 1.9932711 87
-1.7205547 -0.46006396 2.0090308 33
-1.8974266 -0.51268375 2.0112567 38
-2.295382 -0.62020677 1.9989008 37
-2.900579 -0.78318495 2.0544183 22
