# .PCD v0.7 - Point Cloud Data file format
VERSION 0.7
FIELDS x y z intensity
SIZE 4 4 4 4
TYPE F F F F
COUNT 1 1 1 1
WIDTH 1377
HEIGHT 1
VIEWPOINT 0 0 0 1 0 0 0
POINTS 1377
DATA ascii
3.0634227 -1.0131274 1.9809276 68
3.8875413 -1.2864313 1.9804192 53
5.1426525 -1.7027586 1.9735013 40
2.966944 -0.98294383 0.84455311 21
6.0684147 -2.0116343 0.98275274 84
6.083612 -2.0178509 0.35222957 83
0.029510211 -0.01032226 1.9891979 82
0.29664606 -0.10015736 1.9909451 99
0.40787005 -0.13667096 2.0915227 75
0.57488739 -0.19221865 1.9838723 78
0.77737677 -0.25978595 1.99051 91
0.99335879 -0.33178139 1.9857829 81
1.23641 -0.41296643 1.9871606 80
1.5221964 -0.50842559 1.9973947 45
0.11728102 -0.040824905 1.9810979 89
0.20615909 -0.072953172 1.993349 93
0.48127896 -0.16193841 1.9912384 82
0.67316777 -0.22626272 1.9854547 89
0.88517302 -0.29718956 1.9936218 33
1.1067625 -0.37159321 1.979813 87
1.365422 -0.45844349 1.9813027 84
1.7140864 -0.57551384 2.0384321 42
1.8818002 -0.62634826 2.0287795 40
2.2338469 -0.74352962 1.9800742 67
2.7394423 -0.91234791 1.9776572 69
3.4312029 -1.1427369 1.9788257 52
4.4121213 -1.4702809 1.9673029 48
5.8574495 -1.9530541 1.9036771 99
6.0813394 -2.0277059 1.3085414 36
6.0749631 -2.0267584 0.66675723 81
2.1070454 -0.70459312 2.0592554 27
2.4671731 -0.82549912 1.9778926 69
3.0598676 -1.0238146 1.9809276 68
3.8830268 -1.2999935 1.9804192 51
5.1366773 -1.7206994 1.9735013 40
2.9681036 -0.99483925 0.84572548 21
6.0707455 -2.035954 0.98413235 31
6.0812678 -2.0406637 0.35243109 82
0.029475819 -0.010420062 1.9891979 82
0.29631227 -0.10114053 1.9909451 98
0.40741459 -0.13802275 2.0915227 73
0.57424676 -0.19412401 1.9838723 86
0.77651101 -0.26236239 1.99051 91
0.99225312 -0.33507368 1.9857829 81
1.2350338 -0.41706422 1.9871606 82
1.5174646 -0.51244479 1.9935577 47
0.11715218 -0.041193154 1.9810979 89
0.20592888 -0.073600478 1.993349 93
0.48076782 -0.16344962 1.9912384 82
0.67245358 -0.2283764 1.9854547 89
0.88418257 -0.30012324 1.9936218 38
1.1055242 -0.37526131 1.979813 87
1.3638942 -0.46296886 1.9813027 84
1.7090595 -0.57980675 2.0347569 39
1.8898525 -0.63599747 2.0392931 58
2.231369 -0.75093317 1.9800742 67
2.7364018 -0.92142725 1.9776572 69
3.4273944 -1.154109 1.9788257 52
4.4030871 -1.4826553 1.9654298 48
5.8558307 -1.9729779 1.9050862 98
6.0885458 -2.0525689 1.3113393 73
6.072928 -2.0484843 0.66720349 6
2.1046972 -0.71157652 2.0592554 30
2.4682508 -0.83497125 1.9808358 69
3.0566361 -1.0334225 1.9809276 66
3.8789241 -1.312186 1.9804192 52
5.1312461 -1.7368283 1.9735013 42
2.9557559 -1.0010406 0.84338087 25
6.0690103 -2.0566051 0.98482215 26
6.08429 -2.0629673 0.35283417 81
0.029439267 -0.010522888 1.9891979 80
0.29595745 -0.10217423 1.9909451 97
0.40693033 -0.13944404 2.0915227 73
0.57497889 -0.19661063 1.9886441 86
0.77559048 -0.2650713 1.99051 90
0.99107742 -0.33853525 1.9857829 83
1.2335705 -0.42137277 1.9871606 82
1.5156666 -0.51773858 1.9935577 47
0.11700042 -0.041622262 1.9810979 88
0.20565775 -0.074354745 1.993349 93
0.48016554 -0.1652106 1.9912384 84
0.67161202 -0.23083955 1.9854547 89
0.88107002 -0.30250064 1.9891212 55
1.1042075 -0.37911803 1.979813 85
1.3622699 -0.46772695 1.9813027 84
1.7037166 -0.584966 2.0310817 39
1.8977491 -0.64603829 2.0498068 71
2.2287343 -0.75871754 1.9800742 67
2.7331686 -0.93097341 1.9776572 71
3.4233451 -1.1660657 1.9788257 61
4.3976231 -1.4987833 1.9654298 47
5.8531008 -1.9959756 1.9064953 97
6.0859938 -2.0753951 1.3122718 73
6.0704536 -2.0712783 0.66764963 6
2.1057341 -0.7201274 2.0625803 33
2.4653213 -0.84358197 1.9808358 71
3.0528278 -1.0446186 1.9809276 66
3.8740885 -1.3263942 1.9804192 52
5.124846 -1.7556236 1.9735013 42
2.9520674 -1.0118672 0.84338087 32
6.0661159 -2.0804422 0.98551202 26
6.0814137 -2.086875 0.35303569 81
0.029402357 -0.010625586 1.9891979 80
0.29559898 -0.10320669 1.9909451 97
0.40644109 -0.14086366 2.0915227 73
0.57428914 -0.19861646 1.9886441 84
0.77466041 -0.26777703 1.99051 90
0.98988962 -0.34199268 1.9857829 83
1.232092 -0.42567617 1.9871606 80
1.5138501 -0.52302611 1.9935577 50
0.11685441 -0.042030416 1.9810979 88
0.20539694 -0.075072177 1.993349 91
0.47958592 -0.1668857 1.9912384 86
0.67080218 -0.23318249 1.9854547 89
0.8800087 -0.30557427 1.9891212 74
1.1028775 -0.38297012 1.979813 87
1.360629 -0.47247928 1.9813027 84
1.6952592 -0.58868521 2.0237315 39
1.9190861 -0.66078621 2.0743387 79
2.2260721 -0.76649266 1.9800742 67
2.7299025 -0.94050825 1.9776572 71
3.4192538 -1.1780083 1.9788257 61
4.3923645 -1.5141248 1.9654298 47
5.8551679 -2.0195231 1.9093138 97
6.0787125 -2.0966268 1.3122718 72
6.0726018 -2.095705 0.66854209 9
2.1067367 -0.72869408 2.0659051 35
2.4623616 -0.85218239 1.9808358 71
3.0491629 -1.0552686 1.9809276 68
3.8694348 -1.3399093 1.9804192 52
5.1186862 -1.7735018 1.9735013 42
2.9577022 -1.0253499 0.84572548 38
6.0634947 -2.1032269 0.98620176 28
6.0835314 -2.1113665 0.35343876 84
0.029365087 -0.010728154 1.9891979 80
0.29523692 -0.10423791 1.9909451 97
0.40594691 -0.14228153 2.0915227 73
0.57359225 -0.20061989 1.9886441 86
0.77372104 -0.27047947 1.99051 90
0.98868984 -0.34544596 1.9857829 83
1.2305987 -0.42997438 1.9871606 80
1.5120152 -0.52830726 1.9935577 52
0.116707 -0.04243806 1.9810979 88
0.20513363 -0.075788692 1.993349 91
0.47900048 -0.16855875 1.9912384 86
0.6699841 -0.23552261 1.9854547 91
0.87893665 -0.30864424 1.9891212 83
1.1015339 -0.38681754 1.979813 87
1.3589714 -0.47722587 1.9813027 84
1.6899953 -0.59347588 2.0200562 42
1.9100319 -0.66513526 2.0673294 73
2.2233832 -0.77425843 1.9800742 69
2.7266028 -0.95003176 1.9776572 71
3.4151211 -1.1899366 1.9788257 61
4.3826747 -1.5279218 1.9635568 51
5.852612 -2.0415289 1.910723 98
6.0806327 -2.1210682 1.3141372 75
6.0746527 -2.1201715 0.66943449 94
2.1077054 -0.73727661 2.0692301 37
2.4593718 -0.86077243 1.9808358 69
3.0454607 -1.0659057 1.9809276 68
3.8647342 -1.3534077 1.9804192 52
5.1124644 -1.7913587 1.9735013 42
nan nan nan 0
6.0607896 -2.1260188 0.98689163 30
6.0855522 -2.1358981 0.35384181 82
0.02932746 -0.010830592 1.9891979 82
0.29487127 -0.10526784 1.9909451 97
0.40448809 -0.14335747 2.0866275 71
0.57148039 -0.20212282 1.9838723 86
0.77277213 -0.27317861 1.99051 90
0.98747802 -0.34889501 1.9857829 83
1.2290902 -0.43426737 1.9871606 78
1.5101619 -0.53358191 1.9935577 57
0.11655814 -0.042845186 1.9810979 86
0.20486784 -0.076504275 1.993349 93
0.47840917 -0.17022973 1.9912384 86
0.66915792 -0.23785986 1.9854547 89
0.87580174 -0.31098166 1.9846202 86
1.100177 -0.39066026 1.979813 87
1.3572974 -0.48196667 1.9813027 84
1.6879134 -0.59937143 2.0200562 45
1.9009709 -0.66942936 2.0603204 75
2.2206666 -0.78201479 1.9800742 69
2.7232699 -0.95954359 1.9776572 71
3.4109464 -1.2018504 1.9788257 61
4.3773146 -1.5432109 1.9635568 51
5.8544989 -2.0651379 1.9135413 97
6.0824571 -2.1455488 1.3160024 74
6.0766077 -2.1446781 0.67032695 94
2.1086395 -0.74587464 2.0725548 38
2.4563522 -0.86935204 1.9808358 71
3.0417216 -1.0765299 1.9809276 68
3.8599863 -1.3668901 1.9804192 52
5.1061802 -1.8091936 1.9735013 42
5.850409 -2.0740342 1.5878024 67
6.0626659 -2.1504731 0.9882713 33
6.0874758 -2.1604695 0.35424486 82
0.029289475 -0.010932899 1.9891979 82
0.29450202 -0.10629649 1.9909451 97
0.4039852 -0.14476852 2.0866275 71
0.57077146 -0.20411643 1.9838723 86
0.77181387 -0.27587441 1.99051 86
0.9862541 -0.35233983 1.9857829 81
1.2275668 -0.43855506 1.9871606 78
1.5113091 -0.53992873 1.9973947 64
0.11640789 -0.043251786 1.9810979 86
0.20459953 -0.077218935 1.993349 93
0.47781205 -0.17189866 1.9912384 88
0.66832352 -0.2401942 1.9854547 89
0.87471086 -0.31403688 1.9846202 88
1.0988066 -0.39449823 1.979813 87
1.3556067 -0.48670158 1.9813027 84
1.6826203 -0.60411417 2.016381 39
1.8919034 -0.67366838 2.0533113 64
2.2179236 -0.7897616 1.9800742 67
2.7238429 -0.97044694 1.9803987 69
3.4067307 -1.2137494 1.9788257 61
4.371901 -1.5584811 1.9635568 51
5.8562913 -2.0887845 1.9163597 97
6.0841842 -2.170068 1.3178676 74
6.0737748 -2.1675501 0.67077315 93
2.1095395 -0.75448829 2.0758798 39
2.4533026 -0.87792099 1.9808358 71
3.037945 -1.0871409 1.9809276 68
3.8509188 -1.3788258 1.9783211 51
5.099834 -1.8270063 1.9735013 42
5.8522844 -2.0977235 1.590147 77
6.0691071 -2.1766381 0.99034071 36
6.0893025 -2.1850803 0.35464793 83
0.029251132 -0.011035072 1.9891979 82
0.29412916 -0.10732384 1.9909451 97
0.4034774 -0.14617781 2.0866275 71
0.57005543 -0.20610754 1.9838723 82
0.76900887 -0.2779029 1.9859076 79
0.98501825 -0.35578036 1.9857829 81
1.2260287 -0.44283739 1.9871606 84
1.5094153 -0.54520094 1.9973947 68
0.11625619 -0.043657862 1.9810979 89
0.20432875 -0.077932648 1.993349 91
0.47720906 -0.17356549 1.9912384 88
0.66748106 -0.24252562 1.9854547 87
0.87360936 -0.31708828 1.9846202 90
1.097423 -0.39833137 1.979813 85
1.3538996 -0.49143058 1.9813027 84
1.6805012 -0.60998398 2.016381 37
1.8828295 -0.67785215 2.0463023 66
2.2151532 -0.79749876 1.9800742 67
2.7204387 -0.97994906 1.9803987 71
3.4024732 -1.2256337 1.9788257 61
4.3664346 -1.5737324 1.9635568 51
5.8579898 -2.1124687 1.9191781 98
6.085814 -2.1946251 1.3197328 74
6.0755401 -2.1921186 0.67166555 7
2.1068928 -0.76184732 2.0758798 39
2.4502232 -0.88647926 1.9808358 71
3.0341318 -1.0977386 1.9809276 68
3.8460822 -1.3922595 1.9783211 39
5.0934253 -1.8447971 1.9735013 42
5.8586364 -2.1231074 1.5936641 75
6.0707831 -2.2011859 0.99172032 40
6.0910301 -2.2097304 0.35505098 84
0.029212436 -0.011137109 1.9891979 82
0.29375276 -0.10834989 1.9909451 97
0.40296468 -0.14758532 2.0866275 73
0.56933248 -0.20809616 1.9838723 82
0.76803416 -0.28058553 1.9859076 61
0.98377031 -0.35921654 1.9857829 81
1.2244754 -0.44711432 1.9871606 84
1.507503 -0.55046642 1.9973947 68
0.1161031 -0.044063404 1.9810979 89
0.20405546 -0.078645408 1.993349 91
0.47660032 -0.17523019 1.9912384 88
0.66663039 -0.24485409 1.9854547 87
0.8724972 -0.32013583 1.9846202 88
1.0960257 -0.40215966 1.979813 85
1.3521758 -0.49615359 1.9813027 84
1.675179 -0.61467838 2.0127058 36
1.8771008 -0.6832006 2.0427978 66
2.2123561 -0.80522621 1.9800742 67
2.7170014 -0.98943913 1.9803987 71
3.398174 -1.2375031 1.9788257 62
4.3609147 -1.5889645 1.9635568 51
5.8550873 -2.1345472 1.9205874 98
6.0873466 -2.2192204 1.3215982 74
6.0725298 -2.2150195 0.67211175 7
2.1077278 -0.7704792 2.0792046 40
2.4471138 -0.8950268 1.9808358 69
3.0302815 -1.1083232 1.9809276 68
3.8411987 -1.4056765 1.9783211 19
5.0869551 -1.8625652 1.9735013 42
5.8694458 -2.1502326 1.5983533 68
6.0770116 -2.2274764 0.99378979 41
6.0879703 -2.2326984 0.35525253 82
0.029173382 -0.011239013 1.9891979 78
0.29337275 -0.10937462 1.9909451 97
0.40244707 -0.14899103 2.0866275 73
0.56860262 -0.21008223 1.9838723 82
0.76705003 -0.28326476 1.9859076 45
0.98251039 -0.36264834 1.9857829 83
1.2229072 -0.4513858 1.9871606 82
1.5025647 -0.55461508 1.9935577 73
0.11594857 -0.044468414 1.9810979 86
0.2037797 -0.079357214 1.993349 91
0.47598577 -0.17689279 1.9912384 86
0.6657716 -0.24717958 1.9854547 89
0.87137437 -0.32317942 1.9846202 88
1.0946152 -0.40598303 1.979813 85
1.3504357 -0.50087053 1.9813027 84
1.6730232 -0.62052214 2.0127058 36
1.8713576 -0.68851733 2.0392931 67
2.2095318 -0.81294394 1.9800742 67
2.7135313 -0.99891734 1.9803987 69
3.3938336 -1.2493575 1.9788257 62
4.3553414 -1.6041772 1.9635568 51
5.8566036 -2.1582901 1.9234056 98
6.0841722 -2.2421544 1.3225307 75
6.0694332 -2.237926 0.67255801 7
2.1050255 -0.77783185 2.0792046 40
2.4439747 -0.90356332 1.9808358 71
3.0263941 -1.118894 1.9809276 68
3.8320119 -1.4175016 1.9762231 17
5.0804219 -1.8803107 1.9735013 45
5.8664627 -2.1723959 1.5995257 64
6.0831304 -2.2538373 0.99585921 62
6.0895085 -2.2574091 0.35565558 82
0.029133972 -0.011340778 1.9891979 78
0.29298916 -0.11039801 1.9909451 96
0.40192455 -0.15039493 2.0866275 69
0.56786585 -0.21206576 1.9838723 86
0.7660566 -0.2859405 1.9859076 45
0.98123854 -0.36607575 1.9857829 81
1.2213241 -0.45565182 1.9871606 84
1.5006195 -0.55985665 1.9935577 74
0.11579264 -0.044872876 1.9810979 86
0.20350145 -0.080068067 1.993349 91
0.47536537 -0.17855321 1.9912384 82
0.66490477 -0.24950203 1.9854547 89
0.87024093 -0.32621914 1.9846202 92
1.0931914 -0.40980148 1.979813 85
1.3486792 -0.50558138 1.9813027 84
1.6708468 -0.62635821 2.0127058 38
1.8656003 -0.69380236 2.0357888 48
2.2066805 -0.82065165 1.9800742 67
2.7100277 -1.0083833 1.9803987 69
3.389452 -1.2611966 1.9788257 61
4.3497157 -1.6193703 1.9635568 52
5.8535299 -2.1803949 1.9248149 98
6.085515 -2.2668078 1.3243959 75
6.0709176 -2.2625768 0.67345041 93
2.1057961 -0.78648168 2.0825293 39
2.4408059 -0.91208887 1.9808358 71
3.02247 -1.1294513 1.9809276 68
3.8270407 -1.4308692 1.9762231 17
5.0738277 -1.8980331 1.9735013 46
5.8725004 -2.1979718 1.6030426 64
6.089139 -2.2802677 0.99792868 61
6.0909481 -2.2821574 0.35605866 82
0.02909421 -0.011442406 1.9891979 82
0.29260203 -0.11142007 1.9909451 95
0.40234947 -0.15215723 2.0915227 67
0.56851947 -0.21457413 1.9886441 86
0.76505387 -0.28861281 1.9859076 52
0.97995472 -0.36949867 1.9857829 81
1.2197261 -0.45991224 1.9871606 82
1.4986562 -0.56509137 1.9935577 74
0.11563531 -0.045276795 1.9810979 88
0.20322073 -0.080777928 1.993349 93
0.47473922 -0.18021145 1.9912384 75
0.66402978 -0.25182149 1.9854547 89
0.87113339 -0.33002645 1.9891212 90
1.0917542 -0.41361493 1.979813 85
1.3469061 -0.51028603 1.9813027 84
1.6686503 -0.63218677 2.0127058 39
1.8564907 -0.69780076 2.0287795 38
2.2038023 -0.82834935 1.9800742 67
2.7064915 -1.0178368 1.9803987 69
3.3850291 -1.2730203 1.9788257 61
4.3440366 -1.6345438 1.9635568 52
5.8548617 -2.2041945 1.9276333 98
6.08676 -2.2914979 1.3262613 77
6.0676427 -2.2855101 0.67389661 8
2.1065314 -0.79514611 2.0858543 39
2.437607 -0.92060333 1.9808358 71
3.0185089 -1.1399947 1.9809276 68
3.8220229 -1.4442192 1.9762231 50
5.0671716 -1.9157325 1.9735013 45
5.8693385 -2.2201772 1.6042149 64
6.0904055 -2.3050148 0.99930835 61
6.0876169 -2.3051741 0.35626018 82
0.02905409 -0.011543894 1.9891979 82
0.29221132 -0.11244075 1.9909451 95
0.40181589 -0.15356076 2.0915227 67
0.56776702 -0.21655732 1.9886441 86
0.76404172 -0.29128161 1.9859076 58
0.97865897 -0.37291712 1.9857829 83
1.2181133 -0.46416709 1.9871606 82
1.4966744 -0.57031924 1.9935577 73
0.11547655 -0.045680162 1.9810979 88
0.20293751 -0.081486814 1.993349 93
0.47410727 -0.1818675 1.9912384 73
0.66314673 -0.25413784 1.9854547 89
0.8699761 -0.33306524 1.9891212 92
1.0903038 -0.41742337 1.979813 85
1.3451167 -0.51498449 1.9813027 84
1.6664333 -0.63800764 2.0127058 40
1.847376 -0.70174408 2.0217705 37
2.2045369 -0.83741951 1.983212 66
2.7029216 -1.0272781 1.9803987 71
3.3805645 -1.2848285 1.9788257 60
4.3383045 -1.6496975 1.9635568 53
5.8561001 -2.2280302 1.9304518 98
6.0879064 -2.3162241 1.3281264 76
6.0689363 -2.3102195 0.67478901 6
2.1037428 -0.80249447 2.0858543 38
2.4343789 -0.92910647 1.9808358 69
3.0185394 -1.1520617 1.9834601 68
3.8169582 -1.4575518 1.9762231 62
5.0604534 -1.9334086 1.9735013 44
5.8706331 -2.2441223 1.6065595 39
6.0915732 -2.3297982 1.000688 63
6.0888653 -2.3299806 0.35666323 83
0.029013617 -0.011645241 1.9891979 82
0.29181704 -0.11346008 1.9909451 97
0.40127742 -0.15496244 2.0915227 68
0.56700766 -0.21853787 1.9886441 82
0.76302028 -0.29394683 1.9859076 58
0.97735131 -0.37633097 1.9857829 83
1.2138596 -0.46740502 1.9830275 80
1.4946746 -0.57554013 1.9935577 76
0.1153164 -0.046082973 1.9810979 88
0.20265183 -0.082194701 1.993349 93
0.47346959 -0.18352135 1.9912384 66
0.66225559 -0.2564511 1.9854547 89
0.86880821 -0.33609998 1.9891212 90
1.0888401 -0.42122671 1.979813 85
1.3433108 -0.51967674 1.9813027 84
1.6641961 -0.64382064 2.0127058 38
1.8382565 -0.70563227 2.0147614 37
2.2016006 -0.8451097 1.983212 66
2.6993194 -1.0367067 1.9803987 71
3.3760593 -1.296621 1.9788257 60
4.3368464 -1.6664939 1.9654298 52
5.8572421 -2.2519014 1.93327 98
6.0889544 -2.3409865 1.3299917 74
6.0701313 -2.3349659 0.67568141 5
2.1044135 -0.81117624 2.089179 36
2.4311206 -0.93759847 1.9808358 69
3.0144997 -1.1625912 1.9834601 69
3.8118472 -1.4708666 1.9762231 62
5.0536742 -1.9510611 1.9735013 44
5.8672981 -2.2663524 1.6077318 37
6.0926418 -2.3546178 1.0020676 71
6.0900145 -2.3548243 0.3570663 86
0.028970741 -0.011751503 1.9891979 80
0.29139924 -0.11452888 1.9909451 97
0.4007068 -0.15643215 2.0915227 66
0.56620288 -0.2206146 1.9886441 82
0.7619378 -0.29674146 1.9859076 58
0.97596538 -0.37991062 1.9857829 81
1.2121382 -0.47185093 1.9830275 80
1.4925551 -0.58101451 1.9935577 74
0.11514672 -0.046505321 1.9810979 86
0.20234922 -0.082936898 1.993349 93
0.47396484 -0.18571441 1.9960775 60
0.66131115 -0.25887665 1.9854547 89
0.86751133 -0.33943352 1.9891212 90
1.0872148 -0.42540443 1.979813 85
1.3413055 -0.52483082 1.9813027 84
1.6617118 -0.65020597 2.0127058 36
1.8290085 -0.70978463 2.0077524 37
2.1984882 -0.85317332 1.983212 69
2.6955016 -1.0465933 1.9803987 63
3.371284 -1.3089862 1.9788257 62
4.3307095 -1.6823779 1.9654298 52
5.8578925 -2.2768302 1.9360884 99
6.0890775 -2.3679097 1.331857 73
6.0704036 -2.3618677 0.67657381 4
2.1012836 -0.81925058 2.089179 35
2.4275029 -0.94692636 1.9808358 71
3.0100133 -1.1741576 1.9834601 68
3.8061714 -1.4854921 1.9762231 62
5.046145 -1.9704514 1.9735013 43
5.8630805 -2.2906334 1.6089042 37
6.0885844 -2.3787351 1.0027574 76
6.0906487 -2.3807671 0.35746935 87
0.028931612 -0.011847509 1.9891979 80
0.29101786 -0.11549456 1.9909451 97
0.40018582 -0.15776007 2.0915227 69
0.56546813 -0.22249098 1.9886441 78
0.76094955 -0.29926652 1.9859076 61
0.97470021 -0.38314497 1.9857829 81
1.2105668 -0.4758679 1.9830275 82
1.4906201 -0.58596081 1.9935577 76
0.11500005 -0.046866834 1.9810979 88
0.20208766 -0.083572194 1.993349 95
0.4745487 -0.1876651 2.0009167 47
0.66049463 -0.26095295 1.9854547 89
0.86644065 -0.34215719 1.9891212 90
1.0858729 -0.42881793 1.979813 85
1.33965 -0.52904207 1.9813027 84
1.6597753 -0.65513349 2.0127058 36
1.8266448 -0.71584594 2.0077524 37
2.1956468 -0.86045903 1.983212 69
2.6920164 -1.0555261 1.9803987 63
3.366925 -1.3201585 1.9788257 62
4.3254027 -1.6959749 1.9654298 52
5.8641086 -2.300478 1.9403161 99
6.0953259 -2.3924117 1.3346547 74
6.07686 -2.3863878 0.67791247 4
2.0986993 -0.82584792 2.089179 32
2.424516 -0.95454782 1.9808358 71
3.0065162 -1.1830833 1.9834601 68
3.8017471 -1.4967787 1.9762231 62
5.040277 -1.9854147 1.9735013 43
5.8698244 -2.3133659 1.6124212 75
6.0902944 -2.401484 1.004137 77
6.0970821 -2.40539 0.35807398 90
0.028890081 -0.011948427 1.9891979 80
0.29061294 -0.11650971 1.9909451 96
0.39963272 -0.15915602 2.0915227 71
0.56468809 -0.22446348 1.9886441 78
0.75990033 -0.30192089 1.9859076 62
0.97335684 -0.38654497 1.9857829 81
1.2088984 -0.48009068 1.9830275 82
1.4885657 -0.59116048 1.9935577 76
0.1148275 -0.047288015 1.9810979 89
0.20177999 -0.084312305 1.993349 93
0.47502562 -0.18987006 2.0057559 39
0.65953374 -0.26337203 1.9854547 89
0.86524105 -0.34517956 1.9891212 90
1.0843695 -0.43260571 1.979813 87
1.3377954 -0.53371507 1.9813027 84
1.6573631 -0.66121244 2.0127058 37
1.8241348 -0.72221774 2.0077524 35
2.1926298 -0.86811805 1.983212 67
2.692203 -1.0664566 1.9831401 69
3.3664145 -1.3335347 1.9811436 53
4.3191576 -1.7118168 1.9654298 52
5.8645568 -2.3254924 1.9431345 100
6.0915046 -2.4154847 1.3355874 74
6.0823798 -2.413095 0.67925113 5
2.0958037 -0.83316875 2.089179 28
2.4211693 -0.96300524 1.9808358 71
3.0021598 -1.1940948 1.9834601 69
3.7962356 -1.5107027 1.9762231 60
5.0329657 -2.003875 1.9735013 42
5.8567901 -2.3330655 1.6112487 75
6.0860524 -2.4256237 1.0048269 81
6.0975056 -2.4314218 0.35847703 94
0.028848195 -0.012049199 1.9891979 80
0.29020444 -0.11752342 1.9909451 96
0.39907467 -0.16055004 2.0915227 67
0.56390113 -0.22643325 1.9886441 86
0.75884175 -0.3045716 1.9859076 74
0.97200161 -0.38994026 1.9857829 81
1.2072153 -0.48430759 1.9830275 82
1.4835179 -0.59515929 1.9897208 74
0.11466174 -0.047688548 1.9810979 88
0.20148447 -0.085016139 1.993349 93
0.47552627 -0.19199803 2.0105951 38
0.6586104 -0.26567265 1.9854547 89
0.8640309 -0.3481977 1.9891212 90
1.0828528 -0.43638822 1.979813 87
1.335924 -0.53838164 1.9813027 84
1.6519006 -0.6657266 2.0090308 37
1.8216027 -0.72858077 2.0077524 35
2.1895864 -0.87576646 1.983212 67
2.6884639 -1.0758476 1.9831401 69
3.3617392 -1.3452775 1.9811436 53
4.3131561 -1.7268832 1.9654298 52
5.8653097 -2.3495166 1.9459528 100
6.0921559 -2.4403865 1.3374527 75
6.0877876 -2.4398699 0.68058974 8
2.0928826 -0.84047943 2.089179 25
2.4177928 -0.97145081 1.9808358 71
2.9979734 -1.2045671 1.9834601 69
3.7909391 -1.523945 1.9762231 59
5.0259404 -2.0214312 1.9735013 41
5.8531199 -2.35531 1.6124212 95
6.0867357 -2.4505517 1.0062065 84
6.0982499 -2.4564247 0.3588801 97
0.02880596 -0.012149825 1.9891979 80
0.28979245 -0.11853571 1.9909451 95
0.39851186 -0.16194209 2.0915227 67
0.56172323 -0.2278388 1.9838723 82
0.75958443 -0.30795264 1.99051 81
0.97063452 -0.39333081 1.9857829 83
1.2081255 -0.48957554 1.9871606 82
1.4814312 -0.60033411 1.9897208 76
0.11449457 -0.048088502 1.9810979 88
0.20118648 -0.085718937 1.993349 93
0.47601783 -0.19413181 2.0154345 36
0.65767902 -0.26796997 1.9854547 91
0.86079311 -0.35039049 1.9846202 90
1.0813229 -0.44016543 1.979813 87
1.3340367 -0.54304159 1.9813027 84
1.6495668 -0.67148876 2.0090308 38
1.8190484 -0.73493487 2.0077524 35
2.1865158 -0.8834042 1.983212 67
2.6846919 -1.0852255 1.9831401 69
3.3570228 -1.357004 1.9811436 62
4.3071017 -1.7419283 1.9654298 47
5.8837557 -2.3807731 1.954408 99
6.0972605 -2.4671648 1.3402505 74
6.093082 -2.4667118 0.6819284 79
2.0864754 -0.84637594 2.0858543 23
2.414387 -0.97988456 1.9808358 71
2.9937503 -1.2150246 1.9834601 69
3.7855964 -1.5371685 1.9762231 55
5.0188532 -2.0389626 1.9735013 39
5.8718791 -2.3867083 1.619455 98
6.0873194 -2.4755149 1.0075861 83
6.0988932 -2.481462 0.35928315 82
0.028763374 -0.012250302 1.9891979 80
0.28937694 -0.11954655 1.9909451 96
0.39794412 -0.16333216 2.0915227 69
0.56092453 -0.2297982 1.9838723 82
0.75850487 -0.31060219 1.99051 90
0.96925569 -0.39671654 1.9857829 83
1.2064091 -0.49378967 1.9871606 82
1.4793267 -0.60550159 1.9897208 76
0.11432602 -0.048487868 1.9810979 88
0.20088604 -0.086420685 1.993349 93
0.47766325 -0.19675046 2.0251129 32
0.65673965 -0.27026409 1.9854547 91
0.85956478 -0.35339311 1.9846202 92
1.0797799 -0.44393727 1.979813 85
1.3293453 -0.54654878 1.9773132 84
1.6472127 -0.6772427 2.0090308 37
1.8164719 -0.74128008 2.0077524 36
2.183419 -0.89103121 1.983212 67
2.6808875 -1.0945903 1.9831401 69
3.3522654 -1.368714 1.9811436 62
4.3009949 -1.7569523 1.9654298 47
5.897613 -2.4103715 1.961454 94
6.0977058 -2.4921501 1.3421158 74
6.0982633 -2.4936204 0.683267 79
2.0835085 -0.85365397 2.0858543 22
2.4109521 -0.9883064 1.9808358 71
2.989491 -1.2254672 1.9834601 69
3.7802074 -1.5503733 1.9762231 53
5.0117059 -2.0564694 1.9735013 40
6.1108174 -2.5087185 1.6839324 79
6.0878029 -2.5005116 1.0089657 84
6.0948148 -2.5046351 0.35948467 80
0.028720438 -0.012350631 1.9891979 82
0.28895786 -0.12055594 1.9909451 96
0.39737156 -0.16472025 2.0915227 69
0.56011897 -0.23175479 1.9838723 84
0.75741607 -0.31324798 1.99051 93
0.96786493 -0.40009746 1.9857829 83
1.2072785 -0.49907285 1.9912933 80
1.4772041 -0.61066175 1.9897208 74
0.11415607 -0.048886646 1.9810979 88
0.20058315 -0.087121382 1.993349 93
0.47929615 -0.19938296 2.0347912 27
0.65579218 -0.27255487 1.9854547 89
0.8583259 -0.3563914 1.9846202 90
1.0782236 -0.44770369 1.979813 85
1.3274294 -0.55118573 1.9773132 84
1.6448387 -0.68298841 2.0090308 37
1.8138733 -0.74761629 2.0077524 37
2.1802955 -0.89864737 1.983212 67
2.6770501 -1.1039417 1.9831401 69
3.3474672 -1.3804072 1.9811436 62
4.294836 -1.771955 1.9654298 53
5.9335065 -2.4492474 1.9755459 32
6.0980506 -2.5171683 1.343981 74
6.1033301 -2.5205946 0.68460566 78
2.0805159 -0.86092156 2.0858543 21
2.4074876 -0.99671608 1.9808358 71
2.9851949 -1.235895 1.9834601 69
3.7747729 -1.5635593 1.9762231 43
5.0044971 -2.0739508 1.9735013 42
6.1065135 -2.5318954 1.6851048 79
6.0881858 -2.5255418 1.0103453 81
6.095263 -2.5297248 0.35988772 80
0.028677151 -0.012450809 1.9891979 82
0.2885353 -0.12156385 1.9909451 96
0.39679417 -0.16610634 2.0915227 67
0.55930656 -0.23370856 1.9838723 82
0.75631797 -0.31588998 1.99051 93
0.96646243 -0.4034735 1.9857829 83
1.2055291 -0.50328398 1.9912933 76
1.4780217 -0.61704952 1.9935577 74
0.11398472 -0.049284827 1.9810979 89
0.20027781 -0.087821022 1.993349 91
0.48091647 -0.20202923 2.0444696 23
0.65483683 -0.27484238 1.9854547 89
0.85707664 -0.35938531 1.9846202 90
1.0766543 -0.45146465 1.979813 87
1.3254973 -0.55581594 1.9773132 84
1.6393181 -0.68741471 2.0053556 37
1.8112526 -0.75394332 2.0077524 37
2.1771452 -0.9062525 1.983212 67
2.6731806 -1.1132795 1.9831401 69
3.3426285 -1.3920835 1.9811436 62
4.2886248 -1.7869359 1.9654298 53
5.9293489 -2.4717901 1.9769552 32
6.0982952 -2.5422194 1.3458463 73
6.1082835 -2.5476348 0.68594426 77
2.077498 -0.86817867 2.0858543 20
2.4039938 -1.0051137 1.9808358 71
2.9808629 -1.2463078 1.9834601 69
3.773479 -1.5784776 1.9783211 38
4.9972267 -2.0914071 1.9735013 44
6.1110883 -2.5588276 1.6886218 79
6.0930357 -2.5525184 1.0124148 81
6.0956111 -2.5548482 0.3602908 81
0.028633516 -0.012550835 1.9891979 80
0.28810918 -0.12257028 1.9909451 96
0.39621195 -0.16749039 2.0915227 66
0.55848736 -0.23565947 1.9838723 82
0.75521076 -0.31852809 1.99051 93
0.96504819 -0.40684465 1.9857829 81
1.203765 -0.50748903 1.9912933 76
1.4758589 -0.62220496 1.9935577 74
0.11381199 -0.049682409 1.9810979 88
0.19997005 -0.088519581 1.993349 93
0.48136628 -0.20419799 2.049309 22
0.65387344 -0.27712652 1.9854547 89
0.85581696 -0.36237493 1.9846202 90
1.0750719 -0.45522013 1.979813 87
1.323549 -0.56043941 1.9773132 84
1.6369087 -0.69313282 2.0053556 35
1.8086096 -0.76026112 2.0077524 36
2.1739686 -0.91384667 1.983212 67
2.6692781 -1.1226039 1.9831401 69
3.3377488 -1.4037431 1.9811436 54
4.286634 -1.8036933 1.9673029 53
5.9162631 -2.4906111 1.9755459 35
6.0984383 -2.5673029 1.3477114 72
6.1085329 -2.5728073 0.68683666 77
2.0710144 -0.87397337 2.0825293 16
2.4004705 -1.0134991 1.9808358 71
2.9764943 -1.2567054 1.9834601 69
3.767946 -1.5916399 1.9783211 33
4.9898958 -2.1088381 1.9735013 44
6.111073 -2.5839298 1.6909664 79
6.0932102 -2.5776303 1.0137945 82
6.0958571 -2.5800047 0.36069384 80
0.02858953 -0.012650708 1.9891979 80
0.28767958 -0.12357523 1.9909451 96
0.39562485 -0.16887242 2.0915227 67
0.55766135 -0.23760751 1.9838723 86
0.75409424 -0.32116234 1.99051 93
0.96362215 -0.41021079 1.9857829 81
1.1993972 -0.51058561 1.9871606 82
1.473678 -0.62735289 1.9935577 69
0.11363787 -0.050079383 1.9810979 88
0.19965984 -0.089217074 1.993349 93
0.48296297 -0.20686765 2.0589874 22
0.65131575 -0.27872831 1.980762 85
0.85454684 -0.36536005 1.9846202 90
1.0734763 -0.45897007 1.979813 87
1.3215847 -0.56505609 1.9773132 84
1.634479 -0.69884253 2.0053556 35
1.8059449 -0.76656979 2.0077524 35
2.1671817 -0.91990846 1.9800742 67
2.6653433 -1.1319146 1.9831401 69
3.3328285 -1.4153854 1.9811436 38
4.2803121 -1.8186454 1.9673029 53
5.9075332 -2.5112474 1.9755459 32
6.0984812 -2.5924182 1.3495767 72
6.1086802 -2.5980124 0.68772906 79
2.067951 -0.88119721 2.0825293 14
2.3969181 -1.0218722 1.9808358 71
2.9760551 -1.2687783 1.9859924 69
3.7623672 -1.6047828 1.9783211 21
4.9825039 -2.1262431 1.9735013 44
6.1154265 -2.6109712 1.6944833 78
6.0932837 -2.6027744 1.015174 82
6.0960026 -2.6051941 0.36109692 81
0.028545197 -0.012750426 1.9891979 80
0.2872465 -0.12457866 1.9909451 96
0.395033 -0.17025238 2.0915227 67
0.5568285 -0.23955268 1.9838723 82
0.75296855 -0.32379261 1.99051 93
0.96218437 -0.41357198 1.9857829 83
1.1976075 -0.51476926 1.9871606 84
1.4714792 -0.63249314 1.9935577 69
0.11346237 -0.05047575 1.9810979 88
0.19934718 -0.089913473 1.993349 93
0.48339236 -0.20905158 2.0638263 22
0.65033877 -0.28100014 1.980762 73
0.85526568 -0.36920393 1.9891212 92
1.0718676 -0.4627144 1.979813 87
1.3196043 -0.56966579 1.9773132 84
1.6320297 -0.70454365 2.0053556 37
1.8032581 -0.77286899 2.0077524 35
2.1639576 -0.92746776 1.9800742 69
2.6613758 -1.1412114 1.9831401 69
3.3278675 -1.4270105 1.9811436 32
4.2739377 -1.8335752 1.9673029 53
5.8943233 -2.5299611 1.9741368 20
6.1029367 -2.6195025 1.3523746 75
6.1087265 -2.6232502 0.68862152 77
2.0614321 -0.88693434 2.0792046 14
2.3933363 -1.0302328 1.9808358 71
2.9716079 -1.2791589 1.9859924 69
3.7567425 -1.617906 1.9783211 15
4.9750519 -2.1436226 1.9735013 45
6.1152034 -2.6361506 1.696828 77
6.0978036 -2.6299119 1.0172436 82
6.0960455 -2.6304157 0.36149997 81
0.028500516 -0.01284999 1.9891979 78
0.28680986 -0.12558058 1.9909451 96
0.3944363 -0.17163026 2.0915227 67
0.55598891 -0.24149491 1.9838723 82
0.75183374 -0.32641903 1.99051 91
0.9607349 -0.41692808 1.9857829 83
1.1958033 -0.51894653 1.9871606 82
1.4692624 -0.63762569 1.9935577 74
0.11328549 -0.050871499 1.9810979 88
0.19903213 -0.090608776 1.993349 93
0.48381242 -0.21124101 2.0686657 22
0.64935398 -0.28326851 1.980762 66
0.85397172 -0.37218708 1.9891212 92
1.070246 -0.46645308 1.979813 85
1.3176076 -0.57426864 1.9773132 84
1.6295605 -0.71023613 2.0053556 38
1.8038223 -0.78057522 2.0112567 36
2.1607068 -0.93501574 1.9800742 67
2.6573761 -1.1504943 1.9831401 71
3.322866 -1.4386183 1.9811436 32
4.2675109 -1.848483 1.9673029 53
5.8898578 -2.5524282 1.9755459 18
6.1027703 -2.6446962 1.3542398 75
6.1132393 -2.6505005 0.68996012 76
2.0514731 -0.89114892 2.0725548 15
2.3897257 -1.0385808 1.9808358 73
2.9671247 -1.2895241 1.9859924 68
3.7510719 -1.6310097 1.9783211 12
4.9675388 -2.1609757 1.9735013 44
6.1148772 -2.6613598 1.6991726 77
6.0976672 -2.6551352 1.0186231 82
6.0959868 -2.6556697 0.36190304 82
0.028455487 -0.012949398 1.9891979 78
0.28636977 -0.12658097 1.9909451 96
0.3938348 -0.17300604 2.0915227 64
0.55514264 -0.24343419 1.9838723 82
0.75068974 -0.32904142 1.99051 91
0.95927364 -0.42027915 1.9857829 81
1.1939845 -0.52311748 1.9871606 80
1.4670277 -0.6427505 1.9935577 76
0.11310723 -0.051266629 1.9810979 88
0.1991995 -0.091526508 1.9983203 93
0.48422298 -0.21343592 2.0735047 24
0.64836127 -0.28553346 1.980762 56
0.85266733 -0.37516573 1.9891212 92
1.0686111 -0.47018611 1.979813 85
1.315595 -0.5788644 1.9773132 84
1.6301745 -0.71728551 2.0090308 37
1.8010867 -0.7868669 2.0112567 37
2.1574297 -0.94255233 1.9800742 67
2.6571753 -1.161438 1.9858816 69
3.3218837 -1.4519829 1.9834617 40
4.2610326 -1.8633682 1.9673029 54
5.8809123 -2.5729723 1.9755459 18
6.1025023 -2.6699209 1.3561051 74
6.1130753 -2.6758177 0.69085258 78
2.0312505 -0.89080548 2.0559306 16
2.386086 -1.0469161 1.9808358 71
2.9626055 -1.2998734 1.9859924 69
3.7453558 -1.6440935 1.9783211 11
4.9599657 -2.1783023 1.9735013 45
6.1188998 -2.6885543 1.7026895 78
6.0974283 -2.6803899 1.0200028 83
6.1003995 -2.6829665 0.36250764 82
0.028410111 -0.013048647 1.9891979 80
0.28592613 -0.12757982 1.9909451 93
0.3932285 -0.17437974 2.0915227 63
0.55428946 -0.24537052 1.9838723 82
0.74953663 -0.33165979 1.99051 93
0.95560968 -0.42265594 1.9813942 81
1.1921513 -0.527282 1.9871606 82
1.4647751 -0.6478675 1.9935577 76
0.11292758 -0.051661137 1.9810979 88
0.19887879 -0.092221282 1.9983203 93
0.483475 -0.21512486 2.0735047 27
0.64893734 -0.28849596 1.9854547 56
0.85135263 -0.37813982 1.9891212 92
1.0669634 -0.4739134 1.979813 85
1.3135664 -0.58345318 1.9773132 84
1.6276609 -0.7229715 2.0090308 37
1.7983289 -0.79314911 2.0112567 38
2.1541266 -0.95007741 1.9800742 67
2.6531048 -1.1707063 1.9858816 69
3.3167949 -1.4635696 1.9834617 62
4.2545028 -1.8782306 1.9673029 54
5.8718953 -2.5934849 1.9755459 29
6.1021323 -2.6951756 1.3579702 72
6.1173625 -2.7031784 0.69219118 76
2.0110552 -0.89033169 2.0393064 17
2.382417 -1.0552387 1.9808358 71
2.95805 -1.3102069 1.9859924 69
3.7437434 -1.658996 1.9804192 10
4.9523315 -2.1956024 1.9735013 46
6.1183648 -2.7138386 1.7050341 79
6.1016145 -2.7076833 1.0220723 81
6.1001296 -2.7082989 0.36291072 81
0.02836439 -0.013147737 1.9891979 80
0.28547907 -0.12857711 1.9909451 93
0.39261737 -0.1757513 2.0915227 65
0.55342966 -0.24730387 1.9838723 82
0.74837434 -0.33427414 1.99051 93
0.95412844 -0.42598909 1.9813942 81
1.1903034 -0.53144026 1.9871606 82
1.4625046 -0.65297657 1.9935577 74
0.11274656 -0.052055012 1.9810979 88
0.19855568 -0.092914939 1.9983203 93
0.48386851 -0.21732661 2.0783441 32
0.64792639 -0.29075941 1.9854547 58
0.85002744 -0.3811093 1.9891212 92
1.0653027 -0.47763494 1.979813 85
1.3115218 -0.58803481 1.9773132 84
1.6251272 -0.72864872 2.0090308 35
1.7988074 -0.80087215 2.0147614 38
2.1507971 -0.95759088 1.9800742 67
2.6490023 -1.1799601 1.9858816 71
3.311666 -1.4751384 1.9834617 64
4.2521548 -1.8949572 1.9691759 55
5.867188 -2.6159194 1.9769552 31
6.1061468 -2.7224607 1.3607682 72
6.1169858 -2.7285733 0.69308364 76
1.9908882 -0.88972783 2.022682 22
2.3824091 -1.0651984 1.9837791 71
2.9534588 -1.3205245 1.9859924 69
3.7420726 -1.673907 1.9825172 9
4.9446368 -2.2128761 1.9735013 46
6.1177263 -2.7391515 1.7073787 78
6.1011648 -2.7330146 1.0234518 81
6.0997567 -2.7336621 0.36331376 81
0.028357582 -0.013265705 1.9941976 82
0.28502855 -0.12957284 1.9909451 96
0.39200151 -0.17712072 2.0915227 64
0.55392444 -0.24984834 1.9886441 84
0.74720299 -0.33688444 1.99051 93
0.95263571 -0.429317 1.9813942 81
1.1884412 -0.5355919 1.9871606 80
1.4602165 -0.65807772 1.9935577 76
0.11256416 -0.052448254 1.9810979 88
0.19823013 -0.09360747 1.9983203 95
0.48310694 -0.21901432 2.0783441 36
0.64690745 -0.29301932 1.9854547 60
0.84869188 -0.38407412 1.9891212 92
1.0636289 -0.48135063 1.979813 87
1.3094612 -0.59260935 1.9773132 84
1.6194851 -0.73291916 2.0053556 35
1.7927479 -0.80568439 2.0112567 35
2.1474414 -0.96509272 1.9800742 67
2.6448674 -1.1891998 1.9858816 71
3.3064966 -1.4866893 1.9834617 64
4.2455139 -1.9097884 1.9691759 55
5.8580208 -2.6363838 1.9769552 29
6.1055655 -2.7477906 1.3626333 72
6.1165056 -2.753998 0.69397604 74
1.9639423 -0.88592309 1.9994081 26
2.3786762 -1.073508 1.9837791 71
2.9488308 -1.3308259 1.9859924 69
3.7403433 -1.6888269 1.9846153 8
4.9368825 -2.2301226 1.9735013 47
6.1169868 -2.7644932 1.7097235 78
6.105125 -2.760416 1.0255214 82
6.0992813 -2.7590559 0.36371684 83
0.028313436 -0.01335967 1.9941976 80
0.28459728 -0.13051732 1.9909451 96
0.39141199 -0.17841968 2.0915227 62
0.55309284 -0.25168386 1.9886441 82
0.74608171 -0.33936039 1.99051 91
0.95120686 -0.43247369 1.9813942 81
1.1866585 -0.53952998 1.9871606 80
1.4580263 -0.6629163 1.9935577 76
0.11239884 -0.052801624 1.9810979 88
0.19745329 -0.093999654 1.993349 93
0.48356044 -0.22105397 2.0831835 39
0.64441413 -0.29433322 1.980762 64
0.84543258 -0.38598189 1.9846202 93
1.0596544 -0.48379186 1.975547 87
1.3074889 -0.59694839 1.9773132 84
1.6171747 -0.73800325 2.0053556 38
1.7900662 -0.81162494 2.0112567 35
2.1477747 -0.97381628 1.983212 67
2.6371014 -1.1962366 1.9831401 63
3.3015482 -1.4976459 1.9834617 66
4.2394934 -1.9231166 1.9691759 54
5.8497095 -2.654774 1.9769552 29
6.1053658 -2.772084 1.3644986 72
6.1164083 -2.7783852 0.69486851 75
1.9575945 -0.89088398 1.9960833 27
2.3751032 -1.0813901 1.9837791 71
2.9446356 -1.3400834 1.9859924 68
3.7391496 -1.7024496 1.9867133 7
4.9298525 -2.2456212 1.9735013 46
6.1215405 -2.7897439 1.7132404 78
6.1054339 -2.7836909 1.026901 82
6.0996733 -2.7823501 0.36411989 82
0.028266631 -0.013458421 1.9941976 80
0.28413996 -0.13150994 1.9909451 96
0.39078683 -0.17978486 2.0915227 62
0.55221099 -0.25361297 1.9886441 80
0.7448926 -0.34196264 1.99051 91
0.94969136 -0.4357914 1.9813942 81
1.184768 -0.54366893 1.9871606 80
1.4557033 -0.66800171 1.9935577 74
0.11220455 -0.053213231 1.9810979 88
0.19710743 -0.094722718 1.993349 91
0.48274699 -0.22282483 2.0831835 40
0.64333099 -0.29669318 1.980762 64
0.84401214 -0.38907793 1.9846202 90
1.0578741 -0.48767245 1.975547 85
1.3052921 -0.60173655 1.9773132 84
1.614329 -0.74420732 2.0053556 38
1.7872223 -0.81786847 2.0112567 37
2.1443624 -0.98130745 1.983212 66
2.6329095 -1.2054344 1.9831401 63
3.2963004 -1.5091614 1.9834617 66
4.2324162 -1.9386423 1.9691759 54
5.8399401 -2.6761968 1.9769552 29
6.1085606 -2.8005841 1.3672965 71
6.1197634 -2.807013 0.69620711 75
1.954316 -0.89805293 1.9960833 30
2.3674512 -1.0883996 1.9808358 71
2.9394684 -1.35138 1.9859924 68
3.7408319 -1.7205876 1.9909095 7
4.9254837 -2.2665081 1.975144 45
6.1196141 -2.8172932 1.7155851 78
6.104188 -2.8101916 1.0282806 83
6.0985103 -2.8088682 0.36452296 78
0.028178055 -0.013542484 1.9891979 80
0.28365603 -0.13255049 1.9909451 96
0.39012527 -0.18121596 2.0915227 62
0.5512777 -0.2556352 1.9886441 80
0.74186182 -0.34386888 1.9859076 95
0.95026159 -0.44027647 1.9857829 81
1.1827674 -0.54800767 1.9871606 80
1.4532452 -0.67333269 1.9935577 74
0.11200877 -0.053624123 1.9810979 88
0.19675893 -0.095444515 1.993349 91
0.48192707 -0.2245927 2.0831835 51
0.64223921 -0.29904911 1.980762 64
0.8425805 -0.39216879 1.9846202 90
1.0560795 -0.49154645 1.975547 87
1.3058105 -0.60778856 1.9813027 84
1.6115905 -0.75011915 2.0053556 38
1.7809752 -0.82291758 2.0077524 37
2.1407514 -0.98916036 1.983212 64
2.6284738 -1.2150764 1.9831401 69
3.2907467 -1.5212327 1.9834617 56
4.2294898 -1.9560876 1.9710488 51
5.830092 -2.697583 1.9769552 26
6.1071701 -2.8270817 1.3691617 71
6.1184716 -2.8336098 0.69709951 77
1.9510114 -0.90520984 1.9960833 33
2.363446 -1.0970695 1.9808358 71
2.9344957 -1.3621446 1.9859924 69
3.7427325 -1.7381098 1.9951055 7
4.9171433 -2.2845454 1.975144 45
6.1180625 -2.8438015 1.7179296 76
6.102828 -2.8367202 1.0296602 81
6.0927043 -2.8333082 0.36472449 78
0.028130611 -0.013640761 1.9891979 82
0.28319162 -0.13353983 1.9909451 96
0.38949031 -0.18257664 2.0915227 60
0.54902929 -0.2569249 1.9838723 82
0.74065691 -0.34645638 1.9859076 95
0.94871897 -0.44359085 1.9857829 81
1.1808473 -0.55213296 1.9871606 82
1.450886 -0.67840135 1.9935577 76
0.1118209 -0.05401478 1.9810979 88
0.19690385 -0.096366063 1.9983203 93
0.48114017 -0.22627355 2.0831835 56
0.64119142 -0.30128908 1.980762 66
0.84127539 -0.39496073 1.9846202 90
1.0568045 -0.49615425 1.979813 87
1.3037878 -0.6121155 1.9813027 87
1.6090943 -0.75545931 2.0053556 37
1.778092 -0.82912934 2.0077524 37
2.1408136 -0.99827206 1.9863497 60
2.6242163 -1.2242442 1.9831401 69
3.2854168 -1.5327103 1.9834617 57
4.2226362 -1.9708394 1.9710488 50
5.8206401 -2.7179174 1.9769552 26
6.1066637 -2.8514748 1.371027 71
6.1225777 -2.8602076 0.69843817 78
1.9479989 -0.91167462 1.9960833 33
2.3597951 -1.1049008 1.9808358 71
2.9299624 -1.3718684 1.9859924 69
3.7451687 -1.7543622 1.9993017 7
4.9138169 -2.3028431 1.9767867 45
6.1174002 -2.868201 1.7202743 76
6.1018558 -2.8622119 1.0310398 81
6.0918221 -2.858803 0.36512753 78
0.028082823 -0.013738872 1.9891979 80
0.28272375 -0.13452753 1.9909451 97
0.38885063 -0.18393511 2.0915227 60
0.54812908 -0.25883979 1.9838723 80
0.739443 -0.34903964 1.9859076 95
0.94716477 -0.44689977 1.9857829 83
1.1789128 -0.55625153 1.9871606 80
1.4485091 -0.68346173 1.9935577 74
0.11163167 -0.05440478 1.9810979 88
0.19656627 -0.097052798 1.9983203 93
0.48034739 -0.22795168 2.0831835 64
0.64013582 -0.30352545 1.980762 66
0.83989161 -0.39789495 1.9846202 90
1.0550662 -0.4998402 1.979813 87
1.3016431 -0.6166628 1.9813027 87
1.6064473 -0.76107144 2.0053556 36
1.7751869 -0.83533096 2.0077524 35
2.1373158 -1.0057389 1.9863497 39
2.6199272 -1.233397 1.9831401 67
3.2800467 -1.5441692 1.9834617 65
4.2199254 -1.9875426 1.972922 42
5.8111172 -2.7382188 1.9769552 25
6.1011167 -2.8748674 1.3719596 75
6.112556 -2.8815618 0.69843817 78
1.9481816 -0.92006367 1.9994081 34
2.3559239 -1.1131314 1.9808358 71
2.9251556 -1.3820873 1.9859924 69
3.7472279 -1.7713037 2.0034976 7
4.9057484 -2.3199813 1.9767867 47
6.1117454 -2.8916161 1.7214466 81
6.0963035 -2.885613 1.0317297 84
6.090837 -2.8843265 0.36553061 81
0.028034694 -0.013836816 1.9891979 80
0.28225246 -0.1355136 1.9909451 96
0.38820621 -0.18529133 2.0915227 63
0.54857051 -0.26139405 1.9886441 82
0.73822016 -0.35161865 1.9859076 93
0.94559902 -0.45020327 1.9857829 83
1.1769638 -0.56036329 1.9871606 82
1.4461144 -0.68851382 1.9935577 76
0.11144108 -0.054794118 1.9810979 88
0.1962263 -0.097738348 1.9983203 91
0.47954875 -0.22962701 2.0831835 71
0.63907248 -0.30575806 1.980762 69
0.83849758 -0.40082428 1.9846202 92
1.053315 -0.50352001 1.979813 89
1.2994827 -0.62120259 1.9813027 84
1.603781 -0.76667434 2.0053556 36
1.7722602 -0.8415224 2.0077524 35
2.1337922 -1.0131932 1.9863497 34
2.6156058 -1.2425346 1.9831401 67
3.2746365 -1.5556092 1.9834617 65
4.2129617 -2.0022607 1.972922 42
5.8015237 -2.7584865 1.9769552 25
6.1087894 -2.9045844 1.3756901 75
6.111455 -2.9071596 0.69933057 83
1.9449582 -0.92685848 1.9994081 35
2.3520241 -1.1213483 1.9808358 71
2.9203138 -1.3922898 1.9859924 70
3.7492149 -1.7882808 2.007694 8
4.8976207 -2.3370917 1.9767867 47
6.1103859 -2.9171207 1.7237912 63
6.0995998 -2.9132783 1.0337992 69
6.094255 -2.9120319 0.36613521 73
0.027986225 -0.013934592 1.9891979 82
0.28177771 -0.13649803 1.9909451 95
0.38755703 -0.1866453 2.0915227 63
0.54765475 -0.26330736 1.9886441 82
0.73698825 -0.35419339 1.9859076 93
0.94402182 -0.45350128 1.9857829 83
1.1750008 -0.5644682 1.9871606 82
1.4437023 -0.6935575 1.9935577 76
0.11124914 -0.055182785 1.9810979 88
0.19588393 -0.098422714 1.9983203 91
0.4787443 -0.23129955 2.0831835 75
0.63955528 -0.30873722 1.9854547 75
0.83709329 -0.40374875 1.9846202 92
1.051551 -0.50719368 1.979813 87
1.2973064 -0.62573487 1.9813027 84
1.601095 -0.77226794 2.0053556 38
1.7693119 -0.8477037 2.0077524 35
2.1337531 -1.0223175 1.9894875 24
2.6112525 -1.2516572 1.9831401 67
3.2691865 -1.5670304 1.9834617 66
4.2101264 -2.018959 1.974795 38
5.7918596 -2.7787211 1.9769552 25
6.0941844 -2.9237654 1.3747574 75
6.1057596 -2.9306297 0.69977677 84
1.9450762 -0.93526018 2.002733 37
2.3480952 -1.1295515 1.9808358 71
2.9154358 -1.402475 1.9859924 69
3.7511292 -1.8052936 2.0118899 8
4.8894324 -2.3541732 1.9767867 47
6.0738926 -2.9257758 1.7167574 50
6.0626264 -2.9216526 1.0296602 60
6.0795527 -2.9311175 0.36593366 73
0.027937416 -0.014032196 1.9891979 80
0.2812995 -0.13748078 1.9909451 95
0.38690317 -0.18799698 2.0915227 60
0.54673225 -0.26521739 1.9886441 86
0.7357474 -0.35676381 1.9859076 93
0.94243306 -0.45679381 1.9857829 83
1.1730231 -0.56856638 1.9871606 78
1.4412726 -0.69859272 1.9935577 76
0.11105584 -0.055570781 1.9810979 88
0.19553918 -0.09910588 1.9983203 91
0.477934 -0.23296927 2.0831835 77
0.63847369 -0.31096783 1.9854547 87
0.83567882 -0.40666831 1.9846202 90
1.0497741 -0.51086122 1.979813 85
1.2951143 -0.63025951 1.9813027 84
1.5983894 -0.77785212 2.0053556 38
1.7663422 -0.8538745 2.0077524 37
2.1301718 -1.0297594 1.9894875 19
2.6068676 -1.2607646 1.9831401 67
3.2636967 -1.5784324 1.9834617 66
4.2030535 -2.0336428 1.974795 36
5.7821245 -2.7989213 1.9769552 25
6.035305 -2.9214773 1.3644986 34
6.0372248 -2.9237072 0.69397604 38
1.9417998 -0.94204402 2.002733 37
2.3441384 -1.1377411 1.9808358 73
2.9105225 -1.4126432 1.9859924 66
3.7529697 -1.8223414 2.0160861 8
4.8811851 -2.3712263 1.9767867 47
6.0068107 -2.9193394 1.7015172 36
6.0078549 -2.9211428 1.0227621 39
nan nan nan 0
0.027888263 -0.014129631 1.9891979 78
0.28081787 -0.13846187 1.9909451 96
0.3862446 -0.18934639 2.0915227 60
0.54580313 -0.26712424 1.9886441 88
0.73449761 -0.35932988 1.9859076 95
0.94083279 -0.46008068 1.9857829 83
1.1710314 -0.57265747 1.9871606 78
1.4388252 -0.70361942 1.9935577 76
0.11086119 -0.0559581 1.9810979 88
0.19519204 -0.099787831 1.9983203 91
0.47711787 -0.23463616 2.0831835 80
0.6373843 -0.3131946 1.9854547 91
0.83425421 -0.40958285 1.9846202 90
1.0479845 -0.51452243 1.979813 85
1.2929064 -0.63477647 1.9813027 84
1.5956645 -0.78342676 2.0053556 38
1.7633507 -0.86003506 2.0077524 37
2.1265643 -1.0371889 1.9894875 15
2.6062086 -1.2716902 1.9858816 69
3.2581668 -1.5898153 1.9834617 68
4.2000952 -2.0503356 1.9766681 31
5.7723193 -2.8190877 1.9769552 25
5.9941726 -2.9274364 1.3579702 31
6.0090847 -2.9360182 0.69219118 36
1.9418539 -0.95045823 2.006058 37
2.3401525 -1.1459168 1.9808358 71
2.9055738 -1.4227942 1.9859924 54
3.7506616 -1.8374273 2.0181842 8
4.8771186 -2.3903284 1.9784293 45
5.9791269 -2.9317296 1.696828 35
5.9709449 -2.9290106 1.0186231 37
nan nan nan 0
0.02783877 -0.014226893 1.9891979 80
0.28033286 -0.13944125 1.9909451 95
0.38649392 -0.19114493 2.0964177 63
0.5448674 -0.26902783 1.9886441 88
0.73323888 -0.36189154 1.9859076 95
0.93922102 -0.46336204 1.9857829 81
1.1665016 -0.57549661 1.9830275 80
1.4363602 -0.70863765 1.9935577 71
0.11066518 -0.056344736 1.9810979 88
0.19436829 -0.10022327 1.993349 91
0.47629592 -0.23630019 2.0831835 82
0.63628715 -0.31541759 1.9854547 91
0.8328194 -0.41249248 1.9846202 90
1.0461822 -0.51817745 1.979813 85
1.2906827 -0.63928568 1.9813027 87
1.5959582 -0.79049671 2.0090308 37
1.7603381 -0.86618507 2.0077524 35
2.1264238 -1.0463245 1.9926252 15
2.6017537 -1.2807798 1.9858816 69
3.2525978 -1.6011786 1.9834617 66
4.1929131 -2.0649843 1.9766681 29
5.7624435 -2.8392198 1.9769552 28
5.9486656 -2.9309735 1.3505093 30
5.9585977 -2.9371593 0.68817532 34
1.9385244 -0.95723087 2.006058 37
2.3361382 -1.1540784 1.9808358 71
2.9005895 -1.4329278 1.9859924 38
3.7523625 -1.8545301 2.0223801 8
4.8687449 -2.4073381 1.9784293 45
5.9340029 -2.9353418 1.6874495 34
5.9251771 -2.9322631 1.0131047 36
nan nan nan 0
0.02779144 -0.014319131 1.9891979 80
0.27986893 -0.14037012 1.9909451 95
0.38585794 -0.19242553 2.0964177 60
0.54397231 -0.27083319 1.9886441 86
0.73203474 -0.36432108 1.9859076 95
0.93767929 -0.46647406 1.9857829 81
1.1645868 -0.57936174 1.9830275 82
1.4340026 -0.71339685 1.9935577 71
0.11048762 -0.056692123 1.9810979 88
0.19405246 -0.1008334 1.993349 91
0.47555122 -0.23779534 2.0831835 86
0.63529313 -0.31741497 1.9854547 89
0.83144695 -0.41525191 1.9846202 90
1.0444579 -0.52164394 1.979813 85
1.2885556 -0.6435622 1.9813027 84
1.5934669 -0.79550666 2.0090308 36
1.7574558 -0.87201774 2.0077524 35
2.1229422 -1.0533701 1.9926252 16
2.5974925 -1.2894006 1.9858816 69
3.2472701 -1.611956 1.9834617 66
4.1864052 -2.0781467 1.9766681 29
5.7534957 -2.8573089 1.9769552 29
5.9037204 -2.9331982 1.3430483 30
5.9131484 -2.9391694 0.68460566 35
1.9353395 -0.96365398 2.006058 37
2.3322983 -1.161819 1.9808358 73
2.8960736 -1.4420333 1.9859924 38
3.7505798 -1.868333 2.0244782 8
4.8611579 -2.422622 1.9784293 41
5.8899527 -2.936619 1.6780708 34
5.8804836 -2.9331799 1.0075861 37
nan nan nan 0
0.027741287 -0.014416054 1.9891979 77
0.27937722 -0.14134617 1.9909451 95
0.3851839 -0.19377126 2.0964177 61
0.54302365 -0.27273038 1.9886441 86
0.73075855 -0.36687413 1.9859076 91
0.93604535 -0.46974429 1.9857829 83
1.1625575 -0.58342338 1.9830275 80
1.4315037 -0.71839809 1.9935577 74
0.11027909 -0.057096697 1.9810979 88
0.1936816 -0.10154396 1.993349 91
0.47467646 -0.23953672 2.0831835 86
0.63412547 -0.31974134 1.9854547 91
0.82999235 -0.41815168 1.9846202 90
1.0426307 -0.52528656 1.979813 85
1.2863013 -0.64805615 1.9813027 84
1.5905404 -0.80134165 2.0090308 37
1.7544013 -0.87814713 2.0077524 35
2.1227336 -1.0625166 1.9957631 17
2.5967145 -1.300332 1.988623 69
3.2416236 -1.6232812 1.9834617 68
4.1746149 -2.0913997 1.974795 32
5.7429848 -2.8783774 1.9769552 33
5.8627052 -2.9383812 1.3365201 31
5.8627868 -2.9397025 0.68058974 35
1.9319638 -0.97040373 2.006058 38
2.3282287 -1.1699532 1.9808358 73
2.8907688 -1.4526383 1.9859924 39
3.751817 -1.886144 2.0286746 8
4.8564653 -2.4425445 1.980072 39
5.8400722 -2.9385245 1.66752 34
5.8387303 -2.9391265 1.0027574 39
5.809361 -2.9256136 0.35605866 38
0.027690798 -0.014512802 1.9891979 77
0.27888212 -0.14232051 1.9909451 96
0.38450515 -0.19511464 2.0964177 61
0.54206824 -0.2746242 1.9886441 86
0.72947347 -0.3694227 1.9859076 91
0.93439984 -0.47300884 1.9857829 83
1.1605138 -0.58747786 1.9830275 80
1.4289871 -0.72339064 1.9935577 76
0.11007912 -0.057481296 1.9810979 88
0.19332597 -0.10221943 1.993349 91
0.47383744 -0.24119219 2.0831835 88
0.63300556 -0.32195288 1.9854547 91
0.83046919 -0.42203298 1.9891212 92
1.0407908 -0.5289228 1.979813 85
1.2840313 -0.65254223 1.9813027 84
1.5877335 -0.80688876 2.0090308 40
1.7513254 -0.88426578 2.0077524 36
2.1190116 -1.0699199 1.9957631 17
2.5921597 -1.3093883 1.988623 69
3.2359374 -1.6345866 1.9834617 68
4.1672893 -2.1059592 1.974795 34
5.7286205 -2.8962419 1.9755459 35
5.8085737 -2.9366643 1.3271937 31
5.8169379 -2.9421678 0.67702007 36
1.9285647 -0.97714156 2.006058 37
2.3241308 -1.178073 1.9808358 73
2.8856807 -1.46272 1.9859924 52
