# .PCD v0.7 - Point Cloud Data file format
VERSION 0.7
FIELDS x y z intensity
SIZE 4 4 4 4
TYPE F F F F
COUNT 1 1 1 1
WIDTH 1354
HEIGHT 1
VIEWPOINT 0 0 0 1 0 0 0
POINTS 1354
DATA ascii
0.2155721 -0.039827213 1.9983203 91
0.50071585 -0.084481306 1.9912384 91
0.70031643 -0.11792595 1.9854547 87
0.91652459 -0.15401582 1.9846202 93
1.151334 -0.19348061 1.979813 91
1.4233835 -0.23920393 1.9852921 89
1.7831181 -0.29966369 2.0384321 88
1.9285798 -0.3189207 2.0007432 37
2.3189518 -0.38347897 1.9769365 67
2.8444772 -0.47089496 1.9749157 58
3.6291184 -0.60079408 2.0112782 13
4.5834951 -0.75961202 1.9654298 44
2.9487545 -0.48921809 0.96797121 87
2.9269843 -0.48560625 0.65477467 59
nan nan nan 0
2.1104188 -0.35202187 1.9861088 38
2.5620975 -0.42782354 1.9749495 73
3.1782887 -0.53072006 1.9783952 68
4.0343437 -0.67439121 1.9783211 58
2.9442155 -0.49269006 1.1275188 88
2.9435544 -0.49310759 0.81055593 92
2.9107306 -0.4881312 0.50333077 95
4.911953 -0.8246206 0.29459172 5
0.030743971 -0.0056753736 1.9891979 77
0.30772987 -0.053355101 1.9860058 103
0.42500642 -0.072687514 2.0964177 78
0.59608996 -0.10154685 1.9791006 77
0.80609149 -0.13719036 1.9859076 91
1.0348463 -0.17594714 1.9901714 87
1.287884 -0.21897504 1.9912933 84
1.5758326 -0.26793903 1.9897208 19
0.12215388 -0.022359358 1.9810979 86
0.21543176 -0.040579461 1.9983203 89
0.50041795 -0.086228617 1.9912384 91
0.69990051 -0.1203698 1.9854547 87
0.91598147 -0.15721416 1.9846202 92
1.1506517 -0.19749832 1.979813 91
1.4225398 -0.24417099 1.9852921 89
1.7920851 -0.3076067 2.0494576 90
1.9274549 -0.32565075 2.0007432 36
2.3175993 -0.39157128 1.9769365 67
2.8428159 -0.48082113 1.9749157 67
3.6138949 -0.611242 2.004324 11
4.5808158 -0.77560675 1.9654298 33
2.9470286 -0.4995082 0.96797121 74
2.9252713 -0.4958204 0.65477467 81
5.2288089 -0.88720047 0.56814486 6
2.1091771 -0.35938647 1.9861088 38
2.5605886 -0.43676433 1.9749495 73
3.1764169 -0.54181117 1.9783952 68
4.0364389 -0.68923342 1.9804192 58
2.9424775 -0.50296426 1.1275188 88
2.9418151 -0.50337952 0.81055593 92
2.9138901 -0.49912468 0.50402057 95
3.4022791 -0.58339328 0.23292327 36
0.030723974 -0.0057826559 1.9891979 77
0.30754173 -0.054428954 1.9860058 103
0.42475009 -0.074170619 2.0964177 78
0.59720337 -0.103883 1.9838723 82
0.80560774 -0.14000329 1.9859076 91
1.0342258 -0.17955835 1.9901714 87
1.2871118 -0.22346926 1.9912933 84
1.5748878 -0.27343807 1.9897208 19
0.12207509 -0.022785619 1.9810979 86
0.21528882 -0.041331209 1.9983203 89
0.5001139 -0.087974869 1.9912384 95
0.69947606 -0.12281218 1.9854547 89
0.91542703 -0.16041057 1.9846202 90
1.1499553 -0.20151365 1.979813 91
1.4216788 -0.24913511 1.9852921 89
1.8010184 -0.31561598 2.060483 96
1.9298207 -0.33298323 2.0042477 35
2.3162181 -0.39965883 1.9769365 67
2.8411202 -0.49074149 1.9749157 67
3.5986428 -0.62159091 1.9973699 11
4.5826492 -0.792382 1.9673029 28
2.9499943 -0.5106104 0.96938044 26
2.9235227 -0.50602847 0.65477467 83
5.1569824 -0.89354402 0.56189793 4
2.1079097 -0.36674669 1.9861088 37
2.5630305 -0.44639331 1.9778926 73
3.1745064 -0.55289561 1.9783952 68
4.0340085 -0.70331913 1.9804192 57
2.9407039 -0.51323235 1.1275188 88
2.9400399 -0.51364529 0.81055593 92
2.9121301 -0.50929302 0.50402057 88
3.3854587 -0.59268135 0.23231867 66
0.0307036 -0.0058898674 1.9891979 77
0.30734986 -0.055502146 1.9860058 103
0.42448863 -0.075652823 2.0964177 79
0.5968371 -0.10596699 1.9838723 82
0.80511409 -0.14281455 1.9859076 91
1.0335927 -0.1831674 1.9901714 89
1.2863239 -0.22796075 1.9912933 84
1.5770801 -0.27949324 1.9935577 20
0.1219948 -0.023211602 1.9810979 89
0.21514323 -0.042082455 1.9983203 91
0.49980375 -0.089720063 1.9912384 93
0.6990431 -0.12525305 1.9854547 89
0.9148615 -0.16360503 1.9846202 90
1.1492448 -0.2055265 1.979813 91
1.4208004 -0.25409615 1.9852921 82
1.8099173 -0.32369134 2.0715086 97
1.9286466 -0.33971754 2.0042477 35
2.3148091 -0.40774152 1.9769365 67
2.83939 -0.50065583 1.9749157 67
3.5877247 -0.63261008 1.9927338 14
4.5844207 -0.80917937 1.9691759 16
2.948194 -0.52090466 0.96938044 25
2.9217384 -0.51623034 0.65477467 83
nan nan nan 0
2.1066167 -0.37410244 1.9861088 37
2.5614567 -0.45533723 1.9778926 73
3.1725571 -0.56397337 1.9783952 68
4.0315289 -0.71739608 1.9804192 55
2.9388947 -0.52349424 1.1275188 88
2.9382293 -0.5239048 0.81055593 92
2.9103346 -0.51945519 0.50402057 76
3.3636971 -0.60098034 0.23151255 76
0.030682854 -0.0059970068 1.9891979 77
0.30791837 -0.056715589 1.9909451 103
0.42322019 -0.076951869 2.0915227 77
0.59646356 -0.10804969 1.9838723 84
0.80461067 -0.14562406 1.9859076 90
1.0329469 -0.18677419 1.9901714 89
1.2855203 -0.23244947 1.9912933 84
1.5918689 -0.28784895 2.0127425 28
0.12191304 -0.023637302 1.9810979 88
0.21499503 -0.04283319 1.9983203 93
0.49948752 -0.091464147 1.9912384 93
0.6986016 -0.1276924 1.9854547 91
0.91428488 -0.16679749 1.9846202 86
1.1485205 -0.20953687 1.979813 91
1.4199049 -0.25905412 1.9852921 70
1.8187816 -0.33183262 2.0825341 99
1.9274491 -0.34644771 2.0042477 34
2.3133717 -0.41581923 1.9769365 69
2.837625 -0.51056409 1.9749157 67
3.5811346 -0.64434516 1.9904157 15
4.5861301 -0.82599878 1.9710488 4
2.9463577 -0.53119266 0.96938044 25
2.9199188 -0.52642596 0.65477467 83
3.386302 -0.61111999 0.40126237 64
2.1052978 -0.38145363 1.9861088 37
2.5598514 -0.46427566 1.9778926 73
3.1705689 -0.57504421 1.9783952 66
4.0290003 -0.73146439 1.9804192 54
2.9416955 -0.53459406 1.1291614 88
2.9411647 -0.53502792 0.8117283 90
2.908504 -0.52961093 0.50402057 78
3.3517489 -0.61092645 0.2311095 78
0.030661732 -0.0061040735 1.9891979 77
0.30771852 -0.057790074 1.9909451 103
0.42294902 -0.078428715 2.0915227 78
0.59608281 -0.11013107 1.9838723 84
0.80409741 -0.14843178 1.9859076 90
1.0322888 -0.19037871 1.9901714 87
1.284701 -0.23693536 1.9912933 87
1.6223816 -0.2992186 2.0511119 35
0.12182979 -0.024062714 1.9810979 88
0.2148442 -0.043583401 1.9983203 93
0.49916524 -0.093207128 1.9912384 91
0.69815165 -0.1301302 1.9854547 89
0.91369706 -0.16998793 1.9846202 85
1.147782 -0.21354468 1.979813 91
1.421955 -0.26456025 1.9892817 51
1.8276111 -0.34003976 2.0935595 100
1.9262279 -0.35317361 2.0042477 34
2.3119061 -0.42389184 1.9769365 69
2.8358257 -0.52046621 1.9749157 67
3.5745065 -0.6560421 1.9880978 16
4.5877786 -0.84284002 1.972922 4
2.9444854 -0.5414741 0.96938044 30
2.9228947 -0.53750366 0.65570736 83
3.3743525 -0.62113345 0.40036994 61
2.1039536 -0.38880014 1.9861088 38
2.5542407 -0.47247317 1.9749495 71
3.1685424 -0.58610803 1.9783952 66
4.0219598 -0.74469751 1.9783211 54
2.9398117 -0.54485923 1.1291614 88
2.9392796 -0.54529124 0.8117283 85
2.9115062 -0.54066443 0.50471038 85
3.3446841 -0.62170947 0.23090795 80
0.030640239 -0.0062110657 1.9891979 77
0.30751494 -0.058863863 1.9909451 103
0.42267266 -0.079904601 2.0915227 75
0.59569472 -0.11221112 1.9838723 84
0.80357444 -0.1512377 1.9859076 91
1.031618 -0.19398089 1.9901714 87
1.2838662 -0.24141836 1.9912933 78
1.6496836 -0.31021231 2.0856445 62
0.12174506 -0.024487833 1.9810979 88
0.21469074 -0.044333082 1.9983203 93
0.49883685 -0.094948977 1.9912384 91
0.69769317 -0.13256642 1.9854547 91
0.91309816 -0.1731763 1.9846202 83
1.1470296 -0.21754988 1.979813 89
1.4210229 -0.26952222 1.9892817 29
1.8364053 -0.34831253 2.1045849 102
1.9249833 -0.35989526 2.0042477 34
2.3104124 -0.43195933 1.9769365 69
2.8339918 -0.53036189 1.9749157 67
3.5678401 -0.66770047 1.9857798 18
4.5848088 -0.85884929 1.972922 4
2.9425774 -0.55174899 0.96938044 38
2.9210007 -0.54770321 0.65570736 83
3.3672695 -0.63198972 0.39992374 61
2.1025836 -0.39614195 1.9861088 38
2.5525761 -0.48138621 1.9749495 73
3.1664772 -0.59716469 1.9783952 65
4.0193357 -0.7587322 1.9783211 55
2.9425321 -0.55599457 1.1308041 88
2.9421337 -0.55645114 0.81290054 26
2.9096012 -0.55082417 0.50471038 95
3.337585 -0.6324507 0.23070642 81
0.030619476 -0.0063126385 1.9891979 77
0.30731803 -0.059883296 1.9909451 103
0.42240536 -0.081305794 2.0915227 73
0.59531927 -0.1141859 1.9838723 86
0.80306846 -0.15390161 1.9859076 90
1.030969 -0.19740081 1.9901714 87
1.2830586 -0.24567451 1.9912933 80
1.6675379 -0.31929868 2.1086662 74
0.12166751 -0.024870185 1.9810979 88
0.21402802 -0.04489705 1.993349 91
0.49853608 -0.096515641 1.9912384 91
0.69727325 -0.13475764 1.9854547 91
0.9125188 -0.17620328 1.9846202 81
1.1463019 -0.22135238 1.979813 89
1.4230806 -0.2748045 1.9932711 16
1.8286444 -0.35279557 2.0972347 97
1.9237794 -0.36627677 2.0042477 34
2.3089674 -0.43961859 1.9769365 67
2.8281102 -0.53897405 1.9721743 66
3.5612545 -0.67869884 1.9834617 21
4.5866418 -0.87411642 1.974795 4
2.9408295 -0.56099063 0.96938044 68
2.9191682 -0.55738658 0.65570736 82
3.3455894 -0.63941312 0.39813891 68
2.1012585 -0.40311217 1.9861088 38
2.5509658 -0.48984823 1.9749495 73
3.1688194 -0.60792178 1.9809276 63
4.0169325 -0.77135551 1.9783211 55
2.9454086 -0.56612748 1.1324468 88
2.9451444 -0.56660968 0.81407291 24
2.9078562 -0.55996221 0.50471038 95
3.3306756 -0.64198732 0.2305049 84
0.030597255 -0.0064194817 1.9891979 77
0.30710712 -0.060955673 1.9909451 103
0.42211899 -0.082779773 2.0915227 75
0.59491712 -0.11626326 1.9838723 84
0.80252635 -0.1567039 1.9859076 91
1.0302737 -0.20099837 1.9901714 87
1.2821932 -0.25015172 1.9912933 87
1.6695597 -0.32573146 2.1125031 45
0.12157555 -0.025315952 1.9810979 88
0.21386202 -0.045681205 1.993349 91
0.49817899 -0.098342225 1.9912384 89
0.69677466 -0.13731235 1.9854547 89
0.91189826 -0.17938749 1.9846202 80
1.1480812 -0.22585578 1.9840788 89
1.4221128 -0.27977028 1.9932711 16
1.8140336 -0.35687783 2.0825341 92
1.9224892 -0.37298977 2.0042477 36
2.3074186 -0.44767568 1.9769365 67
2.8262115 -0.54884273 1.9721743 66
3.5545144 -0.69028121 1.9811436 26
4.5834074 -0.89092147 1.974795 4
2.9387536 -0.57176554 0.96938044 86
2.9172049 -0.56757295 0.65570736 81
nan nan nan 0
2.0998385 -0.4104445 1.9861088 39
2.5532069 -0.49952587 1.9778926 71
3.1665702 -0.61953205 1.9809276 59
4.0140781 -0.78607321 1.9783211 55
2.9479477 -0.57782745 1.1340895 59
2.9430475 -0.57740033 0.81407291 24
2.9057844 -0.5706163 0.50471038 95
3.3233984 -0.65322703 0.23030338 85
0.030532118 -0.0065165428 1.984198 77
0.30689245 -0.062027305 1.9909451 103
0.42182747 -0.084252745 2.0915227 75
0.59450763 -0.1183392 1.9838723 82
0.80197453 -0.15950429 1.9859076 91
1.0295658 -0.20459346 1.9901714 87
1.2813122 -0.25462589 1.9912933 87
1.6684127 -0.3315573 2.1125031 47
0.12148644 -0.025740176 1.9810979 88
0.21370126 -0.04642744 1.993349 95
0.49783266 -0.10008059 1.9912384 89
0.69629109 -0.13974372 1.9854547 89
0.91340178 -0.18299736 1.9891212 80
1.1472857 -0.22986196 1.9840788 93
1.4211274 -0.28473267 1.9932711 33
1.8028046 -0.36120978 2.0715086 93
1.9211754 -0.37969822 2.0042477 37
2.3058419 -0.45572734 1.9769365 67
2.8283801 -0.55951613 1.9749157 67
3.5477378 -0.7018249 1.9788257 31
4.5802693 -0.90691507 1.974795 5
2.9414456 -0.58295286 0.97078955 89
2.9200244 -0.5787074 0.65663993 83
2.9746785 -0.59007871 0.36467317 82
2.098393 -0.41777182 1.9861088 39
2.5514476 -0.50843513 1.9778926 71
3.1643882 -0.63058168 1.9809276 57
4.0157604 -0.80096793 1.9804192 57
2.9505441 -0.58903873 1.1357321 27
2.945781 -0.58862251 0.81524527 24
2.9086311 -0.58172715 0.50540024 95
3.3161988 -0.66384315 0.23010182 86
0.030509183 -0.00662308 1.984198 77
0.30667409 -0.063098185 1.9909451 103
0.42153078 -0.085724674 2.0915227 75
0.59409094 -0.1204137 1.9838723 82
0.80141282 -0.16230273 1.9859076 91
1.0288453 -0.20818608 1.9901714 87
1.2804155 -0.25909692 1.9912933 82
1.6735294 -0.33865088 2.1201768 62
0.12139585 -0.026164085 1.9810979 88
0.2135379 -0.047173116 1.993349 93
0.4974803 -0.10181774 1.9912384 91
0.69579905 -0.14217338 1.9854547 89
0.91275746 -0.18618461 1.9891212 80
1.1464764 -0.23386534 1.9840788 91
1.4201249 -0.2896916 1.9932711 39
1.7915674 -0.36546761 2.060483 95
1.9198383 -0.38640207 2.0042477 38
2.3042371 -0.46377346 1.9769365 67
2.8264101 -0.56938559 1.9749157 67
3.5452662 -0.71420449 1.9788257 34
4.577076 -0.92289764 1.974795 6
2.9393928 -0.59321684 0.97078955 89
2.9179864 -0.58889669 0.65663993 82
2.9384305 -0.59355634 0.36154971 86
2.0969219 -0.42509404 1.9861088 39
2.5496576 -0.51733828 1.9778926 69
3.1621678 -0.64162362 1.9809276 55
4.0129404 -0.81498063 1.9804192 57
2.9530978 -0.60027522 1.1373748 27
2.9437082 -0.59890157 0.81524527 24
2.9065828 -0.59187663 0.50540024 95
3.3138618 -0.67541492 0.23010182 86
0.03048588 -0.0067295367 1.984198 77
0.30645195 -0.064168289 1.9909451 103
0.421229 -0.087195575 2.0915227 75
0.59366703 -0.12248673 1.9838723 82
0.80084139 -0.1650992 1.9859076 91
1.0281124 -0.21177614 1.9901714 89
1.2795032 -0.26356483 1.9912933 72
1.6691972 -0.34384373 2.1163399 62
0.12130378 -0.026587676 1.9810979 88
0.21337193 -0.047918215 1.993349 93
0.49712184 -0.10355365 1.9912384 89
0.69529855 -0.14460129 1.9854547 89
0.91423422 -0.18981232 1.9936218 78
1.1456531 -0.23786587 1.9840788 91
1.416154 -0.29403427 1.9892817 55
1.7803226 -0.36965147 2.0494576 92
1.9184778 -0.39310122 2.0042477 38
2.2987905 -0.47103247 1.9737986 67
2.8244052 -0.57924813 1.9749157 67
3.5384119 -0.72568542 1.9765077 37
4.5692849 -0.9379369 1.972922 7
2.9420035 -0.60443908 0.97219878 89
2.9207251 -0.60006738 0.65757257 29
2.9070728 -0.59779131 0.35887244 92
2.0990825 -0.43316573 1.9894335 38
2.5478361 -0.5262351 1.9778926 67
3.1599088 -0.65265775 1.9809276 51
4.0100708 -0.82898343 1.9804192 54
2.9509845 -0.61057979 1.1373748 27
2.9416001 -0.60917342 0.81524527 25
2.9093478 -0.60302389 0.50609004 95
3.306592 -0.68596351 0.2299003 86
0.030462202 -0.0068359114 1.984198 77
0.3062261 -0.065237619 1.9909451 102
0.42092207 -0.088665403 2.0915227 75
0.59323585 -0.12455827 1.9838723 86
0.80217218 -0.16829482 1.99051 93
1.0273668 -0.21536364 1.9901714 89
1.2785755 -0.26802954 1.9912933 55
1.6428853 -0.34440592 2.0856445 52
0.12121023 -0.027010944 1.9810979 88
0.21320337 -0.048662733 1.993349 91
0.49675736 -0.1052883 1.9912384 88
0.69478953 -0.14702746 1.9854547 87
0.91356605 -0.19300242 1.9936218 78
1.1422642 -0.24132438 1.979813 89
1.4151191 -0.29897577 1.9892817 80
1.7657539 -0.37306049 2.0347569 81
1.9170939 -0.39979553 2.0042477 38
2.2971323 -0.47905388 1.9737986 67
2.8223658 -0.58910364 1.9749157 67
3.535857 -0.73803234 1.9765077 39
4.5659833 -0.95388097 1.972922 8
2.9398756 -0.61470491 0.97219878 89
2.9234207 -0.61126429 0.65850514 25
2.909843 -0.60895538 0.35931864 92
2.0975575 -0.44049025 1.9894335 38
2.5459836 -0.53512549 1.9778926 66
3.1576114 -0.66368383 1.9809276 41
4.0071526 -0.84297615 1.9804192 54
2.9534562 -0.62184978 1.1390175 28
2.9394557 -0.61943781 0.81524527 30
2.9072251 -0.61317575 0.50609004 95
3.3041775 -0.69750142 0.2299003 88
0.030438155 -0.0069422023 1.984198 77
0.30599654 -0.066306144 1.9909451 102
0.42061001 -0.090134159 2.0915227 75
0.59279746 -0.12662829 1.9838723 86
0.80157983 -0.17109391 1.99051 93
1.0266087 -0.21894851 1.9901714 89
1.2776321 -0.27249098 1.9912933 34
1.6291314 -0.34746361 2.0702968 52
0.12111521 -0.027433882 1.9810979 88
0.21303219 -0.049406651 1.993349 91
0.4963868 -0.10702167 1.9912384 88
0.6942721 -0.14945184 1.9854547 87
0.9128868 -0.19619021 1.9936218 78
1.1414148 -0.24531016 1.979813 89
1.4111202 -0.30328032 1.9852921 84
1.7644408 -0.37922186 2.0347569 78
1.9156866 -0.40648502 2.0042477 38
2.2992542 -0.48787752 1.9769365 69
2.8202925 -0.59895188 1.9749157 69
3.5332592 -0.75037026 1.9765077 44
4.5626259 -0.96981341 1.972922 8
2.9424043 -0.62596142 0.97360796 37
2.9212692 -0.62146521 0.65850514 25
2.9076998 -0.61910892 0.35931864 92
2.0996592 -0.44858971 1.9927584 36
2.5441003 -0.54400939 1.9778926 60
3.1510599 -0.67380047 1.9783952 39
4.0041862 -0.85695857 1.9804192 55
2.9512675 -0.63215554 1.1390175 28
2.9372754 -0.62969464 0.81524527 37
2.9099092 -0.62435913 0.50677985 95
3.3017225 -0.70903093 0.2299003 89
0.030413736 -0.0070484094 1.984198 77
0.30576321 -0.067373864 1.9909451 103
0.42029279 -0.091601811 2.0915227 73
0.59235185 -0.12869677 1.9838723 86
0.80097771 -0.17389089 1.99051 93
1.0258383 -0.22253071 1.9901714 87
1.2766732 -0.27694908 1.9912933 14
1.6122434 -0.34974983 2.0511119 52
0.12101871 -0.027856484 1.9810979 89
0.21285844 -0.050149973 1.993349 93
0.49601021 -0.10875373 1.9912384 88
0.69374615 -0.15187439 1.9854547 87
0.9121964 -0.19937557 1.9936218 78
1.1405516 -0.24929294 1.979813 89
1.4100528 -0.30820417 1.9852921 84
1.7697302 -0.38682646 2.0421071 76
1.9142561 -0.41316953 2.0042477 36
2.2975371 -0.49590039 1.9769365 69
2.8181846 -0.6087929 1.9749157 69
3.5349488 -0.76363456 1.9788257 49
4.5546813 -0.98475426 1.9710488 8
2.9402013 -0.6362285 0.97360796 23
2.9238834 -0.63269746 0.65943784 25
2.910388 -0.63030899 0.35976484 92
2.1017296 -0.45670909 1.9960833 34
2.5421855 -0.55288661 1.9778926 56
3.1486886 -0.68479562 1.9783952 36
4.0011702 -0.87093055 1.9804192 57
2.9536572 -0.64345878 1.1406602 29
2.9350593 -0.63994384 0.81524527 64
2.9077122 -0.63451278 0.50677985 95
3.2992277 -0.72055179 0.2299003 89
0.030388948 -0.0071545304 1.984198 78
0.30552617 -0.068440773 1.9909451 103
0.41997048 -0.093068346 2.0915227 73
0.59189892 -0.13076366 1.9838723 84
0.80036587 -0.17668577 1.99051 93
1.0250553 -0.22611019 1.9901714 87
1.2756988 -0.28140381 1.9912933 14
1.6016208 -0.35330364 2.0396011 47
0.12092073 -0.028278749 1.9810979 88
0.21268208 -0.050892681 1.993349 93
0.49562752 -0.11048447 1.9912384 88
0.69321179 -0.15429509 1.9854547 87
0.90936905 -0.20208608 1.9891212 78
1.1396744 -0.25327268 1.979813 89
1.4089684 -0.31312436 1.9852921 87
1.7716784 -0.39373714 2.0457823 76
1.9162855 -0.42061362 2.0077524 36
2.2957921 -0.50391734 1.9769365 67
2.8160422 -0.61862653 1.9749157 61
3.5322616 -0.77596921 1.9788257 53
4.5512161 -1.0006471 1.9710488 8
2.9426479 -0.64751887 0.97501719 23
2.9216571 -0.64289987 0.65943784 25
2.90817 -0.64046431 0.35976484 92
2.1037693 -0.46484846 1.9994081 30
2.5402403 -0.56175715 1.9778926 48
3.1462789 -0.69578242 1.9783952 31
3.9936745 -0.88391119 1.9783211 57
2.9513931 -0.65376502 1.1406602 29
2.9328077 -0.65018511 0.81524527 86
2.9103141 -0.64573133 0.50746965 79
3.2966921 -0.73206383 0.2299003 89
0.030363789 -0.0072605638 1.984198 77
0.30528539 -0.069506839 1.9909451 102
0.41964307 -0.094533756 2.0915227 71
0.59143889 -0.132829 1.9838723 86
0.79783809 -0.17905065 1.9859076 90
1.0265975 -0.2302112 1.9945602 87
1.2747085 -0.28585511 1.9912933 17
1.5941213 -0.35748914 2.0319271 49
0.12082128 -0.02870067 1.9810979 89
0.21250314 -0.05163477 1.993349 93
0.49401215 -0.11193582 1.9863992 86
0.69266903 -0.1567139 1.9854547 89
0.90865815 -0.20525913 1.9891212 76
1.1413273 -0.25782403 1.9840788 91
1.4078668 -0.31804061 1.9852921 84
1.7736001 -0.40066606 2.0494576 73
1.9148058 -0.42730016 2.0077524 34
2.2940192 -0.51192808 1.9769365 67
2.8138657 -0.6284526 1.9749157 63
3.5295317 -0.78829432 1.9788257 54
4.5431714 -1.0155165 1.9691759 8
2.9403694 -0.65778667 0.97501719 23
2.919395 -0.65309441 0.65943784 25
2.9059167 -0.65061176 0.35976484 92
2.1021338 -0.47218916 1.9994081 29
2.5422072 -0.57150733 1.9808358 39
3.1396246 -0.70581514 1.9758627 28
3.9905646 -0.89784634 1.9783211 57
2.9490929 -0.66406333 1.1406602 29
2.9352617 -0.66148716 0.81641757 88
2.9080424 -0.65588635 0.50746965 27
3.2941167 -0.74356699 0.2299003 89
0.030380515 -0.0073773973 1.9891979 78
0.30504093 -0.070572063 1.9909451 102
0.41931051 -0.095997997 2.0915227 71
0.59097165 -0.13489269 1.9838723 82
0.79720813 -0.18183453 1.9859076 90
1.0257877 -0.23379329 1.9945602 87
1.2737031 -0.29030293 1.9912933 35
1.602241 -0.36518884 2.0434382 54
0.12072036 -0.029122241 1.9810979 89
0.21232161 -0.052376229 1.993349 91
0.4936184 -0.11365957 1.9863992 86
0.69211775 -0.15913081 1.9854547 89
0.90793616 -0.20842969 1.9891212 74
1.1404203 -0.26180646 1.9840788 89
1.4067481 -0.32295308 1.9852921 82
1.7787993 -0.40837184 2.0568078 50
1.9133024 -0.43398142 2.0077524 34
2.2922182 -0.51993257 1.9769365 67
2.8116548 -0.63827097 1.9749157 67
3.5267584 -0.80060995 1.9788257 49
4.5395994 -1.031369 1.9691759 8
2.9427333 -0.66911012 0.97642636 23
2.9170976 -0.66328108 0.65943784 25
2.9084837 -0.66185641 0.36021107 92
2.1041131 -0.48035517 2.002733 27
2.5401971 -0.58037782 1.9808358 36
3.1371417 -0.71677017 1.9758627 26
3.9874065 -0.91177052 1.9783211 55
2.9513605 -0.67540699 1.1423029 29
2.9329348 -0.67172909 0.81641757 37
2.910562 -0.66713965 0.50815946 27
3.2915013 -0.75506109 0.2299003 88
0.030354578 -0.0074834004 1.9891979 78
0.30479273 -0.071636423 1.9909451 102
0.41897288 -0.097461082 2.0915227 73
0.5904972 -0.13695474 1.9838723 84
0.79656857 -0.18461621 1.9859076 91
1.0249654 -0.23737253 1.9945602 87
1.2726818 -0.29474723 1.9912933 40
1.6165727 -0.37439626 2.0626228 62
0.12061797 -0.029543454 1.9810979 89
0.21213749 -0.053117052 1.993349 93
0.49321863 -0.11538192 1.9863992 86
0.69155806 -0.1615458 1.9854547 91
0.90508217 -0.21110301 1.9846202 76
1.1420394 -0.26637813 1.9883448 79
1.4026771 -0.32717693 1.9813027 82
1.7542523 -0.40918776 2.0310817 34
1.9117758 -0.44065747 2.0077524 36
2.2903893 -0.52793074 1.9769365 67
2.8094099 -0.6480816 1.9749157 67
3.5239422 -0.81291574 1.9788257 49
4.5359716 -1.0472088 1.9691759 7
2.9403799 -0.67937809 0.97642636 23
2.9147646 -0.67345965 0.65943784 25
2.9061558 -0.67200488 0.36021107 90
2.1024237 -0.48769701 2.002733 27
2.5381556 -0.58924127 1.9808358 33
3.1304209 -0.72674149 1.9733303 26
3.9841995 -0.92568362 1.9783211 54
2.9489849 -0.68570507 1.1423029 31
2.9353065 -0.68306458 0.81758988 24
2.9082155 -0.67729539 0.50815946 27
3.2937109 -0.76767993 0.23010182 88
0.03032827 -0.0075893113 1.9891979 78
0.30454081 -0.072699912 1.9909451 102
0.41863012 -0.098922975 2.0915227 73
0.59001553 -0.13901512 1.9838723 86
0.79591936 -0.18739563 1.9859076 90
1.0241305 -0.24094887 1.9945602 87
1.2716453 -0.2991879 1.9912933 63
1.6246182 -0.38223958 2.0741336 59
0.12051411 -0.029964309 1.9810979 89
0.21195078 -0.053857226 1.993349 93
0.49281293 -0.11710288 1.9863992 84
0.69098997 -0.1639588 1.9854547 91
0.90433979 -0.21426105 1.9846202 76
1.1411027 -0.27036297 1.9883448 67
1.4015266 -0.33207121 1.9813027 84
1.7462156 -0.41374546 2.0237315 34
1.9102261 -0.44732815 2.0077524 36
2.2885327 -0.53592247 1.9769365 67
2.8071303 -0.6578843 1.9749157 67
3.5210834 -0.82521164 1.9788257 56
4.5322881 -1.063036 1.9691759 7
2.942661 -0.69073409 0.9778356 23
2.9171782 -0.68475246 0.66037041 26
2.9086404 -0.68328404 0.36065727 90
2.1043434 -0.49588946 2.006058 26
2.5360832 -0.59809744 1.9808358 29
3.1278651 -0.73766428 1.9733303 26
3.9809437 -0.93958545 1.9783211 53
2.9465735 -0.69599473 1.1423029 35
2.9376345 -0.69442469 0.81876218 24
2.9058337 -0.6874429 0.50815946 26
3.2910113 -0.77917248 0.23010182 88
0.030301593 -0.007695131 1.9891979 78
0.3042852 -0.073762514 1.9909451 102
0.41828227 -0.10038367 2.0915227 73
0.58952665 -0.14107382 1.9838723 82
0.79526037 -0.19017276 1.9859076 88
1.0209529 -0.24396543 1.9901714 87
1.2705932 -0.30362496 1.9912933 84
1.6419826 -0.39237908 2.0971551 57
0.12040878 -0.030384801 1.9810979 89
0.21176149 -0.054596744 1.993349 93
0.49240112 -0.1188224 1.9863992 84
0.69041342 -0.1663698 1.9854547 91
0.90358633 -0.21741648 1.9846202 76
1.1426876 -0.27495465 1.9926107 39
1.4003588 -0.33696142 1.9813027 84
1.7348723 -0.41745892 2.0127058 36
1.9086529 -0.45399335 2.0077524 38
2.2866478 -0.5439077 1.9769365 67
2.8048167 -0.66767901 1.9749157 69
3.5181811 -0.83749747 1.9788257 57
4.5285497 -1.0788502 1.9691759 7
2.9402318 -0.7010017 0.9778356 23
2.9147699 -0.69493109 0.66037041 33
2.9062378 -0.69343293 0.36065727 90
2.1025996 -0.503232 2.006058 26
2.5339801 -0.60694641 1.9808358 28
3.1252711 -0.74857801 1.9733303 27
3.9776399 -0.95347583 1.9783211 53
2.9487183 -0.70737767 1.1439456 54
2.9351926 -0.70467472 0.81876218 24
2.9082315 -0.69873881 0.50884926 26
3.293129 -0.79182351 0.23030338 86
0.030274548 -0.0078008566 1.9891979 80
0.30402586 -0.074824221 1.9909451 102
0.41792929 -0.10184314 2.0915227 73
0.58903068 -0.14313079 1.9838723 82
0.79459167 -0.19294758 1.9859076 90
1.0200952 -0.24752773 1.9901714 87
1.2695256 -0.30805832 1.9912933 82
1.6374876 -0.39735225 2.0933185 55
0.12030198 -0.030804921 1.9810979 89
0.21156962 -0.055335592 1.993349 93
0.49320504 -0.12083987 1.9912384 84
0.68982852 -0.16877878 1.9854547 91
0.90282196 -0.22056925 1.9846202 74
1.1417209 -0.27894169 1.9926107 17
1.3991741 -0.34184754 1.9813027 82
1.7268181 -0.42190295 2.0053556 36
1.9070567 -0.46065301 2.0077524 38
2.2847354 -0.55188626 1.9769365 67
2.802469 -0.67746562 1.9749157 69
3.5152364 -0.84977305 1.9788257 57
4.5292616 -1.095741 1.9710488 8
2.937767 -0.71126074 0.9778356 23
2.9171011 -0.70625728 0.66130304 50
2.9086394 -0.70474607 0.3611035 26
2.1008303 -0.51056838 2.006058 25
2.531846 -0.61578798 1.9808358 27
3.1226392 -0.75948274 1.9733303 30
3.9742873 -0.9673546 1.9783211 54
2.9416425 -0.71654862 1.1423029 61
2.9374371 -0.71606737 0.81993455 24
2.9057748 -0.70888615 0.50884926 27
3.2903447 -0.80331385 0.23030338 86
0.030247133 -0.0079064872 1.9891979 78
0.30376279 -0.075885005 1.9909451 102
0.41658285 -0.10305676 2.0866275 71
0.58852744 -0.14518602 1.9838723 86
0.7939133 -0.19572005 1.9859076 91
1.019225 -0.25108701 1.9901714 87
1.2684425 -0.31248793 1.9912933 76
1.645429 -0.40536642 2.1048291 50
0.12019372 -0.031224664 1.9810979 88
0.21137518 -0.056073777 1.993349 93
0.49278024 -0.12256075 1.9912384 84
0.68923515 -0.1711857 1.9854547 89
0.90416026 -0.22424361 1.9891212 73
1.1432716 -0.28355321 1.9968767 17
1.3979723 -0.34672949 1.9813027 82
1.7253349 -0.42792809 2.0053556 38
1.9054371 -0.46730709 2.0077524 38
2.2827952 -0.55985808 1.9769365 67
2.8000872 -0.68724394 1.9749157 69
3.5122488 -0.86203843 1.9788257 57
4.5254097 -1.1115445 1.9710488 8
2.9352665 -0.72151113 0.9778356 23
2.9193881 -0.71760809 0.66223562 59
2.9061618 -0.71489483 0.3611035 23
2.1026604 -0.51879305 2.0093827 24
2.5296812 -0.62462199 1.9808358 27
3.1199689 -0.77037817 1.9733303 35
3.9708865 -0.9812215 1.9783211 55
2.9574611 -0.7313472 1.1488737 17
2.9349196 -0.72631657 0.81993455 24
2.9080894 -0.72021538 0.50953913 27
3.2923696 -0.81599623 0.2305049 85
0.030220749 -0.0080067459 1.9891979 78
0.3035095 -0.076891907 1.9909451 102
0.41623878 -0.10443763 2.0866275 71
0.58804274 -0.14713685 1.9838723 84
0.79325992 -0.19835168 1.9859076 90
1.0183867 -0.25446549 1.9901714 87
1.2673993 -0.3166925 1.9912933 76
1.6440758 -0.41082063 2.1048291 50
0.12009504 -0.031602107 1.9810979 88
0.21171343 -0.056876734 1.9983203 93
0.49239278 -0.12410825 1.9912384 86
0.68869394 -0.17335016 1.9854547 89
0.90341169 -0.22724068 1.9891212 73
1.1397957 -0.28670663 1.9926107 17
1.3968148 -0.35136342 1.9813027 84
1.7206942 -0.43251982 2.0016804 38
1.9038769 -0.47362316 2.0077524 38
2.280926 -0.56742501 1.9769365 67
2.7977927 -0.69652551 1.9749157 67
3.5093708 -0.87368071 1.9788257 57
4.5218949 -1.125756 1.9710488 8
2.9329851 -0.73072898 0.9778356 23
2.9169924 -0.72728521 0.66223562 25
2.9086068 -0.7257337 0.36154971 23
2.1009285 -0.5257628 2.0093827 25
2.5275958 -0.63300729 1.9808358 28
3.1175332 -0.78017598 1.9733303 38
3.9677844 -0.99369156 1.9783211 55
5.3463154 -1.3399234 2.006355 11
2.9326236 -0.7355333 0.81993455 24
2.9058125 -0.72934788 0.50953913 27
3.2946355 -0.82755256 0.23070642 86
0.030192617 -0.0081121875 1.9891979 80
0.30323926 -0.07795088 1.9909451 102
0.41587174 -0.10588994 2.0866275 71
0.58752555 -0.14918862 1.9838723 86
0.79256272 -0.20111947 1.9859076 90
1.0174922 -0.25801882 1.9901714 87
1.2662861 -0.3211146 1.9912933 82
1.6208789 -0.41104063 2.0779707 40
0.11997841 -0.032042071 1.9810979 88
0.21150355 -0.057652321 1.9983203 93
0.4919346 -0.12591213 1.9912384 84
0.68805397 -0.17587318 1.9854547 89
0.90261292 -0.23039278 1.9891212 71
1.138788 -0.29068351 1.9926107 25
1.3955798 -0.35623705 1.9813027 84
1.7190974 -0.43882355 2.0016804 39
1.902212 -0.48026606 2.0077524 36
2.2789314 -0.57538348 1.9769365 67
2.7953446 -0.70628738 1.9749157 67
3.5062997 -0.88592535 1.9788257 57
4.5177388 -1.1423219 1.9710488 8
2.9302871 -0.74147403 0.9778356 23
2.919198 -0.73866808 0.66316831 25
2.9060557 -0.73588216 0.36154971 23
2.1027 -0.53401256 2.0127075 25
2.5253708 -0.64182645 1.9808358 30
3.1188314 -0.79265904 1.9758627 44
3.9641154 -1.0082276 1.9783211 53
5.3505216 -1.3618394 2.0096405 13
2.9299078 -0.74627697 0.81993455 23
2.9079185 -0.74121654 0.51022893 27
3.3012624 -0.8420921 0.2311095 85
0.030164115 -0.0082175303 1.9891979 80
0.30296528 -0.079008915 1.9909451 101
0.41549957 -0.10734095 2.0866275 69
0.5870012 -0.15123855 1.9838723 86
0.79185587 -0.20388481 1.9859076 91
1.0165854 -0.26156893 1.9901714 87
1.2651576 -0.32553279 1.9912933 80
1.6008055 -0.41190258 2.0549488 40
0.11986582 -0.032460675 1.9810979 88
0.21130103 -0.058390252 1.9983203 93
0.49027461 -0.12731232 1.9863992 86
0.68743587 -0.17827387 1.9854547 89
0.9018032 -0.23354211 1.9891212 71
1.1352417 -0.29400298 1.9883448 37
1.3943279 -0.3611064 1.9813027 84
1.7274007 -0.44737154 2.0127058 39
1.9039786 -0.48778817 2.0112567 36
2.2769089 -0.58333492 1.9769365 67
2.7928619 -0.71604067 1.9749157 69
3.5031857 -0.89815921 1.9788257 57
4.5137234 -1.1580848 1.9710488 8
2.9276812 -0.75169808 0.9778356 39
2.9166019 -0.74885345 0.66316831 25
2.9034693 -0.74602169 0.36154971 23
2.1008234 -0.54134911 2.0127075 25
2.5231149 -0.65063763 1.9808358 34
3.1160457 -0.803541 1.9758627 54
3.960572 -1.0220586 1.9783211 52
5.3594522 -1.3840501 2.0145686 13
2.9319913 -0.75771588 0.82110679 23
2.9053135 -0.7513625 0.51022893 28
3.3031392 -0.85486227 0.23131102 86
0.030135248 -0.0083227726 1.9891979 78
0.30268767 -0.080065973 1.9909451 101
0.41512233 -0.10879067 2.0866275 69
0.58646971 -0.15328664 1.9838723 86
0.7911393 -0.20664766 1.9859076 91
1.0156661 -0.26511589 1.9901714 87
1.2640135 -0.32994708 1.9912933 82
1.5807461 -0.41262951 2.0319271 38
0.11975179 -0.032878891 1.9810979 86
0.21109591 -0.059127472 1.9983203 91
0.48982725 -0.12902293 1.9863992 86
0.68680936 -0.18067238 1.9854547 89
0.9009825 -0.23668855 1.9891212 71
1.1342086 -0.29796392 1.9883448 50
1.3959738 -0.3667371 1.9852921 84
1.7389441 -0.45684427 2.0274065 39
1.9022645 -0.49443132 2.0112567 35
2.274859 -0.59127927 1.9769365 67
2.7903457 -0.72578526 1.9749157 69
3.5000293 -0.91038215 1.9788257 57
4.5096536 -1.1738337 1.9710488 8
2.9250395 -0.76191306 0.9778356 86
2.9187238 -0.76026791 0.66410089 24
2.9056668 -0.75740838 0.36199591 23
2.1025336 -0.54962343 2.0160325 25
2.5208285 -0.65944099 1.9808358 37
3.1173925 -0.81550425 1.9783952 57
3.9569802 -1.0358775 1.9783211 52
5.3591571 -1.4039466 2.0162113 12
2.9293282 -0.76794583 0.82110679 23
2.9074633 -0.76275605 0.51091874 33
3.3097994 -0.86892438 0.23171407 84
0.030106012 -0.0084279133 1.9891979 77
0.30240634 -0.081122063 1.9909451 101
0.41474006 -0.11023904 2.0866275 69
0.58593112 -0.15533286 1.9838723 84
0.7904132 -0.20940799 1.9859076 91
1.0147346 -0.26865959 1.9901714 79
1.2628541 -0.33435726 1.9912933 82
1.5638008 -0.41404206 2.0127425 37
0.11963628 -0.033296697 1.9810979 86
0.21088824 -0.059863977 1.9983203 91
0.48937389 -0.13073197 1.9863992 86
0.68617451 -0.18306868 1.9854547 89
0.89804643 -0.23927142 1.9846202 73
1.1306412 -0.30124974 1.9840788 71
1.3946851 -0.37160772 1.9852921 84
1.7504421 -0.46640301 2.0421071 40
1.900527 -0.50106847 2.0112567 35
2.2727811 -0.5992164 1.9769365 67
2.7877951 -0.7355209 1.9749157 67
3.4968302 -0.92259395 1.9788257 58
4.5055289 -1.189568 1.9710488 8
2.927 -0.7733441 0.97924471 83
2.9160521 -0.77045149 0.66410089 24
2.9030054 -0.76754647 0.36199591 23
2.104212 -0.5579164 2.0193572 24
2.5146046 -0.66719979 1.9778926 40
3.114527 -0.82638103 1.9783952 61
3.9533403 -1.0496836 1.9783211 53
5.3496599 -1.4214323 2.0145686 12
2.9266298 -0.77816635 0.82110679 24
2.904783 -0.77290034 0.51091874 57
3.3164017 -0.88304341 0.23211715 83
0.030076411 -0.0085329507 1.9891979 80
0.30212131 -0.08217717 1.9909451 100
0.41533583 -0.11195116 2.0915227 69
0.58538526 -0.1573772 1.9838723 84
0.78967738 -0.21216577 1.9859076 91
1.0137906 -0.27220005 1.9901714 67
1.2616792 -0.33876342 1.9912933 82
1.5592495 -0.41866684 2.0089054 36
0.11951933 -0.033714104 1.9810979 88
0.21067798 -0.060599748 1.9983203 93
0.48891455 -0.13243939 1.9863992 86
0.68553132 -0.18546276 1.9854547 89
0.89720577 -0.24240471 1.9846202 73
1.1295829 -0.30519453 1.9840788 85
1.3933794 -0.37647381 1.9852921 84
1.7651675 -0.47693181 2.060483 50
1.8987663 -0.50769949 2.0112567 35
2.2706757 -0.6071462 1.9769365 67
2.7852106 -0.74524772 1.9749157 67
3.4935884 -0.93479466 1.9788257 60
4.501349 -1.2052881 1.9710488 7
2.9242828 -0.78355658 0.97924471 67
2.9180899 -0.78189719 0.66503352 24
2.9003084 -0.77767527 0.36199591 23
2.1058581 -0.56622773 2.022682 23
2.5122604 -0.6759733 1.9778926 50
3.1116233 -0.83724773 1.9783952 62
3.949652 -1.0634769 1.9783211 53
5.330986 -1.4364116 2.0096405 12
2.9238958 -0.78837746 0.82110679 25
2.9020674 -0.78303522 0.51091874 32
3.3277688 -0.89852136 0.23272175 79
0.030046441 -0.0086378856 1.9891979 78
0.30183262 -0.08323127 1.9909451 100
0.41494256 -0.11340028 2.0915227 71
0.58483237 -0.15941963 1.9838723 84
0.78893197 -0.21492098 1.9859076 90
1.0128342 -0.27573717 1.9901714 44
1.2604891 -0.34316546 1.9912933 82
1.5639652 -0.42579141 2.0165794 35
0.11940091 -0.034131102 1.9810979 88
0.21046518 -0.061334781 1.9983203 93
0.48844928 -0.13414522 1.9863992 86
0.68487978 -0.18785457 1.9854547 89
0.89635414 -0.24553508 1.9846202 74
1.1285106 -0.30913568 1.9840788 87
1.3920568 -0.38133532 1.9852921 82
1.7733011 -0.48577768 2.0715086 64
1.8935405 -0.51339108 2.0077524 38
2.2685425 -0.61506867 1.9769365 66
2.7825923 -0.75496531 1.9749157 67
3.4903042 -0.94698381 1.9788257 60
4.5015883 -1.2222083 1.972922 8
2.9261596 -0.7950173 0.98065394 36
2.9153428 -0.7920785 0.66503352 24
2.9023817 -0.78910089 0.36244211 24
2.1074715 -0.57455736 2.0260069 22
2.505986 -0.68367481 1.9749495 56
3.1086819 -0.84810418 1.9783952 63
3.9459157 -1.0772574 1.9783211 54
5.3077173 -1.4500332 2.0030696 13
2.9211261 -0.79857898 0.82110679 39
2.904093 -0.79446727 0.51160854 27
3.3342493 -0.91277027 0.23312479 75
0.030016106 -0.0087427152 1.9891979 78
0.30154026 -0.08428435 1.9909451 101
0.41454417 -0.114848 2.0915227 67
0.58427233 -0.1614601 1.9838723 82
0.78817701 -0.21767356 1.9859076 90
1.0118656 -0.27927098 1.9901714 22
1.2592834 -0.3475633 1.9912933 82
1.5624695 -0.4312481 2.0165794 34
0.11928105 -0.034547679 1.9810979 88
0.2102498 -0.06206907 1.9983203 93
0.48797804 -0.1358494 1.9863992 86
0.68421978 -0.19024412 1.9854547 89
0.89758992 -0.24924517 1.9891212 74
1.1274247 -0.31307304 1.9840788 85
1.3878133 -0.38538575 1.9813027 82
1.7552619 -0.48742908 2.0531328 57
1.8917369 -0.51999766 2.0077524 38
2.2663815 -0.62298363 1.9769365 66
2.7799399 -0.76467383 1.9749157 67
3.4869771 -0.95916152 1.9788257 60
4.4972949 -1.2379142 1.972922 8
2.9279916 -0.80650049 0.98206311 24
2.9172962 -0.80355448 0.66596609 24
2.8996093 -0.79922724 0.36244211 24
2.1090524 -0.58290511 2.0293317 22
2.5035841 -0.69241816 1.9749495 60
3.1057024 -0.85895032 1.9783952 63
3.9421315 -1.0910245 1.9783211 53
5.28897 -1.4647704 1.9981416 14
2.9183207 -0.80877072 0.82110679 86
2.9013021 -0.80459964 0.51160854 27
3.3358569 -0.92573929 0.23332632 66
0.029985404 -0.0088474378 1.9891979 80
0.30124423 -0.08533641 1.9909451 100
0.41414073 -0.11629434 2.0915227 68
0.58370519 -0.1634986 1.9838723 82
0.78929365 -0.22095014 1.99051 90
1.0108845 -0.2828013 1.9901714 19
1.2580626 -0.35195687 1.9912933 82
1.5609546 -0.43669948 2.0165794 30
0.11915973 -0.034963835 1.9810979 89
0.21003184 -0.062802598 1.9983203 95
0.48871139 -0.13789357 1.9912384 86
0.68355161 -0.19263133 1.9854547 91
0.89671451 -0.25237679 1.9891212 76
1.126325 -0.31700656 1.9840788 85
1.3864596 -0.39022776 1.9813027 82
1.7437596 -0.49079752 2.0421071 50
1.8899103 -0.52659786 2.0077524 38
2.2641933 -0.63089103 1.9769365 67
2.7812817 -0.77549613 1.9776572 59
3.4836078 -0.97132742 1.9788257 58
4.4974117 -1.254851 1.974795 8
2.9251583 -0.81671625 0.98206311 22
2.9144731 -0.81373286 0.66596609 25
2.9015982 -0.81068403 0.36288834 24
2.1106007 -0.59127086 2.0326567 22
2.501152 -0.70115304 1.9749495 64
3.1026855 -0.86978596 1.9783952 63
3.9382989 -1.1047784 1.9783211 51
5.2656384 -1.4781184 1.9915709 15
2.9154799 -0.81895268 0.82110679 86
2.9032433 -0.81606221 0.51229841 26
3.3374145 -0.93873078 0.23352787 40
0.029954338 -0.0089520514 1.9891979 80
0.30094451 -0.086387433 1.9909451 99
0.41373229 -0.11773925 2.0915227 71
0.5831309 -0.16553512 1.9838723 82
0.78851753 -0.22370395 1.99051 90
1.0098912 -0.28632826 1.9901714 19
1.2568264 -0.35634619 1.9912933 80
1.5594207 -0.44214559 2.0165794 30
0.11903696 -0.035379566 1.9810979 88
0.20981134 -0.063535362 1.9983203 95
0.48822713 -0.13959867 1.9912384 86
0.68287504 -0.19501621 1.9854547 89
0.89582807 -0.25550538 1.9891212 78
1.1252115 -0.32093623 1.9840788 85
1.385089 -0.39506504 1.9813027 82
1.7257352 -0.49223191 2.0237315 50
1.8914927 -0.53416085 2.0112567 37
2.2619774 -0.63879067 1.9769365 67
2.778558 -0.78519982 1.9776572 59
3.4801962 -0.98348159 1.9788257 58
4.4930038 -1.2705424 1.974795 8
2.9269056 -0.82822818 0.98347235 22
2.9116151 -0.82390136 0.66596609 25
2.8987508 -0.82080758 0.36288834 24
2.1085243 -0.59863472 2.0326567 22
2.5025773 -0.71098399 1.9778926 64
3.1037774 -0.88178933 1.9809276 65
3.9344184 -1.1185191 1.9783211 51
5.2468195 -1.4926132 1.9866428 16
2.9126031 -0.82912457 0.82110679 86
2.900377 -0.82619148 0.51229841 26
nan nan nan 0
0.029922906 -0.0090565579 1.9891979 80
0.30064115 -0.087437391 1.9909451 99
0.41331878 -0.11918274 2.0915227 71
0.58398491 -0.16798256 1.9886441 82
0.78773189 -0.22645502 1.99051 90
1.0088856 -0.2898517 1.9901714 20
1.2555748 -0.36073118 1.9912933 82
1.5578679 -0.4475863 2.0165794 30
0.11891273 -0.035794869 1.9810979 88
0.20958829 -0.06426736 1.9983203 93
0.48773682 -0.14130202 1.9912384 86
0.68219012 -0.19739869 1.9854547 91
0.89493072 -0.25863087 1.9891212 78
1.1240844 -0.324862 1.9840788 87
1.3837014 -0.39989749 1.9813027 84
1.7305202 -0.50013542 2.0310817 64
1.8896165 -0.54076022 2.0112567 36
2.2597337 -0.6466825 1.9769365 67
2.7758002 -0.79489398 1.9776572 69
3.476742 -0.99562371 1.9788257 50
4.4929981 -1.2874951 1.9766681 8
2.9239969 -0.83843988 0.98347235 22
2.9087214 -0.83405972 0.66596609 25
2.9006548 -0.83229458 0.36333454 71
2.1100101 -0.6070236 2.0359814 20
2.5000803 -0.71971536 1.9778926 66
3.1006804 -0.89261818 1.9809276 65
3.9304903 -1.1322459 1.9783211 51
5.232502 -1.508303 1.9833575 17
2.9143615 -0.84063357 0.82227916 85
2.9022334 -0.83768392 0.51298815 27
6.0666366 -1.7521892 0.34840047 84
0.029891111 -0.0091609526 1.9891979 80
0.30033407 -0.088486299 1.9909451 99
0.41290024 -0.12062476 2.0915227 71
0.58339494 -0.17002001 1.9886441 86
0.78693658 -0.22920334 1.99051 88
1.0078677 -0.29337159 1.9901714 28
1.2543081 -0.36511174 1.9912933 82
1.553218 -0.45212552 2.0127425 33
0.11878707 -0.036209736 1.9810979 88
0.20936269 -0.064998567 1.9983203 93
0.48724064 -0.14300369 1.9912384 84
0.68149686 -0.19977877 1.9854547 89
0.89402246 -0.26175317 1.9891212 80
1.1204407 -0.32805097 1.979813 85
1.3822973 -0.40472507 1.9813027 84
1.7320174 -0.50712562 2.0347569 62
1.8877174 -0.54735291 2.0112567 35
2.2574625 -0.65456653 1.9769365 67
2.7730086 -0.80457854 1.9776572 69
3.4732454 -1.0077537 1.9788257 50
4.4884763 -1.3031709 1.9766681 8
2.9256592 -0.84997982 0.98488152 22
2.9057922 -0.844208 0.66596609 34
2.8977318 -0.84241474 0.36333454 40
2.1078784 -0.61438519 2.0359814 21
2.4975529 -0.72843784 1.9778926 67
3.0975456 -0.90343612 1.9809276 66
3.9265141 -1.145959 1.9783211 53
5.2181387 -1.5239108 1.980072 20
2.916075 -0.85216486 0.82345146 85
2.8992918 -0.84780949 0.51298815 27
6.0700736 -1.7761612 0.34880355 81
0.029858952 -0.0092652366 1.9891979 80
0.30002335 -0.089534111 1.9909451 99
0.41247666 -0.12206531 2.0915227 71
0.58279788 -0.17205541 1.9886441 86
0.78613174 -0.23194887 1.99051 88
1.0045397 -0.29621035 1.9857829 37
1.2530259 -0.36948785 1.9912933 82
1.5516303 -0.45754451 2.0127425 33
0.11865994 -0.036624156 1.9810979 89
0.20862536 -0.065568253 1.993349 93
0.48673847 -0.14470361 1.9912384 84
0.68079543 -0.20215642 1.9854547 89
0.89310342 -0.26487231 1.9891212 80
1.1192888 -0.33196005 1.979813 85
1.3808761 -0.40954772 1.9813027 84
1.736737 -0.51509637 2.0421071 62
1.8857952 -0.55393887 2.0112567 35
2.2551639 -0.66244256 1.9769365 67
2.7661712 -0.81307393 1.9749157 67
3.4697065 -1.0198715 1.9788257 61
4.4883475 -1.3201387 1.978541 8
2.9226742 -0.86018711 0.98488152 22
2.9028275 -0.85434592 0.66596609 85
2.8995509 -0.85393155 0.36378074 26
2.1093028 -0.62279689 2.0393064 21
2.4949946 -0.73715144 1.9778926 69
3.094373 -0.91424298 1.9809276 66
3.9224901 -1.159658 1.9783211 53
5.2037311 -1.5394369 1.9767867 24
2.9177432 -0.86371839 0.82462376 71
2.8963146 -0.85792476 0.51298815 27
6.0686264 -1.7987584 0.34900507 81
0.029826429 -0.0093694068 1.9891979 80
0.29970902 -0.090580843 1.9909451 99
0.4110727 -0.12321194 2.0866275 71
0.58219379 -0.17408869 1.9886441 88
0.78344554 -0.23413213 1.9859076 90
1.0034996 -0.29971501 1.9857829 46
1.2517285 -0.37385949 1.9912933 82
1.5500237 -0.46295792 2.0127425 36
0.11853138 -0.037038136 1.9810979 89
0.20839521 -0.066296086 1.993349 93
0.4862304 -0.14640176 1.9912384 84
0.6800856 -0.20453162 1.9854547 89
0.89217335 -0.2679882 1.9891212 80
1.1181232 -0.33586508 1.979813 85
1.379438 -0.41436541 1.9813027 84
1.7414221 -0.52310628 2.0494576 64
1.8838501 -0.56051826 2.0112567 37
2.2528379 -0.67031056 1.9769365 67
2.7633162 -0.82272476 1.9749157 67
3.4661252 -1.0319769 1.9788257 61
4.4837122 -1.3357979 1.978541 8
2.9150565 -0.86901343 0.98347235 26
2.9045353 -0.86587691 0.66689879 85
2.9013245 -0.86547118 0.36422694 23
2.1106935 -0.63122582 2.0426311 22
2.4924066 -0.74585617 1.9778926 69
3.0911632 -0.92503881 1.9809276 68
3.9184182 -1.1733431 1.9783211 53
5.1983256 -1.557592 1.9767867 24
2.9193664 -0.87529379 0.82579607 39
2.8933022 -0.86802959 0.51298815 27
6.0718803 -1.8228039 0.34940815 70
0.029793542 -0.0094734635 1.9891979 80
0.299391 -0.091626473 1.9909451 99
0.41064012 -0.12464611 2.0866275 71
0.58158255 -0.17611988 1.9886441 86
0.78262347 -0.23686545 1.9859076 90
1.0024472 -0.30321604 1.9857829 69
1.2504159 -0.37822655 1.9912933 80
1.5483983 -0.4683657 2.0127425 38
0.11840137 -0.037451662 1.9810979 89
0.20816253 -0.067023121 1.993349 91
0.48571643 -0.14809814 1.9912384 84
0.67936748 -0.20690431 1.9854547 89
0.89123243 -0.27110082 1.9891212 78
1.1169441 -0.33976603 1.979813 83
1.3779832 -0.41917801 1.9813027 84
1.7460723 -0.53115505 2.0568078 54
1.8818822 -0.56709063 2.0112567 37
2.2504842 -0.67817026 1.9769365 67
2.7604277 -0.83236551 1.9749157 69
3.462502 -1.0440695 1.9788257 58
4.4745841 -1.3501018 1.9766681 9
2.9120052 -0.87918359 0.98347235 86
2.9014952 -0.87601042 0.66689879 85
2.8982856 -0.87559336 0.36422694 23
2.1120512 -0.63967216 2.0459561 20
2.4897878 -0.75455177 1.9778926 69
3.0879152 -0.93582338 1.9809276 66
3.9142985 -1.1870137 1.9783211 53
5.1928573 -1.5757279 1.9767867 29
2.9162931 -0.88547897 0.82579607 26
2.8902545 -0.87812376 0.51298815 27
6.0654807 -1.8439876 0.34940815 32
0.02976029 -0.0095774047 1.9891979 80
0.29906934 -0.092670992 1.9909451 99
0.41020253 -0.12607875 2.0866275 71
0.58096421 -0.17814891 1.9886441 86
0.78179187 -0.23959588 1.9859076 88
1.0013828 -0.3067134 1.9857829 81
1.2490879 -0.38258901 1.9912933 76
1.5467539 -0.47376776 2.0127425 38
0.11826992 -0.03786473 1.9810979 89
0.20792729 -0.067749336 1.993349 93
0.4851965 -0.14979269 1.9912384 86
0.67864114 -0.20927447 1.9854547 89
0.89028066 -0.27421018 1.9891212 64
1.1157513 -0.3436628 1.979813 85
1.3765116 -0.42398548 1.9813027 84
1.7377276 -0.53525078 2.0494576 50
1.8798913 -0.5736562 2.0112567 38
2.2481031 -0.68602186 1.9769365 67
2.7575052 -0.84199613 1.9749157 69
3.4588363 -1.0561496 1.9788257 58
4.4654098 -1.3643581 1.974795 9
2.9089186 -0.88934296 0.98347235 87
2.8984196 -0.88613307 0.66689879 85
2.8999741 -0.88716185 0.36467317 23
2.1098056 -0.64704067 2.0459561 20
2.4871387 -0.76323813 1.9778926 69
3.0846298 -0.94659656 1.9809276 66
3.9101315 -1.2006699 1.9783211 53
5.187325 -1.5938449 1.9767867 31
2.9178307 -0.89708173 0.82696843 24
2.8871717 -0.88820732 0.51298815 27
2.8694243 -0.88329571 0.21478549 15
0.02972668 -0.0096812295 1.9891979 80
0.29948539 -0.093947113 1.9958843 99
0.40975994 -0.12750986 2.0866275 73
0.58033884 -0.18017577 1.9886441 86
0.78095078 -0.24232338 1.9859076 88
1.000306 -0.31020701 1.9857829 83
1.247745 -0.3869468 1.9912933 76
1.5420285 -0.47821441 2.0089054 35
0.11813702 -0.038277339 1.9810979 89
0.2081964 -0.068642549 1.9983203 93
0.48467067 -0.15148543 1.9912384 84
0.67790651 -0.2116421 1.9854547 91
0.88931811 -0.27731615 1.9891212 40
1.1145447 -0.3475554 1.979813 85
1.3750232 -0.42878786 1.9813027 84
1.729376 -0.53929484 2.0421071 49
1.8778772 -0.5802148 2.0112567 38
2.2456949 -0.693865 1.9769365 67
2.7545493 -0.8516165 1.9749157 71
3.4551287 -1.0682168 1.9788257 61
4.456192 -1.3785669 1.972922 29
2.9057965 -0.89949155 0.98347235 87
2.9000015 -0.89769769 0.66783142 84
2.8968594 -0.8972792 0.36467317 23
2.1111007 -0.6555087 2.0492809 21
2.4844594 -0.77191526 1.9778926 69
3.0813067 -0.95735818 1.9809276 66
3.9102502 -1.215659 1.9804192 53
5.1817298 -1.6119423 1.9767867 34
2.9146817 -0.90726143 0.82696843 24
2.8887818 -0.89975274 0.51367801 94
2.8758626 -0.89627939 0.21518856 54
0.029692702 -0.009784936 1.9891979 82
0.29915559 -0.094991945 1.9958843 98
0.41028354 -0.12924543 2.0915227 71
0.57970637 -0.18220043 1.9886441 84
0.78010017 -0.24504793 1.9859076 90
0.99921715 -0.31369683 1.9857829 81
1.2437018 -0.39045703 1.9871606 80
1.54035 -0.48359418 2.0089054 32
0.11800269 -0.038689479 1.9810979 89
0.20795554 -0.069368877 1.9983203 93
0.48413894 -0.15317632 1.9912384 84
0.6771636 -0.21400717 1.9854547 91
0.89042127 -0.28107435 1.9936218 34
1.1133248 -0.35144377 1.979813 87
1.373518 -0.43358496 1.9813027 84
1.7210171 -0.54328704 2.0347569 49
1.8758405 -0.58676618 2.0112567 37
2.2432592 -0.70169973 1.9769365 67
2.7555504 -0.86247557 1.9776572 71
3.4471507 -1.0789475 1.9765077 60
4.4469285 -1.3927279 1.9710488 7
2.9072168 -0.91106379 0.98488152 87
2.8968503 -0.90781516 0.66783142 84
2.8984618 -0.9088757 0.36511937 23
2.1087995 -0.66287386 2.0492809 21
2.4817498 -0.78058285 1.9778926 69
3.0738337 -0.96681452 1.9783952 66
3.9059832 -1.2293009 1.9804192 53
5.1715665 -1.6286017 1.975144 37
2.9114969 -0.9174301 0.82696843 29
2.8856237 -0.90983093 0.51367801 95
2.877481 -0.90781569 0.21539009 49
0.029658366 -0.0098885233 1.9891979 82
0.29882219 -0.096035615 1.9958843 98
0.40982985 -0.13067679 2.0915227 73
0.57764363 -0.18377002 1.9838723 86
0.77924001 -0.24776947 1.9859076 88
0.99583268 -0.31645721 1.9813942 83
1.2423314 -0.39479598 1.9871606 80
1.5355971 -0.48799708 2.0050688 32
0.11786692 -0.039101154 1.9810979 89
0.20771213 -0.070094347 1.9983203 95
0.48360127 -0.15486537 1.9912384 84
0.67641246 -0.21636958 1.9854547 91
0.88943475 -0.28418076 1.9936218 32
1.1120913 -0.35532787 1.979813 87
1.3719963 -0.43837678 1.9813027 84
1.7094222 -0.54619563 2.0237315 52
1.8771808 -0.59438711 2.0147614 36
2.2407961 -0.70952588 1.9769365 69
2.7525232 -0.87208903 1.9776572 69
3.4433637 -1.0909737 1.9765077 60
4.4376206 -1.4068412 1.9691759 7
2.9040189 -0.92120636 0.98488152 87
2.8936639 -0.91792154 0.66783142 82
2.8952715 -0.91898775 0.36511937 23
2.1100314 -0.67136317 2.0526056 23
2.4790101 -0.78924102 1.9778926 69
3.0745482 -0.97884619 1.9809276 66
3.9016681 -1.2429278 1.9804192 54
5.1658506 -1.6466439 1.975144 37
2.9082768 -0.92758745 0.82696843 88
2.8871479 -0.92140365 0.51436782 95
2.8695352 -0.91633469 0.21518856 27
0.029623669 -0.0099919904 1.9891979 80
0.29848513 -0.097078107 1.9958843 99
0.4093712 -0.13210656 2.0915227 74
0.57699859 -0.18578525 1.9838723 84
0.77837038 -0.25048804 1.9859076 91
0.99472201 -0.31993142 1.9813942 81
1.2409457 -0.39913014 1.9871606 82
1.5338844 -0.49335438 2.0050688 34
0.11772971 -0.039512344 1.9810979 89
0.20746619 -0.070818968 1.9983203 93
0.48305777 -0.15655249 1.9912384 84
0.67565304 -0.21872938 1.9854547 89
0.88843733 -0.28728375 1.9936218 31
1.1108441 -0.35920763 1.979813 85
1.3704576 -0.44316331 1.9813027 84
1.7139567 -0.55424559 2.0310817 52
1.8750947 -0.60093611 2.0147614 36
2.2383058 -0.71734345 1.9769365 69
2.7494624 -0.88169175 1.9776572 69
