# .PCD v0.7 - Point Cloud Data file format
VERSION 0.7
FIELDS x y z intensity
SIZE 4 4 4 4
TYPE F F F F
COUNT 1 1 1 1
WIDTH 1341
HEIGHT 1
VIEWPOINT 0 0 0 1 0 0 0
POINTS 1341
DATA ascii
0.10845662 -0.70533741 1.9948403 91
0.14221862 -0.92283624 1.9936218 95
0.1794036 -1.1641678 1.9968767 91
0.22120245 -1.4354411 1.9972607 84
0.27124694 -1.7602252 2.0090308 86
0.30332053 -1.9347047 2.0042477 73
0.37007812 -2.3605404 2.0083144 35
0.48035112 -3.0674243 2.1202135 37
0.48137566 -3.0739837 1.7145706 70
0.48013481 -3.0695643 1.343583 40
0.48066458 -3.0764685 1.0046103 43
0.47923598 -3.0673246 0.68088806 45
0.48066884 -3.0800202 0.37225875 51
0.33244967 -2.140048 2.0093827 75
0.42060432 -2.7106454 2.0809033 34
0.47821453 -3.0819442 1.917617 79
0.4777154 -3.0822783 1.5293379 77
0.47619566 -3.0760193 1.1718712 49
0.47613975 -3.0792129 0.8422085 45
0.47469234 -3.0734043 0.52540487 62
0.47527814 -3.0807612 0.2194207 55
0.0042650308 -0.030971134 1.9891979 75
0.046310697 -0.31122535 2.0008237 110
0.061699968 -0.40821314 2.0083039 91
0.091428943 -0.60225791 1.9934158 88
0.12344164 -0.81226349 1.9951125 95
0.15824556 -1.0401241 1.9945602 85
0.19733188 -1.2970706 1.9995594 82
0.24282224 -1.5961136 2.0089054 76
0.017284648 -0.12414412 2.0010643 30
0.029116787 -0.21727806 1.9983203 93
0.075632535 -0.50467253 2.0009167 96
0.10599387 -0.70571166 1.9948403 95
0.13899645 -0.92332709 1.9936218 93
0.1753388 -1.1647869 1.9968767 91
0.21619049 -1.4362046 1.9972607 82
0.26510096 -1.7611613 2.0090308 85
0.29656529 -1.9357517 2.0042477 69
0.36183608 -2.3618176 2.0083144 39
0.46964088 -3.0690823 2.1202135 38
0.47064254 -3.0756452 1.7145706 70
0.46871665 -3.0666387 1.3417099 40
0.46992278 -3.0781274 1.0046103 41
0.46778476 -3.0641227 0.67995542 43
0.46991464 -3.0816789 0.37225875 51
0.32497746 -2.1411951 2.0093827 75
0.40568748 -2.6761301 2.054415 33
0.46745363 -3.0835948 1.917617 79
0.46627387 -3.0794394 1.5272398 77
0.46545541 -3.0776627 1.1718712 49
0.46538839 -3.0808561 0.8422085 45
0.46396127 -3.0750427 0.52540487 60
0.46452135 -3.0824015 0.2194207 55
0.0041568959 -0.030985832 1.9891979 77
0.045224037 -0.3113851 2.0008237 110
0.060274661 -0.40842599 2.0083039 95
0.089326113 -0.60257334 1.9934158 86
0.12060556 -0.81268948 1.9951125 95
0.15461391 -1.0406702 1.9945602 83
0.19280306 -1.2977514 1.9995594 82
0.2372493 -1.5969514 2.0089054 78
0.016851198 -0.1242037 2.0010643 32
0.028358169 -0.21737838 1.9983203 93
0.073870435 -0.50493342 2.0009167 96
0.10352984 -0.7060774 1.9948403 93
0.13577259 -0.92380667 1.9936218 92
0.17127189 -1.1653918 1.9968767 89
0.21117587 -1.4369504 1.9972607 82
0.25895172 -1.762076 2.0090308 85
0.28980643 -1.9367751 2.0042477 69
0.35301352 -2.3592165 2.0051763 44
0.45892492 -3.070703 2.1202135 39
0.45990366 -3.0772693 1.7145706 70
0.45800924 -3.0682561 1.3417099 40
0.45846784 -3.0750039 1.0032011 41
0.45708615 -3.0657368 0.67995542 43
0.4591547 -3.0833006 0.37225875 51
0.31750131 -2.1423166 2.0093827 75
0.39338425 -2.6575375 2.0396991 35
0.45668703 -3.0852077 1.917617 79
0.45552179 -3.0810483 1.5272398 77
0.45401964 -3.0745969 1.1702285 47
0.45392218 -3.0776534 0.8410362 45
0.45322457 -3.0766435 0.52540487 60
0.45303172 -3.0790613 0.21921916 59
0.0040487098 -0.031000156 1.9891979 78
0.044136826 -0.31154105 2.0008237 110
0.058848623 -0.40863389 2.0083039 95
0.087222196 -0.60288143 1.9934158 88
0.117768 -0.81310552 1.9951125 95
0.15098034 -1.0412035 1.9945602 83
0.18827188 -1.2984166 1.9995594 82
0.23167346 -1.5977699 2.0089054 78
0.016417544 -0.12426177 2.0010643 33
0.027599204 -0.21747606 1.9983203 93
0.072107442 -0.50518823 2.0009167 96
0.10106453 -0.70643437 1.9948403 91
0.13254707 -0.92427492 1.9936218 92
0.16720286 -1.1659826 1.9968767 89
0.2061587 -1.4376788 1.9972607 84
0.25279936 -1.7629691 2.0090308 85
0.28304404 -1.9377749 2.0042477 73
0.34477615 -2.3604341 2.0051763 64
0.448807 -3.0764239 2.1229548 40
0.44915918 -3.0788558 1.7145706 70
0.4466278 -3.0652487 1.3398368 39
0.44773129 -3.0765858 1.0032011 41
0.44638196 -3.0673137 0.67995542 45
0.44838917 -3.0848846 0.37225875 50
0.31002128 -2.1434119 2.0093827 75
0.37832627 -2.6188896 2.0102675 36
0.4452984 -3.082516 1.9150846 76
0.4447642 -3.0826197 1.5272398 79
0.44328454 -3.0761631 1.1702285 47
0.44317642 -3.0792191 0.8410362 47
0.44248229 -3.0782068 0.52540487 62
0.44228104 -3.0806239 0.21921916 59
0.0039404742 -0.031014096 1.9891979 78
0.043049071 -0.31169322 2.0008237 111
0.057421867 -0.40883681 2.0083039 89
0.085117221 -0.60318232 1.9934158 88
0.11492901 -0.81351167 1.9951125 95
0.14734495 -1.0417241 1.9945602 83
0.18373841 -1.2990659 1.9995594 80
0.22609478 -1.5985689 2.0089054 80
0.01598369 -0.12431832 2.0010643 35
0.026839903 -0.21757105 1.9983203 95
0.070343569 -0.50543684 2.0009167 96
0.098597996 -0.70678288 1.9948403 93
0.12931994 -0.92473191 1.9936218 90
0.1631318 -1.1665592 1.9968767 89
0.201139 -1.4383897 1.9972607 84
0.24617442 -1.7604831 2.0053556 85
0.27627823 -1.9387511 2.0042477 73
0.33653459 -2.3616233 2.0051763 64
0.43570885 -3.0614128 2.111989 38
0.43778503 -3.0760188 1.7122526 69
0.43592533 -3.0667892 1.3398368 39
0.43698925 -3.0781298 1.0032011 43
0.43567228 -3.0688531 0.67995542 46
0.43761823 -3.086431 0.37225875 51
0.30253753 -2.1444809 2.0093827 75
0.3686184 -2.6161921 2.0073245 37
0.43453577 -3.0840514 1.9150846 76
0.43336865 -3.079659 1.5251417 79
0.43254405 -3.0776913 1.1702285 47
0.43174958 -3.0759339 0.8398639 47
0.43173468 -3.0797324 0.52540487 62
0.4315249 -3.082149 0.21921916 63
0.003832191 -0.031027663 1.9891979 78
0.041960798 -0.31184158 2.0008237 111
0.05599441 -0.40903479 2.0083039 89
0.083011203 -0.60347575 1.9934158 88
0.11208863 -0.81390786 1.9951125 95
0.14338052 -1.0398588 1.9901714 81
0.17920271 -1.2996993 1.9995594 80
0.22051336 -1.5993483 2.0089054 80
0.015514201 -0.12408596 1.9960728 36
0.026080273 -0.21766342 1.9983203 95
0.068578832 -0.50567931 2.0009167 95
0.096130267 -0.7071228 1.9948403 93
0.12609123 -0.92517775 1.9936218 92
0.15905875 -1.1671215 1.9968767 89
0.19611685 -1.439083 1.9972607 82
0.24002767 -1.7613317 2.0053556 85
0.26950908 -1.9397037 2.0042477 73
0.32828891 -2.3627834 2.0051763 67
0.41582441 -2.9966471 2.0681257 30
0.42704499 -3.0775282 1.7122526 71
0.42458123 -3.0637002 1.3379638 39
0.4262419 -3.0796363 1.0032011 43
0.42428389 -3.0654895 0.67902285 46
0.42684191 -3.0879397 0.37225875 53
0.29505005 -2.145524 2.0093827 75
0.35948393 -2.6174629 2.0073245 48
0.42318115 -3.0812783 1.9125521 74
0.422616 -3.0811532 1.5251417 79
0.42179826 -3.0791824 1.1702285 47
0.42100996 -3.0774224 0.8398639 47
0.42098179 -3.0812209 0.52540487 62
0.42008817 -3.0786862 0.21901764 59
0.0037238607 -0.031040851 1.9891979 78
0.040872011 -0.31198618 2.0008237 111
0.054431777 -0.40821844 2.0034087 93
0.080904163 -0.60376179 1.9934158 82
0.10924687 -0.81429416 1.9951125 95
0.13974987 -1.0403528 1.9901714 83
0.17466481 -1.3003169 1.9995594 82
0.21492925 -1.6001083 2.0089054 80
0.015080966 -0.12413936 1.9960728 37
0.025320327 -0.21775314 1.9983203 95
0.066813268 -0.50591564 2.0009167 93
0.09366136 -0.70745403 1.9948403 91
0.122861 -0.92561221 1.9936218 93
0.15498377 -1.1676695 1.9968767 89
0.19109233 -1.4397589 1.9972607 84
0.23387802 -1.7621589 2.0053556 86
0.26273659 -1.9406327 2.0042477 73
0.32003927 -2.3639154 2.0051763 66
0.39863864 -2.9483557 2.035228 26
0.41629985 -3.0790002 1.7122526 71
0.41388437 -3.0651636 1.3379638 39
0.41548938 -3.0811055 1.0032011 43
0.41358075 -3.0669518 0.67902285 45
0.41539568 -3.0844753 0.37181252 53
0.28755894 -2.1465409 2.0093827 75
0.3503451 -2.6187019 2.0073245 69
0.41242287 -3.0827367 1.9125521 74
0.41125721 -3.0781112 1.5230438 79
0.41104731 -3.0806363 1.1702285 47
0.41026518 -3.0788732 0.8398639 47
0.40957046 -3.0777626 0.52471507 60
0.40933901 -3.0801342 0.21901764 61
0.003615485 -0.031053662 1.9891979 78
0.039782729 -0.31212693 2.0008237 111
0.053006496 -0.40840596 2.0034087 93
0.078796156 -0.60404056 1.9934158 82
0.1064038 -0.81467056 1.9951125 93
0.1361175 -1.0408343 1.9901714 83
0.17012481 -1.3009187 1.9995594 82
0.20934252 -1.6008488 2.0089054 78
0.014647546 -0.12419125 1.9960728 37
0.024560075 -0.21784018 1.9983203 93
0.065046884 -0.50614578 2.0009167 93
0.091191322 -0.70777667 1.9948403 91
0.11962926 -0.92603552 1.9936218 93
0.15090691 -1.1682035 1.9968767 87
0.18606547 -1.4404171 1.9972607 84
0.22772552 -1.7629645 2.0053556 85
0.25596091 -1.941538 2.0042477 73
0.31178573 -2.3650179 2.0051763 64
0.38288668 -2.9082727 2.0078135 27
0.40554962 -3.0804346 1.7122526 64
0.40318239 -3.0665896 1.3379638 39
0.40410727 -3.0777807 1.001792 43
0.40287259 -3.0683768 0.67902285 45
0.40462631 -3.0859065 0.37181252 51
0.2800644 -2.1475317 2.0093827 75
0.34172395 -2.6239169 2.0102675 69
0.40165961 -3.0841575 1.9125521 76
0.40051004 -3.0795279 1.5230438 79
0.40029138 -3.0820522 1.1702285 47
0.39951539 -3.0802867 0.8398639 47
0.39882457 -3.0791733 0.52471507 60
0.39794394 -3.0765893 0.2188161 63
0.0035070661 -0.031066094 1.9891979 78
0.038692955 -0.31226391 2.0008237 111
0.051580574 -0.4085885 2.0034087 93
0.07668718 -0.60431188 1.9934158 88
0.10355941 -0.81503701 1.9951125 93
0.1324835 -1.0413032 1.9901714 81
0.16558272 -1.3015046 1.9995594 80
0.20375325 -1.6015698 2.0089054 78
0.014213949 -0.12424163 1.9960728 38
0.023799518 -0.21792458 1.9983203 93
0.063279711 -0.50636971 2.0009167 95
0.088720158 -0.70809066 1.9948403 91
0.11639605 -0.92644745 1.9936218 93
0.14682819 -1.1687231 1.9968767 87
0.18103634 -1.4410579 1.9972607 82
0.22199279 -1.7671126 2.0090308 85
0.24918211 -1.9424196 2.0042477 73
0.30352834 -2.366092 2.0051763 66
0.37432653 -2.9220343 2.0160377 35
0.39423147 -3.0774369 1.7099346 64
0.39247555 -3.0679781 1.3379638 39
0.39336139 -3.0791726 1.001792 41
0.39215952 -3.0697644 0.67902285 46
0.39385203 -3.0873001 0.37181252 51
0.27256641 -2.1484959 2.0093827 75
0.33256269 -2.6250937 2.0102675 69
0.39034963 -3.081264 1.9100198 76
0.38975805 -3.0809069 1.5230438 79
0.38953057 -3.083431 1.1702285 47
0.38876078 -3.0816624 0.8398639 45
0.38807383 -3.0805466 0.52471507 60
0.38720223 -3.0779598 0.2188161 62
0.0033944668 -0.031034708 1.984198 78
0.037510049 -0.31162563 1.9958843 111
0.050154019 -0.40876606 2.0034087 93
0.074577272 -0.60457593 1.9934158 88
0.10071378 -0.81539357 1.9951125 93
0.12914191 -1.044137 1.9945602 83
0.16103861 -1.3020747 1.9995594 78
0.19816147 -1.6022712 2.0089054 76
0.013780179 -0.12429049 1.9960728 39
0.023038676 -0.21800634 1.9983203 91
0.061511762 -0.50658756 2.0009167 96
0.086247921 -0.70839602 1.9948403 93
0.11316144 -0.92684805 1.9936218 93
0.1427477 -1.1692286 1.9968767 89
0.17600502 -1.4416809 1.9972607 82
0.21582308 -1.7678766 2.0090308 85
0.24240029 -1.9432776 2.0042477 73
0.29526731 -2.367137 2.0051763 66
0.36360759 -2.9191737 2.0132964 66
0.38348681 -3.0787945 1.7099346 71
0.38176391 -3.0693295 1.3379638 38
0.38261065 -3.0805268 1.001792 41
0.38144162 -3.0711148 0.67902285 46
0.38307294 -3.0886562 0.37181252 53
0.2650651 -2.1494343 2.0093827 75
0.32339737 -2.6262383 2.0102675 69
0.37959164 -3.0826077 1.9100198 76
0.37844741 -3.0777442 1.5209457 79
0.37818953 -3.0800846 1.1685858 47
0.37800139 -3.0830007 0.8398639 45
0.37731832 -3.0818827 0.52471507 60
0.37645578 -3.0792925 0.2188161 60
0.0032861149 -0.031046368 1.984198 78
0.036422044 -0.31175464 1.9958843 111
0.048726853 -0.40893865 2.0034087 91
0.072466455 -0.60483253 1.9934158 88
0.097866908 -0.81574011 1.9951125 95
0.1254964 -1.0445814 1.9945602 83
0.15649255 -1.3026289 1.9995594 82
0.19256729 -1.6029532 2.0089054 76
0.01334624 -0.12433783 1.9960728 40
0.022277553 -0.21808542 1.9983203 91
0.059743069 -0.50679916 2.0009167 96
0.083774626 -0.70869279 1.9948403 93
0.10992545 -0.92723745 1.9936218 93
0.13866545 -1.1697197 1.9968767 91
0.17097153 -1.4422866 1.9972607 84
0.20965074 -1.7686194 2.0090308 86
0.23561551 -1.9441118 2.0042477 73
0.28700265 -2.3681533 2.0051763 66
0.35341555 -2.9204252 2.0132964 66
0.37273747 -3.0801141 1.7099346 71
0.37104762 -3.0706437 1.3379638 38
0.37128061 -3.077081 1.0003827 43
0.37071911 -3.0724275 0.67902285 46
0.37228918 -3.0899744 0.37181252 51
0.25756055 -2.1503465 2.0093827 75
0.31422815 -2.6273513 2.0102675 69
0.36831704 -3.0796332 1.9074873 76
0.36770177 -3.0790465 1.5209457 79
0.36743575 -3.0813861 1.1685858 47
0.36723739 -3.0843012 0.8398639 47
0.36655825 -3.0831809 0.52471507 60
0.36570475 -3.0805881 0.2188161 62
0.0031777227 -0.031057648 1.984198 78
0.035333596 -0.31187993 1.9958843 111
0.047299094 -0.40910625 2.0034087 91
0.070354752 -0.60508186 1.9934158 88
0.095018849 -0.81607676 1.9951125 95
0.12184937 -1.0450131 1.9945602 83
0.15194455 -1.3031672 1.9995594 82
0.18697077 -1.6036155 2.0089054 76
0.012912139 -0.12438366 1.9960728 42
0.021516155 -0.21816187 1.9983203 89
0.057973642 -0.50700468 2.0009167 95
0.081300318 -0.70898092 1.9948403 93
0.10668811 -0.92761552 1.9936218 93
0.13458152 -1.1701967 1.9968767 91
0.16593596 -1.4428746 1.9972607 84
0.20347582 -1.7693404 2.0090308 86
0.22882785 -1.9449224 2.0042477 73
0.27873451 -2.3691406 2.0051763 66
0.34321922 -2.9216409 2.0132964 66
0.3619836 -3.0813966 1.7099346 71
0.35978672 -3.0673156 1.3360907 39
0.36053735 -3.0783582 1.0003827 44
0.35999209 -3.0737026 0.67902285 46
0.36150089 -3.0912552 0.37181252 51
0.25005287 -2.1512322 2.0093827 75
0.30505505 -2.6284323 2.0102675 69
0.3575649 -3.0809 1.9074873 76
0.35695165 -3.0803113 1.5209457 79
0.35667747 -3.0826497 1.1685858 47
0.35591111 -3.0807359 0.83869159 48
0.35579371 -3.0844417 0.52471507 62
0.35494924 -3.0818458 0.2188161 63
0.0030692918 -0.031068552 1.984198 80
0.034244716 -0.31200135 1.9958843 111
0.045870762 -0.40926883 2.0034087 93
0.068242192 -0.60532373 1.9934158 88
0.092169635 -0.81640345 1.9951125 95
0.11820086 -1.0454322 1.9945602 83
0.14739475 -1.3036896 1.9995594 74
0.18173213 -1.6074443 2.0127425 78
0.012449473 -0.12413981 1.9910811 44
0.020754497 -0.21823564 1.9983203 89
0.056203514 -0.50720394 2.0009167 95
0.078825019 -0.7092604 1.9948403 91
0.10344949 -0.92798233 1.9936218 93
0.13049595 -1.1706593 1.9968767 89
0.16089839 -1.443445 1.9972607 84
0.19729842 -1.7700399 2.0090308 86
0.22203742 -1.9457093 2.0042477 73
0.27046299 -2.3700991 2.0051763 67
0.33301869 -2.9228215 2.0132964 66
0.35122529 -3.0826416 1.7099346 71
0.34907758 -3.0685527 1.3360907 39
0.34978968 -3.0795979 1.0003827 44
0.34870628 -3.0700595 0.67809021 49
0.35070822 -3.0924983 0.37181252 55
0.24254215 -2.1520922 2.0093827 75
0.29587826 -2.6294808 2.0102675 69
0.34680831 -3.0821292 1.9074873 76
0.34619722 -3.0815384 1.5209457 80
0.34538838 -3.0791831 1.1669431 47
0.34515518 -3.0819595 0.83869159 47
0.34502485 -3.0856647 0.52471507 60
0.34418944 -3.0830657 0.2188161 65
0.0029643537 -0.031122567 1.9891979 80
0.033155419 -0.31211898 1.9958843 111
0.044551656 -0.41043875 2.0083039 93
0.066128805 -0.60555822 1.9934158 86
0.089319296 -0.81672019 1.9951125 93
0.1145509 -1.0458384 1.9945602 83
0.14314945 -1.3069934 2.0036924 74
0.17612 -1.6080688 2.0127425 78
0.012016068 -0.12418251 1.9910811 45
0.019992584 -0.21830675 1.9983203 89
0.054432701 -0.507397 2.0009167 95
0.076348759 -0.70953125 1.9948403 91
0.10020959 -0.92833769 1.9936218 92
0.12612893 -1.1685146 1.9926107 89
0.15585883 -1.4439977 1.9972607 84
0.19111861 -1.7707177 2.0090308 85
0.21524426 -1.9464725 2.0042477 73
0.26218814 -2.3710287 2.0051763 66
0.32281408 -2.9239662 2.0132964 64
0.33997661 -3.0794454 1.7076166 71
0.33836421 -3.0697527 1.3360907 39
0.33903772 -3.0808001 1.0003827 43
0.33798763 -3.0712581 0.67809021 45
0.33936733 -3.0887532 0.37136632 53
0.23502846 -2.1529257 2.0093827 75
0.28669783 -2.6304977 2.0102675 69
0.33604759 -3.0833213 1.9074873 76
0.33543852 -3.0827279 1.5209457 80
0.33463794 -3.0803699 1.1669431 45
0.33439502 -3.0831456 0.83869159 47
0.33371869 -3.0819273 0.52402526 60
0.33396241 -3.0892158 0.21901764 68
0.0028556974 -0.031132726 1.9891979 78
0.032065719 -0.31223285 1.9958843 111
0.043118689 -0.41059178 2.0083039 91
0.064014606 -0.60578537 1.9934158 86
0.086467862 -0.81702703 1.9951125 95
0.11089954 -1.0462319 1.9945602 81
0.13858631 -1.3074852 2.0036924 80
0.1705057 -1.6086738 2.0127425 73
0.011582517 -0.1242237 1.9910811 47
0.019230431 -0.21837521 1.9983203 93
0.052661221 -0.50758392 2.0009167 96
0.073871568 -0.70979339 1.9948403 91
0.096968479 -0.92868191 1.9936218 93
0.12204929 -1.1689478 1.9926107 89
0.15050444 -1.4415354 1.9932711 84
0.18493649 -1.7713741 2.0090308 85
0.2084485 -1.947212 2.0042477 73
0.25391009 -2.3719296 2.0051763 66
0.31260559 -2.9250748 2.0132964 64
0.3292253 -3.0806131 1.7076166 71
0.32715493 -3.0663052 1.3342178 39
0.32828167 -3.0819647 1.0003827 43
0.32674462 -3.0675347 0.67715758 45
0.32858351 -3.0899193 0.37136632 55
0.22751193 -2.153733 2.0093827 75
0.27751398 -2.6314824 2.0102675 69
0.32483059 -3.0801878 1.9049548 76
0.32467574 -3.0838799 1.5209457 80
0.32388341 -3.0815194 1.1669431 47
0.32363081 -3.0842941 0.83869159 47
0.32295871 -3.0830734 0.52402526 63
0.32317698 -3.0903628 0.21901764 76
0.0027470067 -0.031142503 1.9891979 80
0.031052122 -0.31311604 2.0008237 111
0.04168519 -0.41073978 2.0083039 91
0.061899632 -0.60600513 1.9934158 88
0.083615378 -0.81732392 1.9951125 95
0.10724683 -1.0466126 1.9945602 83
0.13402149 -1.307961 2.0036924 80
0.16488935 -1.6092592 2.0127425 73
0.011148824 -0.12426338 1.9910811 53
0.018468043 -0.21844101 1.9983203 93
0.050889105 -0.5077647 2.0009167 96
0.071393482 -0.71004695 1.9948403 91
0.093726188 -0.92901468 1.9936218 93
0.11796816 -1.1693666 1.9926107 89
0.14547163 -1.442052 1.9932711 84
0.17875214 -1.7720088 2.0090308 85
0.20165019 -1.9479278 2.0042477 73
0.24562898 -2.3728013 2.0051763 66
0.30239329 -2.9261484 2.0132964 66
0.31801453 -3.077337 1.7052985 71
0.31644952 -3.0674286 1.3342178 39
0.3175216 -3.083092 1.0003827 41
0.31603494 -3.0686567 0.67715758 45
0.31779566 -3.0910473 0.37136632 55
0.21999261 -2.1545138 2.0093827 73
0.26832667 -2.6324351 2.0102675 69
0.31407675 -3.0813034 1.9049548 76
0.31390899 -3.0849948 1.5209457 80
0.31312492 -3.0826309 1.1669431 45
0.31286263 -3.0854049 0.83869159 47
0.31219479 -3.0841818 0.52402526 60
0.31238765 -3.0914719 0.21901764 76
0.0026382823 -0.031151904 1.9891979 77
0.029958954 -0.31322256 2.0008237 112
0.040251188 -0.41088277 2.0083039 91
0.059783902 -0.6062175 1.9934158 88
0.080761872 -0.81761074 1.9951125 95
0.10359282 -1.0469805 1.9945602 85
0.12945504 -1.3084208 2.0036924 82
0.159271 -1.609825 2.0127425 76
0.010714998 -0.12430154 1.9910811 56
0.017705429 -0.21850415 1.9983203 93
0.049116366 -0.50793922 2.0009167 95
0.068914518 -0.7102918 1.9948403 91
0.090482749 -0.92933619 1.9936218 93
0.11388559 -1.1697713 1.9926107 91
0.14072905 -1.4455508 1.9972607 82
0.17256558 -1.772622 2.0090308 86
0.19484943 -1.9486198 2.0042477 73
0.23734488 -2.3736444 2.0051763 66
0.29217729 -2.9271858 2.0132964 66
0.30727068 -3.0784283 1.7052985 71
0.30574027 -3.0685146 1.3342178 39
0.30675769 -3.0841818 1.0003827 43
0.30532143 -3.069741 0.67715758 45
0.30700397 -3.0921378 0.37136632 53
0.21247062 -2.1552689 2.0093827 73
0.25913611 -2.6333559 2.0102675 67
0.3033191 -3.0823808 1.9049548 76
0.30313846 -3.0860717 1.5209457 80
0.30236262 -3.0837052 1.1669431 45
0.30209067 -3.086478 0.83869159 48
0.3014271 -3.0852528 0.52402526 60
0.3015945 -3.0925434 0.21901764 77
0.0025295257 -0.031160923 1.9891979 77
0.028865421 -0.3133252 2.0008237 112
0.038816694 -0.41102079 2.0083039 91
0.057667442 -0.60642248 1.9934158 88
0.077907391 -0.81788772 1.9951125 95
0.099937551 -1.0473357 1.9945602 83
0.12488702 -1.3088647 2.0036924 82
0.15334617 -1.6071795 2.0089054 76
0.010281038 -0.12433818 1.9910811 58
0.0169426 -0.21856461 1.9983203 93
0.047343031 -0.50810754 2.0009167 95
0.066434719 -0.71052802 1.9948403 91
0.087238215 -0.92964637 1.9936218 93
0.11004526 -1.1727585 1.9968767 91
0.13568228 -1.4460332 1.9972607 84
0.16637693 -1.7732135 2.0090308 85
0.18804629 -1.9492881 2.0042477 69
0.22905786 -2.3744586 2.0051763 66
0.28195772 -2.9281881 2.0132964 64
0.29652309 -3.0794821 1.7052985 71
0.29502729 -3.0695632 1.3342178 39
0.29599002 -3.0852337 1.0003827 43
0.29460415 -3.0707881 0.67715758 45
0.29620853 -3.0931907 0.37136632 53
0.20494601 -2.1559975 2.0093827 75
0.24994244 -2.6342444 2.0102675 67
0.29255772 -3.0834208 1.9049548 76
0.29236421 -3.087111 1.5209457 80
0.29159665 -3.0847418 1.1669431 45
0.29131502 -3.0875139 0.83869159 48
0.29065573 -3.0862863 0.52402526 65
0.29033008 -3.0886033 0.2188161 76
0.0024207383 -0.031169562 1.9891979 78
0.027771536 -0.31342405 2.0008237 110
0.037381727 -0.41115379 2.0083039 91
0.055550285 -0.60662013 1.9934158 89
0.075051956 -0.81815469 1.9951125 95
0.096281052 -1.0476782 1.9945602 85
0.12005999 -1.3064905 1.9995594 82
0.14773515 -1.607705 2.0089054 78
0.0098469546 -0.1243733 1.9910811 60
0.016179563 -0.21862242 1.9983203 93
0.045569114 -0.50826973 2.0009167 95
0.063954107 -0.71075559 1.9948403 91
0.0839926 -0.92994517 1.9936218 95
0.10595089 -1.1731354 1.9968767 91
0.13063386 -1.446498 1.9972607 84
0.16018623 -1.7737836 2.0090308 86
0.18124086 -1.9499327 2.0042477 69
0.22076806 -2.3752437 2.0051763 66
0.27173471 -2.9291544 2.0132964 64
0.28577191 -3.0804982 1.7052985 72
0.28431073 -3.0705743 1.3342178 39
0.28521872 -3.0862479 1.0003827 43
0.2838833 -3.0717976 0.67715758 43
0.28540948 -3.0942056 0.37136632 56
0.19741894 -2.1566997 2.0093827 75
0.24074568 -2.6351008 2.0102675 69
0.28179282 -3.0844231 1.9049548 77
0.28158641 -3.0881128 1.5209457 80
0.28082711 -3.085741 1.1669431 47
0.28053579 -3.0885119 0.83869159 47
0.2794337 -3.08235 0.5233354 62
0.2795471 -3.0895979 0.2188161 83
0.0023119217 -0.031177823 1.9891979 80
0.026677312 -0.31351906 2.0008237 111
0.035946306 -0.41128179 2.0083039 91
0.053432442 -0.60681033 1.9934158 88
0.072367229 -0.82035774 1.999715 95
0.092623383 -1.048008 1.9945602 85
0.11549875 -1.3069017 1.9995594 80
0.14212231 -1.6082109 2.0089054 78
0.0094127506 -0.12440693 1.9910811 60
0.01541633 -0.21867757 1.9983203 93
0.043794643 -0.50842571 2.0009167 96
0.061472718 -0.71097451 1.9948403 91
0.08074598 -0.9302327 1.9936218 92
0.10185524 -1.173498 1.9968767 89
0.12558384 -1.4469452 1.9972607 84
0.15399359 -1.7743318 2.0090308 86
0.17475085 -1.9541054 2.0077524 73
0.21247555 -2.3759997 2.0051763 66
0.26150838 -2.9300852 2.0132964 64
0.2750172 -3.0814772 1.7052985 72
0.27359068 -3.071548 1.3342178 39
0.27401918 -3.0824463 0.99897355 44
0.273159 -3.0727699 0.67715758 46
0.27460694 -3.0951829 0.37136632 56
0.18988943 -2.1573756 2.0093827 75
0.23154598 -2.6359251 2.0102675 69
0.27102444 -3.0853879 1.9049548 77
0.27080515 -3.0890768 1.5209457 80
0.27005413 -3.0867026 1.1669431 47
0.26975316 -3.0894725 0.83869159 45
0.26867256 -3.0833066 0.5233354 62
0.26876068 -3.090555 0.2188161 81
0.0022030766 -0.031185701 1.9891979 80
0.025582764 -0.31361029 2.0008237 111
0.034510445 -0.41140473 2.0083039 91
0.051188201 -0.60550499 1.9886441 86
0.069503203 -0.8206054 1.999715 95
0.088964589 -1.0483249 1.9945602 83
0.11093611 -1.3072968 1.9995594 80
0.13650772 -1.6086972 2.0089054 78
0.008978432 -0.12443902 1.9910811 60
0.014652909 -0.21873006 1.9983203 93
0.042019639 -0.50857544 2.0009167 95
0.058990579 -0.71118474 1.9948403 95
0.077498369 -0.93050891 1.9936218 93
0.097758353 -1.1738465 1.9968767 91
0.1205323 -1.4473748 1.9972607 84
0.14808039 -1.7782369 2.0127058 86
0.16792868 -1.9547036 2.0077524 73
0.20418048 -2.3767271 2.0051763 67
0.25163606 -2.9351461 2.0160377 66
0.26425916 -3.0824182 1.7052985 71
0.26286733 -3.072484 1.3342178 39
0.26325777 -3.083384 0.99897355 43
0.26243135 -3.0737047 0.67715758 46
0.26380107 -3.0961227 0.37136632 58
0.18235764 -2.1580255 2.0093827 75
0.22234347 -2.6367173 2.0102675 69
0.26025274 -3.0863152 1.9049548 76
0.26002064 -3.0900035 1.5209457 80
0.25927788 -3.0876265 1.1669431 47
0.25896722 -3.0903952 0.83869159 47
0.25790817 -3.0842257 0.5233354 62
0.25797099 -3.0914743 0.2188161 81
0.0020965186 -0.031236775 1.9941976 80
0.024487903 -0.31369767 2.0008237 112
0.033074167 -0.41152272 2.0083039 93
0.049074285 -0.60567993 1.9886441 88
0.066638336 -0.82084292 1.999715 95
0.085304715 -1.048629 1.9945602 83
0.10637213 -1.3076761 1.9995594 82
0.1308915 -1.6091639 2.0089054 76
0.0085440036 -0.1244696 1.9910811 62
0.013889309 -0.21877986 1.9983203 93
0.040244125 -0.50871903 2.0009167 93
0.056507718 -0.71138632 1.9948403 93
0.074249804 -0.93077379 1.9936218 93
0.093660258 -1.1741805 1.9968767 91
0.11547928 -1.4477867 1.9972607 84
0.14187229 -1.7787429 2.0127058 86
0.16110447 -1.9552778 2.0077524 73
0.1958829 -2.3774252 2.0051763 66
0.24138895 -2.9360068 2.0160377 61
0.2534979 -3.083322 1.7052985 72
0.25214076 -3.0733829 1.3342178 39
0.25249314 -3.0842843 0.99897355 43
0.25210133 -3.0794978 0.67809021 48
0.25258651 -3.092061 0.37092009 59
0.17482361 -2.1586487 2.0093827 75
0.21313827 -2.6374774 2.0102675 69
0.24947794 -3.0872047 1.9049548 74
0.24923293 -3.0908921 1.5209457 80
0.24849851 -3.0885127 1.1669431 45
0.24817818 -3.0912802 0.83869159 47
0.24714066 -3.0851071 0.5233354 63
0.24678013 -3.0873761 0.21861458 81
0.0019874691 -0.031243902 1.9941976 80
0.023392746 -0.31378126 2.0008237 112
0.031637482 -0.41163567 2.0083039 93
0.046959769 -0.60584754 1.9886441 84
0.063772656 -0.82107055 1.999715 95
0.081643797 -1.0489204 1.9945602 83
0.10180683 -1.3080395 1.9995594 82
0.12527367 -1.6096112 2.0089054 78
0.0081094718 -0.12449867 1.9910811 64
0.01312554 -0.21882702 1.9983203 93
0.038468119 -0.50885642 2.0009167 95
0.054154765 -0.71329999 1.9995331 93
0.071165919 -0.93319875 1.9981228 93
0.089561038 -1.1745003 1.9968767 89
0.11042486 -1.4481809 1.9972607 84
0.13566245 -1.7792274 2.0127058 86
0.15399788 -1.952273 2.0042477 73
0.18758295 -2.3780942 2.0051763 67
0.2311389 -2.9368315 2.0160377 61
0.24273355 -3.084188 1.7052985 72
0.2414111 -3.0742445 1.3342178 39
0.24172544 -3.0851467 0.99897355 43
0.24135032 -3.080359 0.67809021 46
0.24179167 -3.0929239 0.37092009 58
0.16728747 -2.159246 2.0093827 75
0.20393045 -2.6382053 2.0102675 67
0.23870005 -3.088057 1.9049548 74
0.2380932 -3.087218 1.5188476 80
0.23771606 -3.089361 1.1669431 47
0.23738609 -3.0921278 0.83869159 48
0.23637013 -3.0859511 0.5233354 62
0.23600167 -3.0882187 0.21861458 92
0.0018783956 -0.031250652 1.9941976 80
0.022297302 -0.31386101 2.0008237 112
0.030200409 -0.41174358 2.0083039 95
0.044844676 -0.60600775 1.9886441 84
0.060906198 -0.82128817 1.999715 95
0.077981882 -1.049199 1.9945602 83
0.097240299 -1.3083869 1.9995594 82
0.11965432 -1.6100386 2.0089054 76
0.0076575163 -0.12423717 1.9860895 67
0.012361611 -0.2188715 1.9983203 93
0.036691643 -0.50898761 2.0009167 95
0.051664557 -0.7134847 1.9995331 95
0.067908011 -0.93344146 1.9981228 93
0.08527153 -1.1722046 1.9926107 89
0.1053691 -1.4485575 1.9972607 84
0.12945098 -1.77969 2.0127058 86
0.14718224 -1.9527988 2.0042477 73
0.17928071 -2.3787348 2.0051763 67
0.22088605 -2.9376204 2.0160377 66
0.23196626 -3.0850165 1.7052985 66
0.23067851 -3.0750685 1.3342178 39
0.23095478 -3.0859718 0.99897355 43
0.23059638 -3.0811827 0.67809021 46
0.23099387 -3.0937493 0.37092009 56
0.15974925 -2.1598165 2.0093827 75
0.19472015 -2.638901 2.0102675 69
0.22791927 -3.0888712 1.9049548 77
0.22731534 -3.0880306 1.5188476 80
0.22658488 -3.0854623 1.1653005 47
0.2265911 -3.0929377 0.83869159 48
0.2255967 -3.0867574 0.5233354 62
0.22522032 -3.0890236 0.21861458 92
0.0017692992 -0.031257015 1.9941976 80
0.021201588 -0.31393692 2.0008237 111
0.028692123 -0.41083074 2.0034087 95
0.04283401 -0.60765046 1.9934158 88
0.058038991 -0.82149577 1.999715 95
0.074149802 -1.047075 1.9901714 83
0.092672579 -1.3087184 1.9995594 82
0.11403351 -1.6104463 2.0089054 76
0.0072238008 -0.12426315 1.9860895 67
0.011597533 -0.21891332 1.9983203 93
0.034914717 -0.50911254 2.0009167 95
0.049173716 -0.71366072 1.9995331 95
0.064649276 -0.93367279 1.9981228 92
0.081179254 -1.1724951 1.9926107 89
0.10031205 -1.4489166 1.9972607 84
0.12300378 -1.7767491 2.0090308 86
0.1403648 -1.9533007 2.0042477 73
0.17097628 -2.3793461 2.0051763 67
0.21063048 -2.9383733 2.0160377 66
0.22119612 -3.0858073 1.7052985 68
0.21994311 -3.075855 1.3342178 39
0.22018135 -3.0867593 0.99897355 43
0.21949017 -3.0770693 0.67715758 48
0.22019325 -3.0945368 0.37092009 56
0.15220913 -2.1603611 2.0093827 73
0.18550749 -2.6395648 2.0102675 69
0.21683349 -3.0853474 1.9024224 77
0.2165347 -3.0888052 1.5188476 81
0.21581322 -3.0862346 1.1653005 47
0.21545511 -3.088861 0.83751923 48
0.21482055 -3.0875258 0.5233354 63
0.21443626 -3.0897908 0.21861458 97
0.001660181 -0.031263001 1.9941976 80
0.020105613 -0.31400901 2.0008237 111
0.027257882 -0.4109284 2.0034087 93
0.040712647 -0.60779625 1.9934158 88
0.055171084 -0.8216933 1.999715 95
0.070494376 -1.0473274 1.9901714 83
0.088103741 -1.3090339 1.9995594 82
0.1084113 -1.6108346 2.0089054 76
0.0067899982 -0.12428761 1.9860895 67
0.010833312 -0.21895246 1.9983203 93
0.03313737 -0.50923133 2.0009167 96
0.04668228 -0.71382803 1.9995331 93
0.061246943 -0.93171972 1.9936218 93
0.077085987 -1.1727713 1.9926107 91
0.095253766 -1.449258 1.9972607 84
0.11680102 -1.7771677 2.0090308 86
0.13354565 -1.9537786 2.0042477 73
0.16266976 -2.3799284 2.0051763 67
0.20037235 -2.939091 2.0160377 66
0.21042328 -3.0865607 1.7052985 72
0.20920503 -3.0766039 1.3342178 39
0.2094052 -3.0875092 0.99897355 44
0.20874783 -3.0778167 0.67715758 45
0.20938998 -3.0952864 0.37092009 58
0.14466712 -2.1608794 2.0093827 75
0.17629255 -2.6401961 2.0102675 69
0.20606229 -3.0860858 1.9024224 77
0.20544989 -3.0850136 1.5167495 80
0.20503895 -3.0869691 1.1653005 45
0.2046717 -3.0895941 0.83751923 48
0.20404175 -3.0882571 0.5233354 60
0.20332105 -3.0855355 0.21841304 89
0.0015510425 -0.031268604 1.9941976 80
0.019009395 -0.31407729 2.0008237 111
0.025823308 -0.41102102 2.0034087 93
0.0385908 -0.60793471 1.9934158 88
0.052178472 -0.81993127 1.9951125 95
0.066838093 -1.0475671 1.9901714 85
0.083533823 -1.3093334 1.9995594 80
0.10278779 -1.6112032 2.0089054 76
0.0063418155 -0.12402134 1.9810979 69
0.010068959 -0.21898894 1.9983203 93
0.031436846 -0.51059937 2.0057559 96
0.044190265 -0.71398664 1.9995331 91
0.057994261 -0.9319278 1.9936218 95
0.072991781 -1.1730332 1.9926107 91
0.090194337 -1.4495815 1.9972607 82
0.11059684 -1.7775645 2.0090308 85
0.12672488 -1.9542329 2.0042477 73
0.15436131 -2.3804817 2.0051763 67
0.19011179 -2.9397724 2.0160377 66
0.19936201 -3.0828559 1.7029805 72
0.19846442 -3.0773153 1.3342178 39
0.19862652 -3.0882211 0.99897355 44
0.19800299 -3.0785267 0.67715758 45
0.19858412 -3.0959985 0.37092009 58
0.13712338 -2.161371 2.0093827 75
0.16707548 -2.6407952 2.0102675 69
0.19528858 -3.086786 1.9024224 77
0.19467992 -3.0857122 1.5167495 80
0.19426215 -3.087666 1.1653005 45
0.19388573 -3.0902898 0.83751923 48
0.19326048 -3.0889506 0.5233354 62
0.19254929 -3.0862262 0.21841304 89
0.0014418853 -0.031273831 1.9941976 80
0.017912945 -0.31414172 2.0008237 112
0.024388419 -0.41110867 2.0034087 93
0.036468472 -0.60806566 1.9934158 88
0.04931606 -0.82010841 1.9951125 95
0.063180998 -1.0477941 1.9901714 85
0.078962885 -1.309617 1.9995594 82
0.097163007 -1.6115522 2.0089054 76
0.0059088618 -0.12404272 1.9810979 69
0.0093044834 -0.21902275 1.9983203 95
0.029654332 -0.51070595 2.0057559 96
0.04159718 -0.71241373 1.9948403 95
0.054740876 -0.93212461 1.9936218 93
0.069049545 -1.1758845 1.9968767 91
0.085133798 -1.4498876 1.9972607 82
0.10439131 -1.7779398 2.0090308 86
0.11990256 -1.9546633 2.0042477 73
0.14605092 -2.381006 2.0051763 66
0.17984894 -2.9404182 2.0160377 66
0.18859965 -3.0835328 1.7029805 72
0.18772136 -3.0779896 1.3342178 39
0.18784539 -3.0888958 0.99897355 43
0.18725571 -3.0791991 0.67715758 46
0.18777588 -3.0966728 0.37092009 56
0.12957793 -2.1618366 2.0093827 75
0.15785636 -2.6413627 2.0102675 69
0.1845125 -3.0874488 1.9024224 77
0.1839076 -3.0863729 1.5167495 81
0.183483 -3.0883253 1.1653005 47
0.18309744 -3.0909476 0.83751923 48
0.18247686 -3.0896063 0.5233354 63
0.18177518 -3.0868797 0.21841304 95
0.0013327105 -0.031278674 1.9941976 82
0.016816275 -0.31420234 2.0008237 112
0.023009896 -0.41220793 2.0083039 95
0.034345705 -0.60818928 1.9934158 88
0.046453048 -0.82027555 1.9951125 95
0.059658952 -1.0504001 1.9945602 83
0.074550517 -1.3126942 2.0036924 76
0.091537051 -1.6118816 2.0089054 78
0.0054758359 -0.12406258 1.9810979 71
0.0085600186 -0.21958745 2.0032918 93
0.027871456 -0.51080638 2.0057559 95
0.039110132 -0.71255457 1.9948403 93
0.051486816 -0.93230999 1.9936218 93
0.064944513 -1.1761184 1.9968767 89
0.080072232 -1.450176 1.9972607 82
0.098184496 -1.7782934 2.0090308 86
0.11307879 -1.9550699 2.0042477 73
0.13773878 -2.3815012 2.0051763 66
0.16958386 -2.9410279 2.0160377 66
0.17783494 -3.0841722 1.7029805 72
0.17697604 -3.0786262 1.3342178 39
0.177062 -3.0895324 0.99897355 44
0.17650618 -3.0798337 0.67715758 43
0.17696531 -3.0973096 0.37092009 56
0.12203094 -2.1622758 2.0093827 75
0.14863533 -2.6418972 2.0102675 67
0.17373417 -3.0880742 1.9024224 77
0.17313303 -3.0869961 1.5167495 80
0.17270163 -3.0889468 1.1653005 45
0.1723069 -3.091568 0.83751923 47
0.171691 -3.0902243 0.5233354 62
0.17099886 -3.0874953 0.21841304 99
0.0012235193 -0.031283133 1.9941976 82
0.015719404 -0.31425914 2.0008237 112
0.021570882 -0.41228572 2.0083039 95
0.032222521 -0.60830545 1.9934158 88
0.043589469 -0.82043266 1.9951125 95
0.055992015 -1.0506021 1.9945602 83
0.069967911 -1.3129464 2.0036924 76
0.086080559 -1.6153928 2.0127425 78
0.0050540105 -0.12437029 1.9860895 77
0.0077934628 -0.21961598 2.0032918 91
0.026088238 -0.51090056 2.0057559 95
0.036622617 -0.71268678 1.9948403 93
0.048232138 -0.93248403 1.9936218 93
0.060838707 -1.176338 1.9968767 91
0.075009689 -1.4504466 1.9972607 82
0.091976508 -1.7786252 2.0090308 86
0.10644711 -1.9590139 2.0077524 73
0.12942493 -2.3819675 2.0051763 67
0.15931672 -2.941602 2.0160377 66
0.16706809 -3.0847743 1.7029805 72
0.16622855 -3.0792251 1.3342178 39
0.16627643 -3.0901318 0.99897355 43
0.16575445 -3.0804312 0.67715758 43
0.16615261 -3.0979083 0.37092009 56
0.11448245 -2.1626885 2.0093827 75
0.13941249 -2.6424 2.0102675 69
0.16295372 -3.0886619 1.9024224 77
0.16235633 -3.0875814 1.5167495 81
0.16191813 -3.0895309 1.1653005 47
0.16151427 -3.0921504 0.83751923 47
0.16090307 -3.0908051 0.5233354 62
0.16022044 -3.0880735 0.21841304 99
0.0011143135 -0.031287216 1.9941976 80
0.014622339 -0.31431207 2.0008237 113
0.020131603 -0.41235852 2.0083039 95
0.030098941 -0.60841423 1.9934158 88
0.040822156 -0.8225311 1.999715 95
0.052324384 -1.0507911 1.9945602 85
0.06538444 -1.3131826 2.0036924 80
0.080441259 -1.6156834 2.0127425 73
0.0046198461 -0.12438717 1.9860895 77
0.0070268125 -0.21964185 2.0032918 91
0.024304703 -0.51098847 2.0057559 95
0.034134652 -0.71281022 1.9948403 93
0.044976864 -0.93264669 1.9936218 95
0.056732152 -1.1765431 1.9968767 89
0.069946222 -1.4506996 1.9972607 82
0.085604139 -1.7755491 2.0053556 85
0.099608228 -1.9593735 2.0077524 73
0.12110954 -2.3824048 2.0051763 69
0.14904763 -2.9421401 2.0160377 66
0.15629919 -3.0853386 1.7029805 72
0.15547903 -3.0797865 1.3342178 39
0.15548886 -3.0906935 0.99897355 43
0.15500076 -3.0809913 0.67715758 43
0.15533789 -3.0984693 0.37092009 56
0.10693256 -2.163075 2.0093827 75
0.1303868 -2.6469078 2.0132108 69
0.15217128 -3.0892119 1.9024224 77
0.15157768 -3.0881293 1.5167495 80
0.15113267 -3.0900774 1.1653005 47
0.15071966 -3.0926955 0.83751923 48
0.15011315 -3.0913477 0.5233354 60
0.14944008 -3.0886137 0.21841304 102
0.0010050938 -0.031290911 1.9941976 80
0.013525097 -0.31436121 2.0008237 113
0.018692082 -0.41242629 2.0083039 95
0.027974999 -0.60851556 1.9934158 86
0.037950739 -0.82266855 1.999715 95
0.048656125 -1.0509673 1.9945602 85
0.06080018 -1.3134028 2.0036924 80
0.074800983 -1.6159543 2.0127425 73
0.0041856258 -0.12440254 1.9860895 77
0.0062600765 -0.21966505 2.0032918 91
0.022520872 -0.51107025 2.0057559 96
0.03164627 -0.71292508 1.9948403 93
0.041721046 -0.93279803 1.9936218 93
0.0526249 -1.176734 1.9968767 89
0.065016523 -1.4539458 2.00125 82
0.07955721 -1.779224 2.0090308 83
0.092768118 -1.9597093 2.0077524 73
0.11279265 -2.382813 2.0051763 66
0.13877675 -2.9426425 2.0160377 64
0.14552841 -3.0858655 1.7029805 74
0.14472762 -3.0803106 1.3342178 39
0.14469936 -3.0912173 0.99897355 43
0.14424513 -3.0815134 0.67715758 45
0.14452128 -3.0989928 0.37092009 56
0.099381365 -2.163435 2.0093827 75
0.12096181 -2.6433091 2.0102675 69
0.14158407 -3.0940309 1.9049548 77
0.14079718 -3.0886397 1.5167495 80
0.14034536 -3.0905859 1.1653005 45
0.13992323 -3.0932028 0.83751923 48
0.13932145 -3.0918529 0.5233354 65
0.13865788 -3.0891166 0.21841304 102
0.00089586206 -0.03129423 1.9941976 77
0.012427688 -0.31440648 2.0008237 114
0.01725233 -0.41248903 2.0083039 95
0.025787387 -0.6071173 1.9886441 88
0.035078857 -0.82279599 1.999715 96
0.044987269 -1.0511309 1.9945602 85
0.056094892 -1.3107958 1.9995594 82
0.069022745 -1.6130024 2.0089054 69
0.0037513543 -0.1244164 1.9860895 80
0.0054805921 -0.21915178 1.9983203 91
0.020736767 -0.51114571 2.0057559 96
0.029157508 -0.71303117 1.9948403 93
0.038464721 -0.93293804 1.9936218 92
0.048517011 -1.1769105 1.9968767 91
0.059816811 -1.4511526 1.9972607 74
0.073346086 -1.7794909 2.0090308 73
0.085926898 -1.9600211 2.0077524 67
0.10447439 -2.3831923 2.0051763 66
0.12850416 -2.943109 2.0160377 64
0.13475583 -3.0863547 1.7029805 74
0.13397445 -3.0807967 1.3342178 39
0.13390812 -3.0917037 0.99897355 43
0.13348776 -3.0819981 0.67715758 45
0.13370289 -3.0994782 0.37092009 53
0.091987304 -2.1675 2.0127075 71
0.11190487 -2.6477537 2.0132108 67
0.13041894 -3.0858915 1.8998899 77
0.13001494 -3.0891125 1.5167495 80
0.12955636 -3.0910571 1.1653005 45
0.12912507 -3.0936725 0.83751923 48
0.12832235 -3.0873725 0.52264565 65
0.12787402 -3.089582 0.21841304 102
0.00078661938 -0.031297166 1.9941976 77
0.011330128 -0.31444797 2.0008237 114
0.015812371 -0.41254672 2.0083039 95
0.023667995 -0.60720366 1.9886441 88
0.03220655 -0.82291347 1.999715 95
0.041317858 -1.0512815 1.9945602 85
0.051519021 -1.3109835 1.9995594 82
0.063140169 -1.6068267 2.0012317 59
0.0033170374 -0.12442873 1.9860895 80
0.0047155763 -0.21916959 1.9983203 93
0.018952409 -0.51121503 2.0057559 96
0.026668387 -0.71312863 1.9948403 91
0.035207927 -0.93306661 1.9936218 92
0.044408534 -1.1770726 1.9968767 91
0.054637384 -1.4483407 1.9932711 65
0.06675072 -1.7695727 1.9980052 59
0.078797147 -1.9531825 2.0007432 52
0.096154861 -2.3835423 2.0051763 54
0.11839782 -2.9477174 2.0187793 63
0.12415941 -3.0912328 1.7052985 72
0.12303441 -3.0766132 1.3323447 39
0.12311524 -3.0921521 0.99897355 43
0.12272877 -3.0824454 0.67715758 45
0.12288287 -3.099926 0.37092009 53
0.083548918 -2.1454186 1.9927584 50
0.10219207 -2.6360111 2.0043812 52
0.11947937 -3.0820198 1.8973576 76
0.11923113 -3.0895474 1.5167495 81
0.11876576 -3.0914905 1.1653005 45
0.11832536 -3.0941043 0.83751923 47
0.11754463 -3.0878017 0.52264565 62
0.11708859 -3.0900095 0.21841304 100
0.00067736709 -0.031299721 1.9941976 80
0.010232432 -0.31448558 2.0008237 114
0.014372217 -0.41259941 2.0083039 93
0.021548314 -0.60728258 1.9886441 86
0.029333849 -0.82302088 1.999715 95
0.037647948 -1.0514191 1.9945602 83
0.046942517 -1.3111553 1.9995594 80
0.056957509 -1.5910181 1.982047 47
0.0028826797 -0.12443955 1.9860895 84
0.0039505027 -0.21918471 1.9983203 93
0.01716782 -0.51127803 2.0057559 96
0.024178941 -0.71321738 1.9948403 95
0.031950697 -0.93318379 1.9936218 93
0.040299509 -1.1772205 1.9968767 91
0.048653655 -1.4214129 1.9573658 70
nan nan nan 0
0.071978785 -1.9534457 2.0007432 48
0.087117523 -2.3644125 1.9894875 39
0.10764797 -2.9355769 2.0105548 38
0.11336824 -3.0916471 1.7052985 72
0.11229427 -3.0770242 1.3323447 39
0.11232088 -3.0925632 0.99897355 44
0.11196829 -3.082855 0.67715758 43
0.11206136 -3.1003361 0.37092009 53
nan nan nan 0
nan nan nan 0
0.10856842 -3.0781093 1.8948251 44
0.10844589 -3.0899448 1.5167495 80
0.10797373 -3.0918863 1.1653005 45
0.10752419 -3.0944984 0.83751923 47
0.10676546 -3.0881932 0.52264565 60
0.10630172 -3.0903993 0.21841304 100
0.0005681066 -0.031301897 1.9941976 80
0.0091346102 -0.31451941 2.0008237 114
0.01293189 -0.41264704 2.0083039 93
0.019428372 -0.6073541 1.9886441 86
0.026460789 -0.82311821 1.999715 95
0.033977587 -1.0515442 1.9945602 85
0.042365447 -1.3113112 1.9995594 80
nan nan nan 0
0.0024482871 -0.12444886 1.9860895 86
0.0031853816 -0.21919717 1.9983203 93
0.015345269 -0.5100776 2.0009167 95
0.021689199 -0.71329743 1.9948403 95
0.028693086 -0.93328965 1.9936218 92
0.036190003 -1.1773541 1.9968767 91
nan nan nan 0
0.037006892 -1.2041066 1.3842528 22
nan nan nan 0
0.057714794 -1.7305187 1.4780298 12
nan nan nan 0
0.10228193 -3.0831687 1.7006625 49
0.10155276 -3.0773973 1.3323447 39
0.10152513 -3.092936 0.99897355 43
0.10120643 -3.0832267 0.67715758 45
0.10123848 -3.1007085 0.37092009 55
nan nan nan 0
nan nan nan 0
0.084815413 -2.6691084 1.6542447 7
0.097659305 -3.0903044 1.5167495 77
0.097180374 -3.0922441 1.1653005 47
0.096721731 -3.0948551 0.83751923 48
0.09598501 -3.088547 0.52264565 63
0.095513575 -3.0907514 0.21841304 99
0.00045883906 -0.031303689 1.9941976 80
0.0080366768 -0.31454939 2.0008237 114
0.011491403 -0.41268969 2.0083039 89
0.017350674 -0.6089111 1.9934158 86
0.0235315 -0.82125276 1.9951125 95
0.030306801 -1.0516565 1.9945602 85
0.037787858 -1.3114511 1.9995594 82
0.031079065 -1.0786442 1.3681357 20
0.0020138645 -0.12445664 1.9860895 86
0.002420221 -0.21920696 1.9983203 93
0.013564672 -0.51012808 2.0009167 95
0.019199194 -0.71336883 1.9948403 91
0.025435122 -0.93338418 1.9936218 92
0.032080047 -1.1774732 1.9968767 89
0.025847169 -0.94870287 1.3310144 28
0.031972911 -1.1737282 1.3511763 23
nan nan nan 0
0.045981672 -1.5400445 1.3242787 13
0.055767309 -1.8788209 1.3169639 8
0.081661947 -2.7513878 1.5268104 11
0.090810023 -3.077733 1.3323447 39
0.090728149 -3.0932717 0.99897355 43
0.090443343 -3.0835614 0.67715758 45
0.090414375 -3.101043 0.37092009 56
0.040895432 -1.4369361 1.3610373 18
0.047957849 -1.695526 1.3186247 13
0.059897132 -2.1177697 1.3300941 8
0.084958814 -3.0225756 1.4852787 38
0.086385831 -3.0925648 1.1653005 47
0.085918084 -3.0951736 0.83751923 47
0.085203394 -3.0888631 0.52264565 59
0.084724255 -3.0910661 0.21841304 97
0.00034956599 -0.031305101 1.9941976 78
0.0069555957 -0.31535232 2.0057628 114
0.010050776 -0.4127273 2.0083039 89
0.015225073 -0.60896796 1.9934158 86
0.020664649 -0.82132995 1.9951125 95
0.026635652 -1.0517559 1.9945602 83
0.033138599 -1.3087618 1.9954264 82
0.026583588 -1.0499022 1.3336033 21
0.0015794176 -0.12446292 1.9860895 84
0.0016550313 -0.21921405 1.9983203 91
0.011783911 -0.51017231 2.0009167 95
0.016749311 -0.71515679 1.9995331 93
0.022176847 -0.93346727 1.9936218 92
0.027969701 -1.177578 1.9968767 91
0.022535419 -0.94878733 1.3310144 28
0.027956106 -1.1772219 1.3548514 29
0.033475399 -1.2696096 1.3278702 21
0.043272782 -1.6413747 1.4058609 26
0.047566801 -1.8163041 1.275842 5
0.072637163 -2.7737994 1.5384007 12
0.080066182 -3.0780313 1.3323447 39
0.079930067 -3.0935695 0.99897355 43
0.079679154 -3.0838583 0.67715758 46
0.079589166 -3.1013396 0.37092009 56
0.036252115 -1.452003 1.3743366 29
0.041438077 -1.6714386 1.3009658 17
nan nan nan 0
0.070833839 -2.877665 1.4181411 19
0.075590238 -3.0928473 1.1653005 49
0.075113378 -3.0954547 0.83751923 47
0.074539989 -3.0940926 0.5233354 59
0.073933899 -3.0913429 0.21841304 87
0.0002402887 -0.031306129 1.9941976 80
0.0058547682 -0.3153747 2.0057628 115
0.0086100288 -0.41275987 2.0083039 93
0.013099285 -0.60901743 1.9934158 82
0.017797546 -0.82139707 1.9951125 95
0.022964176 -1.0518423 1.9945602 83
0.028569967 -1.3088696 1.9954264 82
0.02270877 -1.040373 1.3220923 26
0.0011449513 -0.12446768 1.9860895 86
0.00089131237 -0.21975243 2.0032918 89
0.010003005 -0.51021034 2.0009167 96
0.014252848 -0.7152108 1.9995331 91
0.018918306 -0.93353891 1.9936218 93
0.023859018 -1.1776685 1.9968767 91
0.019223396 -0.94886023 1.3310144 29
0.023366241 -1.1535861 1.3291253 28
0.028472709 -1.2447612 1.3033384 21
0.035585098 -1.5558953 1.3368298 22
nan nan nan 0
0.068683408 -3.0264928 1.6705281 24
0.068173319 -3.0273101 1.3117414 39
0.069131002 -3.0938299 0.99897355 43
0.068913996 -3.0841177 0.67715758 46
0.068873368 -3.1065776 0.37136632 56
0.030782647 -1.4334532 1.3577124 26
0.03474281 -1.6311622 1.2715342 14
0.06429562 -3.0189817 1.8593712 23
0.063951202 -3.0276327 1.4873768 14
0.064793736 -3.0930922 1.1653005 49
0.064307772 -3.0956984 0.83751923 47
0.063739143 -3.0943339 0.5233354 62
0.063142657 -3.0915823 0.21841304 87
0.00012554439 -0.0313068 1.9941976 80
0.0046988232 -0.31539404 2.0057628 114
0.0070971311 -0.41278863 2.0083039 93
0.010867036 -0.60906136 1.9934158 82
0.014821975 -0.82341003 1.999715 95
0.019108828 -1.0519195 1.9945602 83
0.023772528 -1.3089654 1.9954264 84
0.018604517 -1.0244224 1.3029076 26
0.0006887468 -0.12447102 1.9860895 86
8.5873558e-05 -0.21975422 2.0032918 89
0.0081329243 -0.51024359 2.0009167 96
0.011631374 -0.7152583 1.9995331 91
0.015333642 -0.93360472 1.9936218 95
0.019336933 -1.1777514 1.9968767 91
0.015233789 -0.92783225 1.3030879 29
0.01854731 -1.1299393 1.3033991 24
0.023910239 -1.2448573 1.3033384 21
0.028312823 -1.4742804 1.2709365 15
0.033693515 -1.7706103 1.2456857 8
0.057843123 -3.0400126 1.6774822 26
0.056552935 -2.9997292 1.3005031 30
0.057791084 -3.0940623 0.99897355 43
0.057071354 -3.0843594 0.67715758 46
0.056944486 -3.1068192 0.37136632 53
0.024225164 -1.3738203 1.3045148 22
0.027703388 -1.5868282 1.2391593 13
0.052477397 -3.0062747 1.851774 20
0.05060032 -2.9280236 1.4412197 8
0.052916661 -3.0933185 1.1653005 49
0.05250299 -3.1007822 0.83869159 48
0.052397415 -3.0945468 0.5233354 62
0.051894721 -3.0967882 0.21861458 84
1.6262507e-05 -0.031307049 1.9941976 80
0.0035978639 -0.3154085 2.0057628 114
0.005656186 -0.41281089 2.0083039 93
0.0087409494 -0.60909557 1.9934158 88
0.011947648 -0.82345676 1.999715 95
0.015436827 -1.0519798 1.9945602 81
0.019203242 -1.3090405 1.9954264 84
0.014793506 -1.0084532 1.2837229 25
0.00025435878 -0.12476224 1.9910811 86
-0.00068121235 -0.21975318 2.0032918 89
0.0063517923 -0.51026887 2.0009167 95
0.009134585 -0.71529454 1.9995331 93
0.012237613 -0.93365043 1.9936218 95
0.015431262 -1.177809 1.9968767 91
0.012038546 -0.91883659 1.2911195 28
0.014533938 -1.1096555 1.2813481 23
0.018948551 -1.2057093 1.2647884 20
0.022860717 -1.4549081 1.2552476 15
0.026603434 -1.7121843 1.2073052 8
0.047299959 -3.0446255 1.6798002 27
0.045227177 -2.9442835 1.2780267 16
0.046990439 -3.0942454 0.99897355 43
0.046842936 -3.084532 0.67715758 46
0.046641592 -3.1069908 0.37136632 53
0.019134846 -1.3365535 1.2712663 18
0.022041136 -1.55862 1.2185572 13
0.041898467 -2.9633238 1.8264496 15
0.040573526 -2.9054847 1.4307294 8
0.042398103 -3.0745888 1.1587298 47
0.042220131 -3.100939 0.83869159 48
0.041595109 -3.0947106 0.5233354 59
0.041084595 -3.0969508 0.21861458 84
-9.3019611e-05 -0.031306911 1.9941976 80
0.0024968609 -0.31541914 2.0057628 115
0.004215173 -0.41282812 2.0083039 93
0.0066147558 -0.60912234 1.9934158 88
0.0090731746 -0.82349348 1.999715 95
0.011764637 -1.0520272 1.9945602 81
0.01463372 -1.3090994 1.9954264 84
0.011130018 -0.99567592 1.2683752 26
-0.00018114425 -0.12476237 1.9910811 84
-0.00144829 -0.21974947 2.0032918 91
0.0045705824 -0.51028788 2.0009167 95
0.0066376859 -0.71532202 1.9995331 93
0.0089784907 -0.93368745 1.9936218 95
0.011319847 -1.1778556 1.9968767 93
0.0087154089 -0.90681773 1.2751615 29
0.010465173 -1.0893595 1.2592971 24
0.014565448 -1.1915041 1.2507702 21
0.017163733 -1.4043758 1.2144566 15
0.020123087 -1.6704553 1.1798905 9
0.036298491 -3.0137627 1.6635741 23
0.035939783 -3.0278645 1.3117414 14
0.036189221 -3.0943906 0.99897355 44
0.036075622 -3.0846767 0.67715758 48
0.035853252 -3.1121144 0.37181252 53
0.013943972 -1.2880684 1.2280432 19
0.016256144 -1.5263534 1.1950121 14
0.031370688 -2.946208 1.8163198 18
0.029433187 -2.8103049 1.3866704 8
0.031276502 -3.0369403 1.1455882 34
0.031395581 -3.1010675 0.83869159 48
0.0307923 -3.0948372 0.5233354 60
0.030322799 -3.1020708 0.2188161 81
-0.00020230055 -0.031306397 1.9941976 80
0.0013958274 -0.31542596 2.0057628 117
0.0027741082 -0.41284031 2.0083039 89
0.0044775335 -0.60764831 1.9886441 88
0.0061985906 -0.82352012 1.999715 95
0.0080923056 -1.0520619 1.9945602 83
0.010064021 -1.3091427 1.9954264 82
0.0075312951 -0.97967964 1.2491904 27
