# .PCD v0.7 - Point Cloud Data file format
VERSION 0.7
FIELDS x y z intensity
SIZE 4 4 4 4
TYPE F F F F
COUNT 1 1 1 1
WIDTH 1393
HEIGHT 1
VIEWPOINT 0 0 0 1 0 0 0
POINTS 1393
DATA ascii
2.5898705 -1.3139104 1.988623 69
3.2330797 -1.6402318 1.9834617 68
4.1639757 -2.1125026 1.974795 35
5.7326207 -2.9095795 1.9783643 35
5.7771597 -2.9334538 1.3215982 32
5.7851543 -2.9387832 0.67434281 36
1.9268563 -0.98050612 2.006058 38
2.3256731 -1.1839615 1.9837791 71
2.8833795 -1.4672511 1.9859924 65
3.7543561 -1.9112866 2.0349686 7
4.8440399 -2.4670939 1.980072 36
5.7731538 -2.9415658 1.6534522 35
5.7531857 -2.9326565 0.99172032 41
5.7766767 -2.9459012 0.35525253 40
0.02761187 -0.01466241 1.9891979 80
0.27810806 -0.14382732 1.9909451 96
0.38344386 -0.19719213 2.0964177 52
0.54057455 -0.27755305 1.9886441 84
0.72746402 -0.37336412 1.9859076 93
0.93182701 -0.4780575 1.9857829 81
1.159822 -0.59503275 1.9871606 80
1.4250524 -0.73111153 1.9935577 74
0.10976651 -0.058076039 1.9810979 88
0.1932404 -0.10351662 1.9983203 91
0.4736433 -0.24432905 2.0880225 88
0.63278824 -0.32616374 1.9901476 91
0.82616329 -0.42566714 1.9846202 90
1.0378206 -0.53472739 1.979813 85
1.2803668 -0.65970349 1.9813027 87
1.5801885 -0.81419086 2.0053556 39
1.7496902 -0.89535296 2.0112567 37
2.1166573 -1.0831424 1.9989008 15
2.5850372 -1.3233939 1.988623 67
3.227046 -1.6520708 1.9834617 68
4.1558337 -2.1284754 1.974795 38
5.7043281 -2.9228191 1.9727277 29
5.726511 -2.9354475 1.3132045 32
5.7339454 -2.940522 0.67032695 37
1.9230773 -0.98789746 2.006058 38
2.32111 -1.1928827 1.9837791 73
2.8774662 -1.4788139 1.9859924 69
3.7506897 -1.9284173 2.0370667 7
4.8340979 -2.4865193 1.980072 31
5.7224016 -2.9447007 1.6429014 35
5.728673 -2.947928 0.98965085 40
5.6986942 -2.933759 0.35222957 40
0.027598694 -0.014779838 1.9941976 82
0.27760431 -0.14479724 1.9909451 96
0.38275322 -0.19852941 2.0964177 52
0.53960234 -0.27943829 1.9886441 82
0.72615635 -0.37590119 1.9859076 93
0.9301526 -0.48130727 1.9857829 81
1.1577379 -0.5990777 1.9871606 80
1.4224917 -0.73608148 1.9935577 73
0.10956311 -0.058458842 1.9810979 88
0.19287789 -0.10419053 1.9983203 93
0.47278756 -0.24598086 2.0880225 86
0.63164586 -0.32837057 1.9901476 89
0.82474715 -0.42840445 1.9846202 90
1.0360416 -0.53816599 1.979813 87
1.2781721 -0.66394567 1.9813027 87
1.5774798 -0.81942648 2.0053556 38
1.7497231 -0.90309072 2.0147614 36
2.116323 -1.0923098 2.0020387 14
2.5804021 -1.3324094 1.988623 56
3.2212598 -1.6633253 1.9834617 69
4.1483784 -2.1429691 1.974795 39
5.6940904 -2.942713 1.9727277 29
5.6643782 -2.9273574 1.302013 26
5.6755013 -2.934361 0.66541857 35
1.9197907 -0.99426907 2.006058 38
2.3171415 -1.2005732 1.9837791 73
2.8725464 -1.4883476 1.9859924 69
3.7483039 -1.9429331 2.0391645 8
4.8258257 -2.5025358 1.980072 31
5.6780891 -2.9457541 1.6335229 36
5.6128578 -2.9131556 0.9730953 10
5.6706834 -2.9444246 0.35142344 40
0.027546935 -0.014876084 1.9941976 82
0.27709717 -0.14576538 1.9909451 96
0.38205788 -0.19986425 2.0964177 59
0.53729975 -0.28062865 1.9838723 73
0.72657156 -0.37933782 1.99051 93
0.92846686 -0.48455119 1.9857829 81
1.1556396 -0.60311532 1.9871606 78
1.4199136 -0.74104244 1.9935577 73
0.10935839 -0.05884093 1.9810979 88
0.192513 -0.10486317 1.9983203 93
0.47192603 -0.24762972 2.0880225 86
0.63049579 -0.33057347 1.9901476 91
0.82517576 -0.43229139 1.9891212 93
1.0341567 -0.54177922 1.979813 85
1.2758467 -0.66840327 1.9813027 84
1.57461 -0.82492793 2.0053556 38
1.7497232 -0.9108395 2.018266 36
2.1159499 -1.101488 2.0051763 14
2.5757353 -1.3414085 1.988623 56
3.2154338 -1.6745595 1.9834617 69
4.1367617 -2.1552944 1.972922 43
5.6540055 -2.9470496 1.9628631 32
5.6105652 -2.9244072 1.2926868 21
5.6210666 -2.9311285 0.6609565 19
1.9163084 -1.0009644 2.006058 38
2.3129363 -1.2086542 1.9837791 71
2.8673337 -1.4983658 1.9859924 69
3.7455211 -1.9581081 2.0412626 8
4.8128757 -2.5171773 1.9784293 28
5.6333175 -2.9475286 1.6241442 36
5.6026549 -2.9327307 0.9730953 10
5.6116872 -2.9387064 0.3492066 38
0.02749484 -0.014972152 1.9941976 82
0.27658665 -0.14673172 1.9909451 96
0.38135791 -0.20119666 2.0964177 59
0.53631699 -0.2825025 1.9838723 75
0.72524297 -0.3818717 1.99051 93
0.92676979 -0.48778918 1.9857829 81
1.1560174 -0.60845619 1.9912933 80
1.4173182 -0.74599433 1.9935577 74
0.10915232 -0.059222307 1.9810979 88
0.19214581 -0.10553452 1.9983203 91
0.47105879 -0.24927552 2.0880225 82
0.62933797 -0.33277225 1.9901476 93
0.82366174 -0.43516916 1.9891212 90
1.0322593 -0.54538578 1.979813 85
1.2735058 -0.67285275 1.9813027 84
1.5717208 -0.83041936 2.0053556 38
1.7496908 -0.91859943 2.0217705 37
2.1155391 -1.110677 2.0083144 14
2.5710373 -1.3503914 1.988623 48
3.209569 -1.6857731 1.9834617 57
4.1292129 -2.1697214 1.972922 43
5.6054668 -2.9466779 1.9501805 37
5.6003232 -2.943974 1.2926868 21
5.6108007 -2.950732 0.6609565 19
1.9128028 -1.0076474 2.006058 38
2.3087034 -1.2167205 1.9837791 71
2.8620861 -1.5083655 1.9859924 69
3.7426775 -1.9732871 2.0433607 8
4.7998834 -2.531759 1.9767867 27
5.5886035 -2.9490271 1.6147656 35
5.5923834 -2.9522696 0.9730953 22
5.5748892 -2.9442782 0.34799743 38
0.027407084 -0.015041719 1.9891979 80
0.27609855 -0.14764813 1.9909451 96
0.38068861 -0.20246018 2.0964177 59
0.5353772 -0.28427944 1.9838723 73
0.72397268 -0.3842746 1.99051 93
0.92514712 -0.49085978 1.9857829 77
1.1539934 -0.61228633 1.9912933 80
1.4148366 -0.75069022 1.9935577 76
0.10896573 -0.059564926 1.9810979 89
0.19181329 -0.10613764 1.9983203 93
0.47027335 -0.25075418 2.0880225 78
0.62828946 -0.33474776 1.9901476 93
0.82221419 -0.43789813 1.9891212 90
1.030445 -0.54880589 1.979813 85
1.2712675 -0.67707217 1.9813027 84
1.5691042 -0.83535296 2.0053556 38
1.749787 -0.92606479 2.025275 46
2.1152849 -1.1195072 2.011452 15
2.566545 -1.3589098 1.988623 37
3.2039611 -1.6964072 1.9834617 57
4.1223764 -2.182683 1.972922 43
5.5622673 -2.9463091 1.9389069 35
nan nan nan 0
5.6141844 -2.9763196 0.66229516 9
1.9094507 -1.013985 2.006058 38
2.304656 -1.2243698 1.9837791 71
2.8573334 -1.5173496 1.9859924 69
3.73646 -1.9850354 2.0433607 8
4.783565 -2.542393 1.9735013 27
5.5449786 -2.9483142 1.6053872 36
5.6180582 -2.9884293 0.97861385 20
5.5126877 -2.9336135 0.34557903 45
0.027351771 -0.015142071 1.9891979 80
0.27555555 -0.14865908 1.9909451 96
0.37994397 -0.20385411 2.0964177 59
0.53433168 -0.28623977 1.9838723 66
0.72255939 -0.38692552 1.99051 93
0.92334181 -0.49424732 1.9857829 75
1.1517415 -0.61651176 1.9912933 80
1.4120758 -0.75587082 1.9935577 74
0.10873622 -0.059982881 1.9810979 89
0.19140436 -0.10687337 1.9983203 93
0.46930707 -0.25255805 2.0880225 75
0.6269995 -0.33715773 1.9901476 91
0.82052672 -0.44105196 1.9891212 90
1.0283301 -0.55275846 1.979813 85
1.2686584 -0.68194848 1.9813027 84
1.5657383 -0.841645 2.0053556 38
1.746381 -0.93247187 2.025275 50
2.1180353 -1.1309197 2.0177276 17
2.5615473 -1.3683076 1.988623 28
3.1977222 -1.7081389 1.9834617 70
4.113965 -2.1984956 1.972922 40
5.5128374 -2.9472885 1.9262241 35
5.9602952 -3.1878476 1.3747574 9
5.6071062 -3.0002038 0.66274136 7
1.9055432 -1.0213093 2.006058 37
2.2999377 -1.2332098 1.9837791 71
2.8512192 -1.5288073 1.9859924 70
3.7124639 -1.9914368 2.0349686 8
4.7733212 -2.5615749 1.9735013 28
5.5031209 -2.9544556 1.597181 36
5.6414466 -3.0287185 0.98413235 6
5.4969821 -2.9523957 0.34537753 44
0.027298748 -0.015237454 1.9891979 82
0.27503496 -0.14962004 1.9909451 96
0.37923011 -0.20517913 2.0964177 55
0.53332925 -0.28810319 1.9838723 66
0.71948534 -0.38851708 1.9859076 93
0.92161095 -0.49746737 1.9857829 73
1.1471062 -0.61919177 1.9871606 80
1.4094286 -0.7607953 1.9935577 74
0.10852618 -0.060362075 1.9810979 88
0.19103013 -0.10754085 1.9983203 93
0.46842259 -0.25419468 2.0880225 71
0.62581879 -0.33934435 1.9901476 91
0.81905967 -0.4437705 1.9891212 92
1.0264915 -0.55616546 1.979813 85
1.2663901 -0.68615168 1.9813027 87
1.5629388 -0.84683245 2.0053556 37
1.7462555 -0.94025296 2.0287795 44
2.1175025 -1.1401516 2.0208654 18
2.5567553 -1.3772407 1.988623 25
3.19174 -1.7192905 1.9834617 69
4.106266 -2.2128427 1.972922 40
5.4729567 -2.950578 1.9163597 36
6.0015774 -3.235568 1.3859489 11
5.623425 -3.0329654 0.66541857 6
1.9054313 -1.0293976 2.0093827 38
2.2958357 -1.2408299 1.9837791 71
2.8461339 -1.5382539 1.9859924 70
3.6739008 -1.9864677 2.0181842 9
4.7481852 -2.5684023 1.9669306 12
5.459095 -2.9541819 1.5878024 37
5.6308403 -3.0483923 0.98413235 6
5.4646773 -2.9596694 0.34436986 44
0.027245393 -0.015332652 1.9891979 82
0.27451101 -0.15057918 1.9909451 96
0.37851158 -0.20650165 2.0964177 55
0.53232032 -0.2899631 1.9838723 64
0.71812481 -0.3910262 1.9859076 93
0.91986883 -0.50068134 1.9857829 66
1.1449379 -0.62319207 1.9871606 80
1.4067643 -0.76571047 1.9935577 74
0.1083148 -0.060740538 1.9810979 88
0.19065358 -0.10820701 1.9983203 93
0.46753246 -0.25582823 2.0880225 69
0.62463045 -0.34152678 1.9901476 91
0.8175056 -0.44662684 1.9891212 90
1.0245439 -0.55974519 1.979813 87
1.2666321 -0.69201308 1.9852921 87
1.5599732 -0.85228306 2.0053556 36
1.7429628 -0.94634283 2.0287795 39
2.1203518 -1.1512513 2.0271409 21
2.5519321 -1.386157 1.988623 25
3.185719 -1.7304214 1.9834617 65
4.1025896 -2.2293761 1.974795 45
5.428906 -2.9513342 1.9050862 34
nan nan nan 0
5.6128039 -3.0525763 0.66541857 4
1.9018265 -1.0360425 2.0093827 38
2.2914903 -1.2488364 1.9837791 73
2.8407469 -1.5481794 1.9859924 70
3.6470206 -1.9884171 2.007694 11
4.7516284 -2.5917451 1.9718586 12
5.4188824 -2.9569221 1.5795963 37
5.585392 -3.0490465 0.97861385 6
5.4104657 -2.9547806 0.34235457 47
0.027191706 -0.015427662 1.9891979 80
0.27398372 -0.15153648 1.9909451 96
0.37689635 -0.20733081 2.0915227 52
0.5313049 -0.29181948 1.9838723 64
0.71675551 -0.39353055 1.9859076 93
0.91811556 -0.50388926 1.9857829 60
1.1427555 -0.62718493 1.9871606 72
1.404083 -0.77061629 1.9935577 73
0.10810213 -0.061118256 1.9810979 88
0.1902747 -0.10887186 1.9983203 93
0.46663657 -0.25745869 2.0880225 67
0.62343448 -0.34370503 1.9901476 91
0.81594163 -0.44947773 1.9891212 90
1.0225837 -0.56331813 1.979813 87
1.2642088 -0.69643027 1.9852921 84
1.5569886 -0.85772318 2.0053556 34
1.7396489 -0.95242107 2.0287795 39
2.119735 -1.1605152 2.0302787 19
2.5470781 -1.3950566 1.988623 33
3.1796594 -1.741531 1.9834617 54
4.0947824 -2.2436833 1.974795 46
5.3891234 -2.9541247 1.8952218 35
5.5007076 -3.015291 1.282428 7
5.532249 -3.0338371 0.65827924 9
1.8981984 -1.0426748 2.0093827 38
2.2871172 -1.2568276 1.9837791 73
2.8353252 -1.558086 1.9859924 69
3.6082408 -1.9836442 1.9909095 14
4.7591043 -2.6174185 1.9784293 15
5.3787174 -2.9594176 1.5713899 37
5.505301 -3.0303166 0.9675768 10
4.9624891 -2.7326617 0.32220146 3
0.027140398 -0.015517748 1.9891979 82
0.27347967 -0.15244421 1.9909451 96
0.37620676 -0.2085795 2.0915227 52
0.53033429 -0.29357976 1.9838723 64
0.71544653 -0.39590523 1.9859076 93
0.91643953 -0.50693107 1.9857829 56
1.1406695 -0.63097101 1.9871606 72
1.4015198 -0.7752682 1.9935577 73
0.10790959 -0.061457567 1.9810979 88
0.18993172 -0.10946908 1.9983203 93
0.46582547 -0.25892341 2.0880225 60
0.62235165 -0.34566194 1.9901476 91
0.81444657 -0.45218104 1.9891212 90
1.0207101 -0.566706 1.979813 87
1.2618924 -0.70061862 1.9852921 84
1.5542864 -0.86261034 2.0053556 34
1.736481 -0.95818478 2.0287795 40
2.1192834 -1.1694188 2.0334165 16
2.542438 -1.4034953 1.988623 39
3.1738667 -1.7520658 1.9834617 45
4.0877142 -2.2565365 1.974795 46
5.3504205 -2.9548061 1.8853575 35
5.447681 -3.0097604 1.2731018 9
5.4829311 -3.0304842 0.65426338 9
1.8947303 -1.0489638 2.0093827 38
2.2829368 -1.2644051 1.9837791 71
2.8304167 -1.5669858 1.9859924 70
3.5900805 -1.9883732 1.9846153 18
4.7591195 -2.6369345 1.9817147 36
5.3396358 -2.9598053 1.5631838 38
5.4481144 -3.0211792 0.95998883 12
4.6000161 -2.5519269 0.30587748 4
0.027086064 -0.015612392 1.9891979 82
0.27294591 -0.1533979 1.9909451 95
0.37547642 -0.20989142 2.0915227 52
0.52930629 -0.29542917 1.9838723 67
0.71406025 -0.39840019 1.9859076 95
0.91466439 -0.51012689 1.9857829 52
1.1384599 -0.63494879 1.9871606 80
1.398805 -0.78015566 1.9935577 69
0.10768361 -0.061852664 1.9810979 88
0.18952924 -0.11016449 1.9983203 93
0.46487334 -0.260629 2.0880225 56
0.62108058 -0.34794062 1.9901476 91
0.81286323 -0.45502123 1.9891212 92
1.0187256 -0.57026553 1.979813 89
1.2594391 -0.70501924 1.9852921 84
1.5511143 -0.86830133 2.0053556 36
1.7331257 -0.96424043 2.0287795 40
2.1185901 -1.178702 2.0365543 16
2.5375233 -1.4123615 1.988623 50
3.1677315 -1.7631339 1.9834617 39
4.0794158 -2.2715034 1.974795 46
5.3102174 -2.9580543 1.875493 36
5.4156857 -3.0168054 1.2684388 9
5.1112556 -2.848392 0.61722791 11
1.8943181 -1.0573914 2.0127075 38
2.2785094 -1.2723663 1.9837791 71
2.8246543 -1.5773492 1.9859924 69
3.5788062 -1.9993045 1.9825172 28
4.7617898 -2.6612713 1.9866428 46
5.2990537 -2.9627519 1.5549775 38
5.389462 -3.0145347 0.9524008 13
5.0353298 -2.8176088 0.3264336 9
0.027031401 -0.015706845 1.9891979 82
0.27240878 -0.15434973 1.9909451 96
0.37562844 -0.2117008 2.0964177 55
0.52827179 -0.29727501 1.9838723 66
0.71436787 -0.40184814 1.99051 95
0.91287816 -0.51331657 1.9857829 50
1.1362367 -0.63891888 1.9871606 82
1.3960732 -0.7850337 1.9935577 69
0.10746705 -0.062228173 1.9810979 88
0.1886832 -0.11055489 1.993349 93
0.46396074 -0.2622501 2.0880225 55
0.61986226 -0.35010651 1.9901476 91
0.81126994 -0.45785588 1.9891212 92
1.0167289 -0.57381809 1.979813 87
1.2569704 -0.7094112 1.9852921 87
1.5480739 -0.87371039 2.0053556 35
1.7297493 -0.97028422 2.0287795 39
2.1178579 -1.1879945 2.0396919 13
2.532578 -1.4212105 1.988623 58
3.1615579 -1.7741805 1.9834617 39
4.0714617 -2.2857294 1.974795 45
5.2705803 -2.9601283 1.8656287 35
5.3537259 -3.0068254 1.2572473 12
4.6757984 -2.6271529 0.57349938 13
1.8906157 -1.0639974 2.0127075 39
2.2740541 -1.2803121 1.9837791 71
2.8191309 -1.5871996 1.9859924 69
3.5678513 -2.0095575 1.9804192 35
4.7483568 -2.6755586 1.985 49
5.2590399 -2.9645228 1.5467713 39
5.3400841 -3.011436 0.94619244 14
4.5163679 -2.5479562 0.30285448 10
0.02697641 -0.015801106 1.9891979 80
0.27186832 -0.15529969 1.9909451 96
0.37488717 -0.2130107 2.0964177 57
0.52723086 -0.29911721 1.9838723 66
0.71296078 -0.40433931 1.99051 95
0.9110809 -0.51650006 1.9857829 50
1.1339995 -0.64288121 1.9871606 82
1.3933246 -0.78990209 1.9935577 74
0.10724918 -0.062602922 1.9810979 88
0.18829614 -0.11121284 1.993349 93
0.46304247 -0.26386803 2.0880225 55
0.61863631 -0.3522681 1.9901476 91
0.80966675 -0.46068496 1.9891212 92
1.0147197 -0.57736367 1.979813 87
1.2544863 -0.71379453 1.9852921 84
1.5420681 -0.87743235 2.0016804 36
1.7263517 -0.97631627 2.0287795 37
2.1204751 -1.1992128 2.0459676 13
2.5276015 -1.4300421 1.988623 58
3.1553457 -1.7852056 1.9834617 44
4.0634584 -2.2999275 1.974795 45
5.2309942 -2.9619617 1.8557644 35
5.3047271 -3.0037117 1.2488538 13
5.2429061 -2.9699154 0.63284528 11
1.8901378 -1.0724331 2.0160325 38
2.2695711 -1.2882422 1.9837791 71
2.8135734 -1.5970304 1.9859924 68
3.5608146 -2.0219994 1.9804192 46
4.7389884 -2.692117 1.985 49
5.219079 -2.9660513 1.5385652 39
5.2907939 -3.0080297 0.93998414 14
4.4944186 -2.5562959 0.30224991 10
0.02692109 -0.015895175 1.9891979 80
0.27132457 -0.15624774 1.9909451 96
0.37414134 -0.21431799 2.0964177 57
0.52618355 -0.30095577 1.9838723 66
0.71154505 -0.40682554 1.99051 95
0.90927237 -0.51967716 1.9857829 48
1.1317484 -0.64683568 1.9871606 80
1.3933421 -0.79635179 1.9973947 76
0.10703 -0.062976912 1.9810979 89
0.1879068 -0.11186944 1.993349 93
0.46211857 -0.26548272 2.0880225 55
0.61740291 -0.35442537 1.9901476 91
0.80805373 -0.4635084 1.9891212 92
1.0126982 -0.5809021 1.979813 87
1.2519872 -0.71816909 1.9852921 84
1.538996 -0.88280976 2.0016804 36
1.7229333 -0.98233646 2.0287795 37
2.1196582 -1.2085356 2.0491054 14
2.5225945 -1.4388564 1.988623 43
3.1490948 -1.796209 1.9834617 53
4.0554056 -2.3140976 1.974795 46
5.1914587 -2.9635551 1.8458999 36
5.2558146 -3.000293 1.2404602 13
5.2325072 -2.9881985 0.63284528 11
1.8863827 -1.0790244 2.0160325 38
2.2650604 -1.2961565 1.9837791 71
2.8079815 -1.6068419 1.9859924 69
3.553735 -2.0344164 1.9804192 55
4.7295628 -2.708643 1.985 49
5.1791711 -2.9673367 1.5303589 39
5.2415943 -3.0043163 0.93377584 15
4.4854684 -2.5719688 0.30224991 35
0.026865441 -0.01598905 1.9891979 82
0.27077752 -0.15719387 1.9909451 95
0.37339094 -0.21562269 2.0964177 59
0.52512985 -0.30279061 1.9838723 64
0.71012062 -0.40930682 1.99051 93
0.90745276 -0.52284789 1.9857829 50
1.1294837 -0.65078229 1.9871606 80
1.390554 -0.80121058 1.9973947 74
0.10680952 -0.063350134 1.9810979 88
0.18751515 -0.11252467 1.993349 93
0.46118903 -0.26709422 2.0880225 55
0.616162 -0.35657835 1.9901476 91
0.80643088 -0.46632621 1.9891212 92
1.0106642 -0.58443356 1.979813 87
1.2494727 -0.72253501 1.9852921 87
1.5329702 -0.88647938 1.9980052 37
1.7164018 -0.98656738 2.025275 38
2.1188018 -1.217867 2.052243 14
2.5175562 -1.4476532 1.988623 36
3.1428056 -1.8071905 1.9834617 57
4.0473027 -2.3282397 1.974795 46
5.1561351 -2.9673014 1.8374448 36
5.2069921 -2.9965692 1.2320666 13
5.2220445 -3.0064449 0.63284528 12
1.8858401 -1.0874681 2.0193572 38
2.2605221 -1.3040552 1.9837791 71
2.8023558 -1.6166338 1.9859924 70
3.546612 -2.046809 1.9804192 59
4.7159891 -2.7227747 1.9833575 46
5.1393185 -2.96838 1.5221527 39
5.1753325 -2.9903858 0.9248082 15
nan nan nan 0
0.026809465 -0.01608273 1.9891979 82
0.27022716 -0.1581381 1.9909451 95
0.37263602 -0.21692476 2.0964177 59
0.52406973 -0.30462185 1.9838723 64
0.70868754 -0.41178307 1.99051 93
0.90562212 -0.52601236 1.9857829 50
1.1296384 -0.65613431 1.9912933 80
1.3877486 -0.8060596 1.9973947 73
0.10658772 -0.063722581 1.9810979 88
0.18712121 -0.11317854 1.993349 93
0.46025392 -0.26870245 2.0880225 55
0.61491358 -0.35872701 1.9901476 93
0.80479819 -0.46913835 1.9891212 92
1.008618 -0.58795786 1.979813 85
1.2469429 -0.72689211 1.9852921 87
1.5298666 -0.89182502 1.9980052 39
1.7129476 -0.99255264 2.025275 39
2.121274 -1.229159 2.0585186 16
2.5124879 -1.4564322 1.988623 35
3.1364782 -1.8181498 1.9834617 61
4.0431619 -2.3446789 1.9766681 46
5.1166992 -2.9684305 1.8275805 36
5.162508 -2.9950066 1.2246057 13
5.1727529 -3.0021567 0.62882942 12
1.8852609 -1.0959209 2.022682 42
2.2559562 -1.3119379 1.9837791 71
2.7966955 -1.626406 1.9859924 69
3.5433686 -2.0614588 1.9825172 59
4.7064562 -2.7392199 1.9833575 46
5.1037226 -2.9716275 1.5151187 39
5.1520252 -3.0009551 0.92273873 15
3.9882669 -2.3240201 0.27987999 6
0.026753163 -0.016176216 1.9891979 82
0.2696735 -0.1590804 1.9909451 95
0.37187654 -0.21822417 2.0964177 56
0.52300322 -0.30644932 1.9838723 64
0.70556015 -0.41326696 1.9859076 91
0.90378058 -0.52917033 1.9857829 48
1.1273413 -0.6600734 1.9912933 80
1.3821599 -0.80927891 1.9935577 73
0.10636465 -0.064094253 1.9810979 88
0.18672502 -0.11383103 1.993349 93
0.45931315 -0.27030739 2.0880225 53
0.61365759 -0.36087126 1.9901476 93
0.80315572 -0.47194478 1.9891212 92
1.0065596 -0.59147501 1.979813 87
1.2443981 -0.73124027 1.9852921 87
1.5238214 -0.89544231 1.99433 43
1.7094725 -0.99852586 2.025275 38
2.1203322 -1.2385197 2.0616565 17
2.5073886 -1.4651936 1.988623 38
3.1301126 -1.8290871 1.9834617 61
4.0349526 -2.358778 1.9766681 46
5.0773177 -2.9693201 1.817716 37
5.1223397 -2.9956498 1.2180773 13
nan nan nan 0
1.881424 -1.1024952 2.022682 50
2.2513633 -1.3198047 1.9837791 73
2.787282 -1.6339781 1.9834601 69
3.5361512 -2.0738149 1.9825172 60
4.696866 -2.7556322 1.9833575 46
5.0639753 -2.9722021 1.5069126 39
nan nan nan 0
4.0145922 -2.3581705 0.28149223 22
0.026696535 -0.016269501 1.9891979 82
0.26911658 -0.16002078 1.9909451 95
0.3711125 -0.21952093 2.0964177 56
0.52193034 -0.30827308 1.9838723 67
0.7041133 -0.41572732 1.9859076 93
0.90192789 -0.53232187 1.9857829 48
1.1250303 -0.66400456 1.9912933 82
1.3793266 -0.8140986 1.9935577 74
0.10614027 -0.064465143 1.9810979 88
0.18632653 -0.11448212 1.993349 93
0.45836678 -0.27190906 2.0880225 53
0.61239421 -0.36301112 1.9901476 93
0.80150342 -0.47474542 1.9891212 92
1.0044887 -0.59498495 1.979813 87
1.241838 -0.73557961 1.9852921 87
1.5206864 -0.90075594 1.99433 52
1.7059766 -1.0044869 2.025275 38
2.1193507 -1.2478886 2.0647943 19
2.5022588 -1.4739372 1.988623 48
3.123709 -1.8400022 1.9834617 61
4.0266948 -2.372848 1.9766681 46
5.0379939 -2.9699712 1.8078517 37
5.0822296 -2.9960492 1.2115489 13
4.0106258 -2.3652656 0.51013762 14
1.8807796 -1.110955 2.0260069 52
2.2467422 -1.3276553 1.9837791 71
2.7815614 -1.6436976 1.9834601 69
3.5288904 -2.0861459 1.9825172 61
4.6872182 -2.7720101 1.9833575 47
5.0284696 -2.9750106 1.4998786 40
4.0399604 -2.3911269 0.7461459 13
4.3846378 -2.5961642 0.29922694 9
0.026639581 -0.016362593 1.9891979 80
0.26855636 -0.1609592 1.9909451 96
0.37034398 -0.22081503 2.0964177 59
0.52085102 -0.31009308 1.9838723 67
0.70265782 -0.41818258 1.9859076 95
0.90006423 -0.53546697 1.9857829 46
1.1227056 -0.66792762 1.9912933 80
1.3764764 -0.81890839 1.9935577 74
0.1059146 -0.064835243 1.9810979 88
0.18592578 -0.11513183 1.993349 93
0.45741487 -0.27350739 2.0880225 53
0.61112338 -0.36514655 1.9901476 91
0.7998414 -0.47754028 1.9891212 90
1.0024058 -0.59848762 1.979813 87
1.2392628 -0.73990995 1.9852921 87
1.5175329 -0.90605861 1.99433 66
1.7024599 -1.0104359 2.025275 39
2.1183293 -1.2572658 2.0679321 22
2.4970984 -1.4826627 1.988623 56
3.1172669 -1.8508947 1.9834617 62
4.0183873 -2.3868892 1.9766681 46
4.9987273 -2.9703846 1.7979873 37
5.0421805 -2.9962058 1.2050205 13
4.0023456 -2.379251 0.51013762 2
1.8800986 -1.1194239 2.0293317 52
2.2420943 -1.33549 1.9837791 71
2.7758071 -1.6533972 1.9834601 69
3.5215869 -2.0984514 1.9825172 61
4.6815701 -2.7907729 1.985 48
4.988832 -2.9751182 1.4916724 43
4.0188303 -2.3976023 0.74407649 16
4.3755488 -2.6114538 0.29922694 9
0.026582301 -0.016455481 1.9891979 82
0.26799285 -0.16189565 1.9909451 96
0.36957094 -0.22210643 2.0964177 59
0.52104604 -0.31267789 1.9886441 69
0.70119381 -0.42063278 1.9859076 93
0.8981896 -0.53860557 1.9857829 48
1.1203673 -0.67184258 1.9912933 80
1.3736095 -0.8237083 1.9935577 73
0.10568763 -0.065204561 1.9810979 88
0.18552276 -0.11578014 1.993349 91
0.45645738 -0.27510241 2.0880225 55
0.60984498 -0.36727756 1.9901476 91
0.79816955 -0.48032933 1.9891212 90
1.0003105 -0.60198307 1.979813 85
1.2366724 -0.74423128 1.9852921 84
1.5143609 -0.91135025 1.99433 74
1.6989224 -1.0163724 2.025275 39
2.1172686 -1.2666512 2.0710697 26
2.4919078 -1.49137 1.988623 67
3.1107872 -1.8617647 1.9834617 54
4.0100312 -2.4009018 1.9766681 46
4.963635 -2.9730248 1.7895322 37
5.0021925 -2.9961193 1.1984923 13
nan nan nan 0
1.8761796 -1.1259798 2.0293317 50
2.2374189 -1.3433081 1.9837791 71
2.7737145 -1.6652954 1.9859924 70
3.5142407 -2.1107311 1.9825172 62
4.6717997 -2.8070974 1.985 46
4.949255 -2.9749851 1.4834661 46
3.8873622 -2.3376069 0.7240718 13
3.8740904 -2.3305471 0.27605087 13
0.0265247 -0.016548172 1.9891979 82
0.26742613 -0.16283013 1.9909451 95
0.36879337 -0.22339511 2.0964177 56
0.51995146 -0.31449476 1.9886441 82
0.69972128 -0.42307782 1.9859076 95
0.89630407 -0.5417375 1.9857829 52
1.1180153 -0.67574924 1.9912933 80
1.370726 -0.82849801 1.9935577 74
0.10545938 -0.065573089 1.9810979 88
0.18511748 -0.11642702 1.993349 93
0.45549431 -0.27669406 2.0880225 53
0.60855925 -0.36940411 1.9901476 91
0.79648799 -0.48311254 1.9891212 93
0.99820316 -0.60547107 1.979813 85
1.234067 -0.7485435 1.9852921 87
1.5111704 -0.9166308 1.99433 78
1.6953642 -1.0222965 2.025275 38
2.1161678 -1.2760444 2.0742075 28
2.4866869 -1.5000594 1.988623 67
3.1042695 -1.872612 1.9834617 53
4.001626 -2.4148848 1.9766681 48
4.9244781 -2.9729772 1.7796679 38
4.9622655 -2.99579 1.1919639 14
4.9362655 -2.9812691 0.60964239 9
1.8722378 -1.132522 2.0293317 52
2.2327163 -1.35111 1.9837791 71
2.767885 -1.6749673 1.9859924 70
3.5068514 -2.1229851 1.9825172 62
4.6619725 -2.8233881 1.985 46
4.90974 -2.9746125 1.47526 48
3.8622384 -2.3408949 0.72131258 13
3.874476 -2.3492367 0.27645394 20
0.026466774 -0.016640658 1.9891979 80
0.2668561 -0.16376263 1.9909451 95
0.36801133 -0.22468106 2.0964177 56
0.51885051 -0.31630781 1.9886441 86
0.69990838 -0.42653438 1.99051 95
0.89440763 -0.54486293 1.9857829 62
1.1156496 -0.6796478 1.9912933 82
1.3678255 -0.8332777 1.9935577 74
0.10522985 -0.065940812 1.9810979 89
0.18516056 -0.1173589 1.9983203 93
0.45452568 -0.27828234 2.0880225 53
0.60726613 -0.37152609 1.9901476 93
0.79479682 -0.48588985 1.9891212 92
0.9983086 -0.6103121 1.9840788 87
1.2314465 -0.75284666 1.9852921 84
1.5108539 -0.9236685 1.9980052 81
1.6917853 -1.0282083 2.025275 37
2.115027 -1.2854451 2.0773454 28
2.4814353 -1.5087303 1.988623 67
3.0977139 -1.8834366 1.9834617 61
3.9971323 -2.431247 1.978541 43
4.8894811 -2.9751863 1.7712126 37
4.9266 -2.9977727 1.1863682 16
4.9258294 -2.9984815 0.60964239 9
1.868273 -1.1390505 2.0293317 50
2.2279866 -1.3588954 1.9837791 71
2.7620213 -1.6846189 1.9859924 70
3.4994195 -2.1352134 1.9825172 62
4.6520886 -2.839644 1.985 45
4.8661399 -2.9714673 1.4658815 48
3.8455918 -2.3491988 0.71993291 12
3.8790405 -2.3705621 0.27705854 15
0.026408527 -0.016732942 1.9891979 82
0.26628283 -0.16469313 1.9909451 95
0.36722481 -0.22596431 2.0964177 59
0.51774323 -0.31811699 1.9886441 86
0.69841528 -0.42897496 1.99051 95
0.89250022 -0.54798162 1.9857829 67
1.1132705 -0.68353796 1.9912933 82
1.3649085 -0.83804721 1.9935577 74
0.10499903 -0.066307724 1.9810979 88
0.18474977 -0.11800451 1.9983203 93
0.4535515 -0.27986723 2.0880225 53
0.6059655 -0.37364361 1.9901476 93
0.79309589 -0.48866126 1.9891212 92
0.99617219 -0.61379313 1.9840788 87
1.2288111 -0.75714064 1.9852921 84
1.5076206 -0.92893678 1.9980052 80
1.688186 -1.0341074 2.025275 37
2.1138468 -1.2948534 2.0804832 28
2.4761539 -1.517383 1.988623 67
3.0911207 -1.8942381 1.9834617 61
3.9886212 -2.4451849 1.978541 43
4.8504395 -2.9746795 1.7613482 38
4.8867931 -2.9969745 1.1798398 27
4.8856182 -2.9974275 0.60651892 11
1.8642856 -1.1455649 2.0293317 46
2.2232294 -1.3666642 1.9837791 71
2.756124 -1.6942499 1.9859924 70
3.491945 -2.1474156 1.9825172 62
4.6421485 -2.8558657 1.985 45
4.8226223 -2.9680543 1.4565029 46
3.8753211 -2.3859756 0.72614127 7
4.6874723 -2.8871331 0.31575248 8
0.026352894 -0.016820425 1.9891979 82
0.26573524 -0.16557528 1.9909451 95
0.36647347 -0.22718084 2.0964177 59
0.51668549 -0.31983218 1.9886441 84
0.69698888 -0.4312886 1.99051 93
0.89067817 -0.55093825 1.9857829 75
1.1109977 -0.68722594 1.9912933 82
1.3621219 -0.84256881 1.9935577 74
0.1047902 -0.066637263 1.9810979 88
0.18437815 -0.11858434 1.9983203 91
0.45267004 -0.28129074 2.0880225 55
0.60478866 -0.37554541 1.9901476 93
0.79147106 -0.4912886 1.9891212 92
0.99413127 -0.61709321 1.9840788 87
1.2262937 -0.7612114 1.9852921 82
1.5075755 -0.93545604 2.0016804 71
1.6877824 -1.0415729 2.0287795 39
2.1128542 -1.3039006 2.0836208 25
2.4711084 -1.5255859 1.988623 67
3.0848219 -1.9044783 1.9834617 64
3.9809198 -2.4577034 1.978541 45
4.8165808 -2.9747779 1.7528931 39
4.8517542 -2.9976714 1.1742442 27
4.8714156 -3.010994 0.60607266 11
1.8604765 -1.1517409 2.0293317 48
2.2186854 -1.3740293 1.9837791 71
2.750788 -1.7029001 1.9859924 70
3.4890399 -2.1607649 1.9846153 63
4.6331534 -2.870435 1.985 46
4.7802224 -2.9627054 1.4471244 32
nan nan nan 0
4.6486602 -2.8834119 0.31434175 7
0.026294019 -0.016912311 1.9891979 82
0.26515564 -0.16650183 1.9909451 96
0.36567822 -0.22845867 2.0964177 59
0.51556587 -0.32163379 1.9886441 84
0.69547915 -0.43371895 1.99051 93
0.8887496 -0.55404395 1.9857829 75
1.108592 -0.69109988 1.9912933 74
1.3618932 -0.84901452 1.9973947 73
0.10454526 -0.067020893 1.9810979 89
0.18349463 -0.11896829 1.993349 91
0.45163605 -0.28294796 2.0880225 55
0.60340816 -0.37775961 1.9901476 93
0.78975129 -0.49404836 1.9891212 92
0.99197114 -0.62055963 1.9840788 87
1.2236291 -0.76548731 1.9852921 82
1.5041367 -0.94097525 2.0016804 66
1.6871645 -1.0493413 2.032284 44
2.1115954 -1.3133239 2.0867586 23
2.4657681 -1.5342025 1.988623 67
3.0781555 -1.9152346 1.9834617 64
3.9718852 -2.4722779 1.978541 45
4.7812119 -2.9771969 1.7444379 40
4.8162413 -2.9990096 1.1686484 33
4.8355136 -3.0121813 0.60339546 11
1.856445 -1.1582282 2.0293317 46
2.2138755 -1.3817656 1.9837791 71
2.7445278 -1.7129709 1.9859924 70
3.4810967 -2.1735384 1.9846153 63
4.6226015 -2.8873971 1.985 47
4.7239885 -2.9518726 1.4342288 17
4.7660251 -2.9792969 0.87514144 22
nan nan nan 0
0.026231853 -0.017008569 1.9891979 82
0.2638872 -0.1670568 1.9860058 96
0.36483842 -0.22979742 2.0964177 59
0.51438361 -0.32352129 1.9886441 86
0.69388485 -0.43626508 1.99051 93
0.88671297 -0.55729771 1.9857829 77
1.1060514 -0.69515842 1.9912933 74
1.3587723 -0.85400039 1.9973947 73
0.10429892 -0.067403615 1.9810979 88
0.18305737 -0.11964004 1.993349 91
0.45059597 -0.28460139 2.0880225 55
0.60201955 -0.37996864 1.9901476 91
0.78784847 -0.49707714 1.9891212 90
0.98958105 -0.62436396 1.9840788 87
1.2206808 -0.77018005 1.9852921 82
1.5033796 -0.94855279 2.0053556 55
1.6863286 -1.0574129 2.0357888 44
2.1067677 -1.3210545 2.0867586 17
2.4601285 -1.5432296 1.988623 67
3.0711153 -1.9265039 1.9834617 62
3.9627972 -2.4868188 1.978541 46
4.7458897 -2.9793966 1.7359827 39
4.7755713 -2.9991925 1.1621201 37
4.8028278 -3.0174792 0.6011644 13
1.8519839 -1.1653478 2.0293317 50
2.2085536 -1.390256 1.9837791 71
2.7379303 -1.7234963 1.9859924 70
3.4727254 -2.1868887 1.9846153 63
4.6074853 -2.9026084 1.9833575 48
4.6920595 -2.957032 1.4283673 7
4.763453 -3.0020256 0.87652111 53
4.7330527 -2.9840209 0.31938004 53
0.026172325 -0.017100032 1.9891979 80
0.26330248 -0.16797692 1.9860058 95
0.3631745 -0.23052382 2.0915227 60
0.51325113 -0.32531479 1.9886441 86
0.69235772 -0.43868452 1.99051 93
0.88476223 -0.56038952 1.9857829 79
1.1036183 -0.69901502 1.9912933 80
1.355783 -0.85873818 1.9973947 69
0.104063 -0.067767277 1.9810979 88
0.18263862 -0.12027828 1.993349 91
0.44959974 -0.28617251 2.0880225 55
0.60068959 -0.38206777 1.9901476 91
0.78619581 -0.49968699 1.9891212 90
0.98750526 -0.6276421 1.9840788 89
1.2181201 -0.77422374 1.9852921 84
1.5002259 -0.95353293 2.0053556 50
1.6826273 -1.0632927 2.0357888 50
2.1021435 -1.3284003 2.0867586 16
2.4547267 -1.5518076 1.988623 67
3.0643716 -1.9372123 1.9834617 64
3.9540925 -2.5006363 1.978541 46
4.7070813 -2.9779906 1.7261183 40
4.7406917 -2.9992547 1.1565243 39
4.7675467 -3.01741 0.59848714 14
1.8481092 -1.1714828 2.0293317 50
2.2039309 -1.397572 1.9837791 71
2.7321999 -1.7325661 1.9859924 70
3.4654543 -2.1983926 1.9846153 62
4.5978346 -2.9178715 1.9833575 50
4.6247783 -2.9361031 1.4119549 4
4.686059 -2.9761555 0.865484 6
4.693089 -2.9817698 0.31796932 55
0.026112475 -0.017191287 1.9891979 80
0.26271448 -0.16889499 1.9860058 95
0.36236757 -0.23179011 2.0915227 60
0.51211244 -0.32710442 1.9886441 86
0.69082224 -0.44109863 1.99051 95
0.8828007 -0.56347448 1.9857829 79
1.1011715 -0.7028631 1.9912933 80
1.3527772 -0.86346549 1.9973947 69
0.10382581 -0.068130113 1.9810979 88
0.18221766 -0.12091509 1.993349 91
0.44859809 -0.2877402 2.0880225 53
0.59935224 -0.38416225 1.9901476 91
0.78444678 -0.50242829 1.9891212 90
0.98530829 -0.63108528 1.9840788 87
1.2154101 -0.77847105 1.9852921 84
1.4997431 -0.96059251 2.0090308 49
1.6758975 -1.0672441 2.032284 40
2.0942101 -1.333639 2.0836208 14
2.4528215 -1.5626134 1.9913646 67
3.0575907 -1.947897 1.9834617 65
3.9453394 -2.5144234 1.978541 46
4.6723871 -2.9789293 1.7176632 40
4.7011995 -2.997299 1.149996 55
4.7317924 -3.0179656 0.59580988 14
1.8440089 -1.1779268 2.0293317 48
2.1990392 -1.4052567 1.9837791 69
2.7261355 -1.7420927 1.9859924 70
3.4577594 -2.2104762 1.9846153 63
4.5876212 -2.9339032 1.9833575 52
4.6226897 -2.9574668 1.4142994 3
4.6464448 -2.9738081 0.86065531 3
4.6658225 -2.9873583 0.3171632 54
0.026052307 -0.017282333 1.9891979 78
0.26212335 -0.16981101 1.9860058 95
0.36155626 -0.23305362 2.0915227 64
0.51096749 -0.32889003 1.9886441 86
0.68763542 -0.44245026 1.9859076 95
0.87881339 -0.56525648 1.9813942 79
1.0987114 -0.70670259 1.9912933 80
1.3497548 -0.86818224 1.9973947 71
0.10358736 -0.068492115 1.9810979 86
0.18223795 -0.12184773 1.9983203 91
0.44759098 -0.28930432 2.0880225 53
0.59800768 -0.38625202 1.9901476 89
0.7826882 -0.50516349 1.9891212 92
0.98309934 -0.63452083 1.9840788 87
1.2126853 -0.78270888 1.9852921 84
1.4963809 -0.9658218 2.0090308 47
1.6721618 -1.0730876 2.032284 38
2.0895422 -1.3409411 2.0836208 14
2.4473519 -1.5711658 1.9913646 67
3.0507727 -1.9585581 1.9834617 65
3.9365385 -2.5281799 1.978541 45
4.6377439 -2.9796622 1.709208 41
4.6617789 -2.9951043 1.1434677 39
4.6960926 -3.0183079 0.59313262 14
1.836746 -1.1823353 2.0260069 48
2.1941204 -1.4129243 1.9837791 69
2.7200377 -1.7515981 1.9859924 70
3.4500225 -2.2225325 1.9846153 63
4.577352 -2.949899 1.9833575 52
4.6205087 -2.978853 1.4166441 3
4.6277122 -2.9846411 0.85927576 3
4.6301789 -2.987376 0.315954 55
0.025994852 -0.01736863 1.9891979 78
0.26220939 -0.17110409 1.9909451 95
0.36078143 -0.23425131 2.0915227 62
0.50987411 -0.33058265 1.9886441 88
0.68616444 -0.44472808 1.9859076 93
0.87693405 -0.56816763 1.9813942 79
1.0963618 -0.71034223 1.9912933 78
1.3468684 -0.87265348 1.9973947 69
0.10337167 -0.068817213 1.9810979 89
0.18185426 -0.12241966 1.9983203 93
0.44667989 -0.29070905 2.0880225 56
0.59679121 -0.38812879 1.9901476 89
0.78100872 -0.50775617 1.9891212 92
0.98098981 -0.63777739 1.9840788 87
1.210083 -0.78672606 1.9852921 82
1.4933393 -0.97051805 2.0090308 47
1.6655992 -1.0766907 2.0287795 35
2.0785453 -1.343636 2.0773454 13
2.4421282 -1.579273 1.9913646 69
3.0405409 -1.9662584 1.9811436 65
3.9285765 -2.5405343 1.978541 46
4.6041927 -2.9785826 1.7007529 42
4.6229534 -2.991864 1.1369393 30
4.6651559 -3.0203321 0.59090161 14
1.8328152 -1.1884196 2.0260069 39
2.1894231 -1.4201925 1.9837791 71
2.7145216 -1.7601347 1.9859924 70
3.443023 -2.2333601 1.9846153 63
4.5680618 -2.9642644 1.9833575 37
4.5703578 -2.9668882 1.4049208 3
4.6058526 -2.9910731 0.85720623 3
4.599823 -2.9882984 0.31494635 58
0.025934067 -0.017459262 1.9891979 80
0.26161054 -0.17201833 1.9909451 93
0.35996157 -0.23550923 2.0915227 56
0.50871706 -0.33236045 1.9886441 88
0.68460786 -0.44712055 1.9859076 93
0.87494552 -0.57122523 1.9813942 79
1.0938755 -0.71416485 1.9912933 78
1.343814 -0.87734956 1.9973947 68
0.10311875 -0.069195621 1.9810979 89
0.18140435 -0.12308536 1.9983203 93
0.44561139 -0.29234427 2.0880225 67
0.59536469 -0.39031357 1.9901476 91
0.77923155 -0.51047933 1.9891212 92
0.97875756 -0.6411978 1.9840788 87
1.2073295 -0.79094517 1.9852921 82
1.4897722 -0.97598481 2.0090308 49
1.6588424 -1.0805516 2.025275 35
2.0705807 -1.3487587 2.0742075 13
2.4366009 -1.5877879 1.9913646 69
3.033659 -1.9768598 1.9811436 64
3.9231226 -2.5574481 1.980414 45
4.5651164 -2.9770939 1.6908885 47
4.5836792 -2.9891996 1.1304109 22
4.629559 -3.0202718 0.58822429 15
1.8255293 -1.1927674 2.022682 39
2.1844525 -1.4278263 1.9837791 69
2.7080524 -1.7700721 1.9859924 70
3.4348145 -2.2459643 1.9846153 63
4.5571666 -2.9809875 1.9833575 37
4.559453 -2.9836195 1.4049208 4
4.5782862 -2.9970846 0.85444695 59
nan nan nan 0
0.025872964 -0.017549682 1.9891979 80
0.2610085 -0.17293046 1.9909451 93
0.3591373 -0.2367643 2.0915227 56
0.50755376 -0.33413419 1.9886441 88
0.68304294 -0.44950756 1.9859076 95
0.8729462 -0.57427591 1.9813942 79
1.0913761 -0.71797889 1.9912933 78
1.3407434 -0.88203508 1.9973947 68
0.10287659 -0.069555148 1.9810979 89
0.1809736 -0.12371783 1.9983203 91
0.44353899 -0.29320428 2.0831835 75
0.59399855 -0.39238939 1.9901476 91
0.7774449 -0.51319623 1.9891212 92
0.97651339 -0.6446104 1.9840788 87
1.2045612 -0.79515469 1.9852921 84
1.4835268 -0.97931135 2.0053556 47
1.6550605 -1.0863355 2.025275 38
2.0626056 -1.353842 2.0710697 12
2.4310434 -1.5962836 1.9913646 69
3.0267398 -1.9874374 1.9811436 64
3.9141717 -2.5711269 1.980414 45
4.5306411 -2.9772038 1.6824332 54
4.5485859 -2.9889958 1.1248153 10
4.5981812 -3.0227354 0.58599329 15
1.8182358 -1.1970791 2.0193572 39
2.1828306 -1.4376661 1.9867221 56
2.7018569 -1.7795143 1.9859924 70
3.4269533 -2.2579403 1.9846153 62
4.5270185 -2.983882 1.975144 38
4.5206056 -2.980787 1.3967147 5
4.5512609 -3.0021405 0.85168773 4
nan nan nan 0
0.025811546 -0.01763989 1.9891979 82
0.26040328 -0.17384051 1.9909451 95
0.35830864 -0.23801647 2.0915227 50
0.50638431 -0.33590382 1.9886441 84
0.68146968 -0.45188907 1.9859076 95
0.87093633 -0.5773195 1.9813942 79
1.0888631 -0.72178411 1.9912933 80
1.3376564 -0.88670975 1.9973947 69
0.10263316 -0.069913842 1.9810979 86
0.18054064 -0.1243488 1.9983203 91
0.44251281 -0.29475072 2.0831835 73
0.59262526 -0.39446047 1.9901476 91
0.77564871 -0.51590687 1.9891212 92
0.97425735 -0.64801514 1.9840788 89
1.2017783 -0.79935455 1.9852921 84
1.4800993 -0.9844839 2.0053556 47
1.648284 -1.0901389 2.0217705 38
2.0546203 -1.3588862 2.0679321 12
2.4254565 -1.6047598 1.9913646 69
3.019784 -1.9979905 1.9811436 65
3.9090385 -2.587333 1.9822872 39
4.496222 -2.9771097 1.6739782 53
4.5258369 -2.9967189 1.1220174 7
4.5626912 -3.0222671 0.58331603 15
1.8140461 -1.2034185 2.0193572 39
2.1777987 -1.4452769 1.9867221 42
2.6956289 -1.7889347 1.9859924 69
3.4190509 -2.2698889 1.9846153 62
4.4890385 -2.9813776 1.9636453 52
nan nan nan 0
4.5283813 -3.0097854 0.84961826 4
4.4679027 -2.9707129 0.31010962 6
0.025749814 -0.017729882 1.9891979 80
0.25979486 -0.17474841 1.9909451 95
0.35832173 -0.23983219 2.0964177 51
0.50520873 -0.33766937 1.9886441 84
0.67988813 -0.45426512 1.9859076 93
0.86891574 -0.58035618 1.9813942 81
1.083997 -0.72401768 1.9871606 80
1.334553 -0.89137363 1.9973947 69
0.10238849 -0.070271671 1.9810979 86
0.18010548 -0.12497824 1.9983203 91
0.44043687 -0.29559258 2.0783441 64
0.59124476 -0.39652669 1.9901476 91
0.77384317 -0.51861125 1.9891212 92
0.97198945 -0.65141201 1.9840788 89
1.1989807 -0.8035447 1.9852921 84
1.4766538 -0.98964435 2.0053556 47
1.6444688 -1.0958859 2.0217705 38
2.0239491 -1.3487796 2.0428298 12
2.4198403 -1.6132163 1.9913646 63
3.0164776 -2.0109768 1.9834617 62
3.9038403 -2.6035347 1.9841602 29
4.4618578 -2.9768114 1.6655229 52
4.5030899 -3.0043204 1.1192195 7
4.5355444 -3.0271168 0.58153117 15
1.8098344 -1.2097434 2.0193572 38
2.1727407 -1.4528699 1.9867221 33
2.689368 -1.7983333 1.9859924 69
3.4111066 -2.2818096 1.9846153 64
4.4511304 -2.9786439 1.9521464 56
nan nan nan 0
4.5013885 -3.0145516 0.84685904 19
4.4409032 -2.9751675 0.30930349 12
0.025687769 -0.017819656 1.9891979 82
0.25918329 -0.1756542 1.9909451 96
0.3574824 -0.24108149 2.0964177 59
0.50278813 -0.33859649 1.9838723 78
0.67829835 -0.45663559 1.9859076 93
0.86688465 -0.58338571 1.9813942 81
1.0814631 -0.72779709 1.9871606 78
1.3314334 -0.89602661 1.9973947 69
0.10214257 -0.070628643 1.9810979 86
0.17966811 -0.12560616 1.9983203 91
0.43836042 -0.29642355 2.0735047 53
0.58842713 -0.39762181 1.9854547 89
0.77202815 -0.52130926 1.9891212 93
0.96970963 -0.65480089 1.9840788 85
1.1961684 -0.80772501 1.9852921 84
1.4731903 -0.99479276 2.0053556 47
1.6406333 -1.1016195 2.0217705 38
2.0030689 -1.3449857 2.0271409 12
2.4141941 -1.6216533 1.9913646 61
3.0094395 -2.0214939 1.9834617 62
3.8947287 -2.6171458 1.9841602 26
4.4275522 -2.9763103 1.6570679 48
4.4803452 -3.0117993 1.1164217 16
4.5042872 -3.0290353 0.57930011 16
1.8056006 -1.2160535 2.0193572 39
2.1676559 -1.4604454 1.9867221 33
2.6830742 -1.8077101 1.9859924 70
3.403121 -2.2937028 1.9846153 64
4.417213 -2.9783227 1.9422904 53
nan nan nan 0
4.4785233 -3.0219362 0.84478956 19
3.9542937 -2.6692104 0.28612742 2
0.02562541 -0.017909214 1.9891979 84
0.25856858 -0.17655787 1.9909451 96
0.3566387 -0.24232787 2.0964177 59
0.50160319 -0.3403495 1.9838723 78
0.67670029 -0.4590005 1.9859076 93
0.86484295 -0.58640814 1.9813942 79
1.0789161 -0.73156768 1.9871606 78
1.330951 -0.90246803 2.0012317 69
0.10189542 -0.070984758 1.9810979 89
0.17922859 -0.12623255 1.9983203 91
0.43732303 -0.29795191 2.0735047 53
0.5870356 -0.3996734 1.9854547 89
0.77020377 -0.524001 1.9891212 92
0.96741813 -0.65818179 1.9840788 85
1.1933419 -0.81189549 1.9852921 84
1.469709 -0.99992913 2.0053556 47
1.6338241 -1.1053412 2.018266 38
1.9790163 -1.3388811 2.0083144 13
2.4085188 -1.6300706 1.9913646 69
3.0023649 -2.0319865 1.9834617 52
3.8894074 -2.6333237 1.9860331 26
4.3933039 -2.9756052 1.6486126 48
4.4698052 -3.02742 1.1164217 16
4.4771957 -3.033566 0.5775153 16
1.8013448 -1.2223487 2.0193572 39
2.1625447 -1.4680029 1.9867221 36
2.6767478 -1.8170645 1.9859924 70
3.3950934 -2.305568 1.9846153 63
4.3833513 -2.9778013 1.9324342 54
6.1469002 -4.1774259 1.8832264 17
4.4474702 -3.0236297 0.84134048 18
3.8458066 -2.6155672 0.28129068 2
0.025562741 -0.017998556 1.9891979 82
0.25795069 -0.17745934 1.9909451 95
0.35579064 -0.24357128 2.0964177 60
0.50041205 -0.34209839 1.9838723 71
0.67509395 -0.46135983 1.9859076 93
0.86279082 -0.58942348 1.9813942 81
1.0763558 -0.73532933 1.9871606 78
1.3277926 -0.90710837 2.0012317 64
0.10164701 -0.071340002 1.9810979 89
0.1783518 -0.12654789 1.993349 89
0.4352434 -0.29876477 2.0686657 53
0.58563691 -0.40172011 1.9854547 91
0.76836997 -0.52668637 1.9891212 92
0.96511477 -0.66155469 1.9840788 87
1.1905005 -0.81605607 1.9852921 82
1.4662095 -1.0050533 2.0053556 47
1.6299558 -1.1110376 2.018266 38
1.9582474 -1.3348181 1.9926252 14
2.4028141 -1.638468 1.9913646 67
2.9952538 -2.0424545 1.9834617 52
3.8763628 -2.6442721 1.9841602 39
4.3630772 -2.9774024 1.6415666 51
4.4389229 -3.02916 1.1117586 16
4.4419012 -3.0323288 0.57483804 16
1.7970669 -1.2286294 2.0193572 40
2.1574075 -1.4755428 1.9867221 42
2.6703889 -1.8263972 1.9859924 70
3.3870251 -2.3174052 1.9846153 63
4.3495488 -2.9770799 1.9225782 56
6.1443129 -4.2070951 1.8867434 15
4.4246325 -3.03074 0.83927107 18
nan nan nan 0
0.025499757 -0.018087678 1.9891979 82
0.25732967 -0.1783587 1.9909451 93
0.35493824 -0.24481174 2.0964177 60
0.49921483 -0.34384307 1.9838723 67
0.67347938 -0.46371356 1.9859076 93
0.86072803 -0.59243155 1.9813942 81
1.0737824 -0.73908204 1.9871606 80
1.3272589 -0.91355538 2.0050688 52
0.10139737 -0.071694382 1.9810979 88
0.17790899 -0.12716968 1.993349 89
0.43419787 -0.30028224 2.0686657 56
0.58423108 -0.40376195 1.9854547 91
0.76652688 -0.5293653 1.9891212 93
0.96279955 -0.66491961 1.9840788 87
1.1876446 -0.82020682 1.9852921 84
1.4626924 -1.0101652 2.0053556 47
1.6260676 -1.1167204 2.018266 38
1.9599938 -1.3460531 1.9989008 17
2.3970804 -1.6468453 1.9913646 69
2.988106 -2.0528972 1.9834617 65
3.8671086 -2.6577871 1.9841602 51
4.328939 -2.9763069 1.6331115 57
4.4202261 -3.0390704 1.1098933 16
4.3984632 -3.025238 0.57126832 16
1.7927673 -1.2348949 2.0193572 38
2.1522436 -1.4830645 1.9867221 54
2.6639972 -1.8357074 1.9859924 70
3.3789148 -2.3292139 1.9846153 62
4.3196912 -2.9788399 1.9143647 52
6.1375914 -4.2340374 1.889088 13
4.3895712 -3.02929 0.83513212 18
3.922014 -2.707634 0.28592592 3
0.025436463 -0.018176578 1.9891979 80
0.25670552 -0.17925586 1.9909451 93
0.35408154 -0.24604924 2.0964177 59
0.49801162 -0.3455835 1.9838723 66
0.67185658 -0.46606159 1.9859076 93
0.85865486 -0.59543246 1.9813942 81
1.0711961 -0.74282575 1.9871606 78
1.3240619 -0.91818285 2.0050688 47
0.10114649 -0.072047889 1.9810979 88
0.17746399 -0.12778994 1.993349 91
0.43314701 -0.30179605 2.0686657 55
0.58281809 -0.40579879 1.9854547 91
0.76467431 -0.53203768 1.9891212 93
0.9604727 -0.66827637 1.9840788 89
1.1847743 -0.82434744 1.9852921 84
1.4563745 -1.0133287 2.0016804 45
1.6221596 -1.1223897 2.018266 36
1.9552834 -1.3528867 1.9989008 23
2.3913171 -1.6552027 1.9913646 69
2.9772789 -2.0607939 1.9811436 65
3.8578079 -2.6712694 1.9841602 51
4.2988052 -2.9777408 1.6260655 58
nan nan nan 0
4.375597 -3.032064 0.56992972 15
1.7884457 -1.241145 2.0193572 38
2.1470535 -1.4905682 1.9867221 39
2.657573 -1.8449954 1.9859924 70
3.370764 -2.3409941 1.9846153 62
4.2859964 -2.9777329 1.9045086 51
6.1387396 -4.2665324 1.8937773 14
4.3586397 -3.0304587 0.83168304 16
3.8756261 -2.6956341 0.28411213 3
0.025372859 -0.018265255 1.9891979 78
0.25607821 -0.18015084 1.9909451 95
0.35322049 -0.24728371 2.0964177 59
0.49680227 -0.34731981 1.9838723 66
0.67022562 -0.46840397 1.9859076 93
0.85657114 -0.5984261 1.9813942 81
1.0685966 -0.74656039 1.9871606 82
1.3234769 -0.92463517 2.0089054 47
0.10089438 -0.072400518 1.9810979 88
0.17701684 -0.12840861 1.993349 93
0.43209094 -0.30330616 2.0686657 55
0.58139807 -0.40783074 1.9854547 91
0.7628125 -0.53470367 1.9891212 92
0.95813411 -0.6716249 1.9840788 87
1.1818895 -0.82847804 1.9852921 82
1.4528285 -1.0184062 2.0016804 45
1.6211575 -1.1300846 2.0217705 36
1.9537427 -1.3619299 2.0020387 31
2.3855247 -1.66354 1.9913646 69
2.9700673 -2.0711739 1.9811436 64
3.8446574 -2.6820672 1.9822872 56
4.2687144 -2.979001 1.6190195 50
nan nan nan 0
4.8019099 -3.3523481 0.61767417 4
1.7841026 -1.2473804 2.0193572 40
2.1418376 -1.4980537 1.9867221 32
2.65465 -1.8567318 1.9885249 70
3.3662901 -2.3553479 1.9867133 66
4.2562323 -2.9791358 1.8962951 53
6.1357541 -4.296298 1.8972943 13
4.8753276 -3.4150064 0.92135912 5
4.2753358 -2.9958441 0.30426523 53
0.025308948 -0.018353712 1.9891979 80
0.2554478 -0.18104362 1.9909451 95
0.35235515 -0.24851516 2.0964177 61
0.49558687 -0.34905183 1.9838723 64
0.66858655 -0.47074065 1.9859076 93
0.85447699 -0.60141248 1.9813942 79
1.065984 -0.75028592 1.9871606 74
1.3202412 -0.92924929 2.0089054 47
0.10064104 -0.072752267 1.9810979 91
0.17656754 -0.12902574 1.993349 91
0.43102956 -0.30481261 2.0686657 55
0.5799709 -0.40985772 1.9854547 93
0.76094139 -0.53736311 1.9891212 90
0.95578384 -0.67496532 1.9840788 89
1.1789905 -0.83259857 1.9852921 82
1.4492648 -1.0234711 2.0016804 45
1.6172029 -1.1357367 2.0217705 39
1.9457909 -1.3665038 1.9989008 33
2.3797035 -1.6718568 1.9913646 69
2.9628193 -2.0815287 1.9811436 64
3.8352718 -2.6954708 1.9822872 56
4.238668 -2.9800878 1.6119735 50
6.1241364 -4.3057094 1.5127853 11
4.8064723 -3.3805497 0.61945897 3
1.7797374 -1.2536005 2.0193572 39
2.1398995 -1.5078493 1.9896654 29
2.6481524 -1.8659871 1.9885249 70
3.3580482 -2.367084 1.9867133 65
4.2265105 -2.9803672 1.8880818 54
6.1366076 -4.3288965 1.9019836 13
4.8633771 -3.4320037 0.92135912 5
4.2444453 -2.9963429 0.30325755 58
0.025244728 -0.018441945 1.9891979 82
0.2548143 -0.18193419 1.9909451 96
0.35148552 -0.2497436 2.0964177 59
0.49436542 -0.35077962 1.9838723 66
0.66693926 -0.47307155 1.9859076 91
0.85237253 -0.60439146 1.9813942 79
1.065654 -0.75563002 1.9912933 74
1.3169895 -0.93385214 2.0089054 47
0.10038648 -0.073103122 1.9810979 89
0.17611606 -0.12964128 1.993349 93
0.42996293 -0.3063153 2.0686657 53
0.57853669 -0.41187972 1.9854547 93
0.75906104 -0.540016 1.9891212 92
0.95342201 -0.67829752 1.9840788 87
1.176077 -0.8367089 1.9852921 84
1.4456835 -1.0285238 2.0016804 47
1.6161398 -1.1434345 2.025275 39
1.9441872 -1.3755363 2.0020387 36
2.373853 -1.6801534 1.9913646 67
2.9555357 -2.0918584 1.9811436 65
3.8296235 -2.7115211 1.9841602 52
4.2086654 -2.9810011 1.6049275 57
6.125103 -4.3384175 1.5165157 12
nan nan nan 0
1.7753508 -1.2598052 2.0193572 39
2.1346233 -1.5153097 1.9896654 26
2.6416228 -1.8752193 1.9885249 70
3.3497648 -2.3787913 1.9867133 64
4.1968312 -2.9814274 1.8798684 54
6.1373072 -4.3615537 1.9066728 13
nan nan nan 0
4.2176752 -2.9995589 0.30245143 61
0.025180198 -0.018529955 1.9891979 82
0.25417769 -0.18282254 1.9909451 96
0.34978369 -0.25037628 2.0915227 59
0.49313793 -0.35250318 1.9838723 66
0.66528386 -0.47539672 1.9859076 93
0.85220712 -0.60875571 1.9857829 79
1.06301 -0.75934517 1.9912933 80
1.3137218 -0.9384436 2.0089054 42
0.10013068 -0.073453099 1.9810979 89
0.17609094 -0.13057381 1.9983203 91
0.42889106 -0.30781433 2.0686657 55
0.57849777 -0.41490248 1.9901476 91
0.75717139 -0.54266238 1.9891212 92
0.95104849 -0.68162149 1.9840788 89
1.1731492 -0.84080911 1.9852921 84
1.4420843 -1.0335641 2.0016804 45
1.6121386 -1.1490688 2.025275 39
1.9393739 -1.3823143 2.0020387 36
2.3679738 -1.6884294 1.9913646 67
2.9482155 -2.1021621 1.9811436 65
3.8201351 -2.7248726 1.9841602 44
4.178709 -2.9817414 1.5978816 55
6.1379123 -4.3797436 1.5230441 10
6.1244059 -4.3717194 0.76715446 10
1.7709423 -1.2659948 2.0193572 40
2.1326082 -1.5251031 1.9926084 23
2.6350608 -1.884429 1.9885249 70
3.3414409 -2.3904696 1.9867133 64
4.1671977 -2.9823172 1.8716549 56
6.1339016 -4.391439 1.9101897 13
6.1357112 -4.3943539 1.1434798 12
4.186873 -2.9997149 0.30144379 65
0.025118615 -0.018613353 1.9891979 80
0.25357002 -0.18366443 1.9909451 95
0.34812558 -0.25093934 2.0866275 54
