# .PCD v0.7 - Point Cloud Data file format
VERSION 0.7
FIELDS x y z intensity
SIZE 4 4 4 4
TYPE F F F F
COUNT 1 1 1 1
WIDTH 1332
HEIGHT 1
VIEWPOINT 0 0 0 1 0 0 0
POINTS 1332
DATA ascii
-0.22017798 -0.0069663627 2.0082631 95
-0.49089432 -0.023178332 1.9283288 39
-0.50597483 -0.024058808 1.4317083 58
-0.93918812 -0.044963654 2.0071244 92
-1.1843779 -0.056695517 2.0096743 85
-1.4537343 -0.069583952 2.00125 84
-1.7789654 -0.085146479 2.0090308 85
-1.9558464 -0.098744527 2.0042477 73
-2.3863347 -0.12047426 2.0083144 64
-3.0758288 -0.15474373 2.1037648 33
-3.7092633 -0.18660793 2.0298221 45
-4.751308 -0.23819968 2.0103827 40
-6.5740461 -0.32842866 2.0234587 32
-10.057567 -0.50245839 2.0033436 77
nan nan nan 0
-2.1593826 -0.1059945 2.006058 75
-2.6469531 -0.12946294 2.0132108 69
-3.2959576 -0.16120201 2.0239789 65
-4.2124014 -0.20528671 2.0370667 63
-5.55235 -0.26961544 2.0227818 37
-8.010807 -0.38759258 2.0250769 27
-10.060937 -0.48502478 1.4952859 70
-4.505878 -0.21643572 0.27564782 116
-0.031334884 -0.00099494914 1.9991974 47
-0.31436589 -0.013415373 2.0008237 93
-0.41344994 -0.018593786 2.0131991 95
-0.48618218 -0.022185629 1.6021345 38
-0.82463342 -0.037752904 2.0043178 93
-1.0581639 -0.048619092 2.0077264 83
-1.3808894 -0.063440755 2.1028829 38
-1.6127777 -0.074089848 2.0089054 76
-0.12527224 -0.0041696434 2.0010643 77
-0.22020094 -0.0061977552 2.0082631 96
-0.48971561 -0.021409785 1.9234896 39
-0.50605571 -0.022292478 1.4317083 56
-0.9393394 -0.041685004 2.0071244 92
-1.1845686 -0.052560922 2.0096743 87
-1.4539684 -0.064509057 2.00125 84
-1.7792517 -0.078936212 2.0090308 85
-1.9561791 -0.091916747 2.0042477 73
-2.3867409 -0.11214367 2.0083144 67
-3.0805271 -0.14420164 2.1065061 34
-3.709892 -0.17365904 2.0298221 61
-4.7521105 -0.22161308 2.0103827 39
-6.5751529 -0.30547896 2.0234587 32
-10.059259 -0.46734783 2.0033436 75
-22.037817 -1.0200076 2.0696411 21
-2.1634696 -0.098626249 2.0093827 75
-2.6473892 -0.12022256 2.0132108 69
-3.3008068 -0.14989156 2.0265114 66
-4.2130923 -0.19058143 2.0370667 63
-5.5532575 -0.25023249 2.0227818 36
-8.0121117 -0.35962731 2.0250769 28
-10.062569 -0.44990259 1.4952859 70
-5.0206776 -0.22360033 0.29640549 60
-0.03133817 -0.00088556379 1.9991974 47
-0.31441081 -0.012317949 2.0008237 93
-0.41351235 -0.017150464 2.0131991 93
-0.48625666 -0.0204884 1.6021345 38
-0.82476014 -0.034874167 2.0043178 91
-1.0583271 -0.044925116 2.0077264 83
-1.3811023 -0.058620159 2.1028829 38
-1.6130264 -0.068459749 2.0089054 76
-0.1255755 -0.0037404716 2.0060561 82
-0.22022125 -0.0054290728 2.0082631 98
-0.48978737 -0.019700229 1.9234896 39
-0.50613046 -0.020525878 1.4317083 58
-0.93947923 -0.038405843 2.0071244 93
-1.184745 -0.048425682 2.0096743 87
-1.4541848 -0.05943336 2.00125 82
-1.7795165 -0.072724976 2.0090308 83
-1.9564881 -0.085087843 2.0042477 73
-2.3871179 -0.1038117 2.0083144 67
-3.0810115 -0.13344772 2.1065061 34
-3.7104757 -0.16070805 2.0298221 60
-4.7574873 -0.20522356 2.0122557 39
-6.5809717 -0.28273147 2.0248678 32
-10.060829 -0.43223163 2.0033436 74
nan nan nan 0
-2.1638007 -0.091073737 2.0093827 75
-2.6477926 -0.11098072 2.0132108 69
-3.3013096 -0.13836868 2.0265114 66
-4.2137318 -0.17587385 2.0370667 63
-5.5540977 -0.23084649 2.0227818 36
-8.0181742 -0.33185863 2.0262492 27
-10.064078 -0.41477495 1.4952859 68
-4.8317418 -0.19828914 0.28874734 36
-0.031341072 -0.00077616778 1.9991974 49
-0.3144519 -0.011220377 2.0008237 92
-0.41356969 -0.01570693 2.0131991 93
-0.48632523 -0.018790925 1.6021345 38
-0.8248769 -0.031995006 2.0043178 89
-1.0584775 -0.041230589 2.0077264 83
-1.3812987 -0.053798858 2.1028829 37
-1.6132556 -0.062828824 2.0089054 74
-0.12558778 -0.0033021085 2.0060561 82
-0.22023885 -0.0046603247 2.0082631 99
-0.48985311 -0.017990431 1.9234896 39
-0.50792354 -0.018822866 1.4364011 62
-0.9396075 -0.035126213 2.0071244 92
-1.1849067 -0.044289857 2.0096743 87
-1.4543833 -0.054356948 2.00125 84
-1.7797594 -0.06651286 2.0090308 85
-1.9567732 -0.078257911 2.0042477 73
-2.3874657 -0.095478475 2.0083144 66
-3.0856366 -0.12285852 2.1092477 34
-3.711014 -0.14775509 2.0298221 58
-4.7581744 -0.18861559 2.0122557 40
-6.5819187 -0.25975788 2.0248678 32
-10.062277 -0.39711013 2.0033436 75
-4.662499 -0.18319298 0.51103002 22
-2.1641052 -0.083520107 2.0093827 75
-2.648164 -0.10173752 2.0132108 69
-3.3017728 -0.12684411 2.0265114 66
-4.2143202 -0.16116409 2.0370667 62
-5.5548692 -0.21145767 2.0227818 37
-8.0192842 -0.30386794 2.0262492 27
-10.065464 -0.37964222 1.4952859 68
-4.6926169 -0.17617406 0.28310448 9
-0.031343587 -0.00066676229 1.9991974 49
-0.31526577 -0.010147478 2.0057628 93
-0.41362199 -0.014263209 2.0131991 91
-0.48638785 -0.017093219 1.6021345 38
-0.82498354 -0.029115453 2.0043178 88
-1.0586151 -0.037535567 2.0077264 81
-1.3842903 -0.049076583 2.1070161 36
-1.6134651 -0.057197131 2.0089054 76
-0.12559855 -0.0028637052 2.0060561 82
-0.22025377 -0.0038915193 2.0082631 100
-0.48991296 -0.016280415 1.9234896 39
-0.50798613 -0.017049769 1.4364011 62
-0.93972445 -0.031846158 2.0071244 92
-1.1850542 -0.040153489 2.0096743 85
-1.4545641 -0.049279869 2.00125 84
-1.7799808 -0.06029994 2.0090308 83
-1.9570345 -0.071427025 2.0042477 71
-2.3877842 -0.087144092 2.0083144 67
-3.0860469 -0.11208689 2.1092477 34
-3.7115071 -0.13480033 2.0298221 58
-4.7588038 -0.17200531 2.0122557 39
-6.5827851 -0.23678109 2.0248678 32
-10.063601 -0.36198381 2.0033436 76
-4.6382256 -0.16602598 0.50879896 16
-2.1643836 -0.075965457 2.0093827 75
-2.6485031 -0.092493087 2.0132108 69
-3.3021953 -0.11531801 2.0265114 65
-4.2193928 -0.14661001 2.0391645 62
-5.5555735 -0.19206627 2.0227818 37
-8.0251541 -0.27604067 2.0274215 27
-10.066728 -0.34450492 1.4952859 69
nan nan nan 0
-0.031345725 -0.00055734871 1.9991974 47
-0.31529924 -0.0090469336 2.0057628 92
-0.41366926 -0.012819311 2.0131991 91
-0.48644453 -0.015395305 1.6021345 38
-0.82508016 -0.026235547 2.0043178 84
-1.0587397 -0.033840079 2.0077264 83
-1.3844532 -0.044244204 2.1070161 36
-1.6136549 -0.051564734 2.0089054 76
-0.12560777 -0.0024252671 2.0060561 84
-0.22026603 -0.0031226659 2.0082631 100
-0.48996681 -0.014570202 1.9234896 39
-0.50804257 -0.015276461 1.4364011 62
-0.93982983 -0.028565714 2.0071244 92
-1.1851871 -0.036016636 2.0096743 85
-1.4547273 -0.044202197 2.00125 84
-1.7801803 -0.054086283 2.0090308 83
-1.9572718 -0.064595267 2.0042477 71
-2.3880742 -0.078808635 2.0083144 64
-3.0864191 -0.10131389 2.1092477 33
-3.716383 -0.12198928 2.0321403 61
-4.7593751 -0.15539296 2.0122557 39
-6.5835719 -0.21380144 2.0248678 31
-10.069714 -0.32701254 2.004276 74
-4.6387773 -0.14983454 0.50879896 16
-2.1646359 -0.06840989 2.0093827 73
-2.6488094 -0.08324752 2.0132108 69
-3.3025777 -0.10379049 2.0265114 65
-4.2198787 -0.13188067 2.0391645 62
-5.5609307 -0.17281923 2.0244248 36
-8.0260687 -0.24802598 2.0274215 27
-10.067869 -0.30936334 1.4952859 66
nan nan nan 0
-0.031303845 -0.0004479131 1.9941976 49
-0.31532893 -0.0079462789 2.0057628 92
-0.41371149 -0.011375258 2.0131991 91
-0.48649532 -0.013697202 1.6021345 38
-0.8251667 -0.023355318 2.0043178 79
-1.0588512 -0.030144181 2.0077264 81
-1.3845992 -0.039411291 2.1070161 37
-1.6138251 -0.045931712 2.0089054 71
-0.12561548 -0.0019867993 2.0060561 84
-0.22027557 -0.0023537753 2.0082631 101
-0.49001467 -0.012859808 1.9234896 39
-0.50809282 -0.013502969 1.4364011 62
-0.93992382 -0.025284922 2.0071244 92
-1.1853056 -0.031879339 2.0096743 87
-1.45186 -0.039042983 1.9972607 84
-1.7803583 -0.047871962 2.0090308 81
-1.9574854 -0.057762716 2.0042477 73
-2.3883345 -0.070472218 2.0083144 64
-3.0867541 -0.090539664 2.1092477 33
-3.7167861 -0.10901594 2.0321403 61
-4.7645226 -0.13891378 2.0141287 39
-6.5842781 -0.19081917 2.0248678 31
-10.070794 -0.29186067 2.004276 74
-4.6542053 -0.13407145 0.51013762 19
-2.1648614 -0.060853481 2.0093827 75
-2.6490839 -0.074000947 2.0132108 69
-3.3029201 -0.092261709 2.0265114 66
-4.2203135 -0.11714974 2.0391645 63
-5.5614996 -0.1534069 2.0244248 36
-8.026886 -0.22000827 2.0274215 26
-10.073838 -0.27435285 1.4959757 66
nan nan nan 0
-0.03130522 -0.00033863954 1.9941976 47
-0.31535473 -0.0068455278 2.0057628 93
-0.41374865 -0.0099310661 2.0131991 93
-0.48504707 -0.011962182 1.5973628 37
-0.82524323 -0.020474808 2.0043178 80
-1.0589501 -0.026447916 2.0077264 81
-1.3847284 -0.034577899 2.1070161 37
-1.6139756 -0.040298134 2.0089054 71
-0.12591119 -0.0015513902 2.0110476 84
-0.22028245 -0.0015848556 2.0082631 102
-0.49005657 -0.01114926 1.9234896 39
-0.50813687 -0.011729311 1.4364011 62
-0.94000643 -0.02200382 2.0071244 93
-1.1854097 -0.027741659 2.0096743 87
-1.4519874 -0.033974811 1.9972607 84
-1.7805146 -0.04165706 2.0090308 81
-1.9576751 -0.050929468 2.0042477 73
-2.388566 -0.062134944 2.0083144 64
-3.0870514 -0.079764336 2.1092477 33
-3.7171443 -0.096041277 2.0321403 60
-4.7649784 -0.12228164 2.0141287 40
-6.5849037 -0.16783461 2.0248678 32
-10.071751 -0.25670525 2.004276 74
nan nan nan 0
-2.1650605 -0.053296335 2.0093827 75
-2.6493261 -0.064753465 2.0132108 69
-3.3032219 -0.080731802 2.0265114 66
-4.2206969 -0.10241738 2.0391645 64
-5.5620017 -0.1339927 2.0244248 37
-8.0276041 -0.19198786 2.0274215 27
-10.074735 -0.2391869 1.4959757 64
-29.26281 -0.68962091 1.274435 15
-0.031306211 -0.00022936187 1.9941976 45
-0.31537673 -0.0057446929 2.0057628 93
-0.41378084 -0.0084867543 2.0131991 91
-0.4850859 -0.010268978 1.5973628 37
-0.82530969 -0.017594047 2.0043178 80
-1.0590359 -0.022751331 2.0077264 83
-1.3848406 -0.029744085 2.1070161 37
-1.6141064 -0.034664057 2.0089054 74
-0.12591583 -0.0011118685 2.0110476 82
-0.22028664 -0.00081591669 2.0082631 103
-0.49009252 -0.0094385762 1.9234896 39
-0.50817466 -0.0099555114 1.4364011 64
-0.94007742 -0.018722452 2.0071244 92
-1.1854993 -0.023603639 2.0096743 85
-1.4520972 -0.028906221 1.9972607 84
-1.7806491 -0.035441652 2.0090308 83
-1.9578409 -0.044095594 2.0042477 73
-2.3887684 -0.053796913 2.0083144 64
-3.087311 -0.068988025 2.1092477 33
-3.7174568 -0.083065435 2.0321403 59
-4.7653761 -0.10564803 2.0141287 40
-6.5902457 -0.14495347 2.0262771 31
-10.072586 -0.22154672 2.004276 74
nan nan nan 0
-2.1652334 -0.045738541 2.0093827 75
-2.6495359 -0.055505201 2.0132108 69
-3.3034835 -0.069200926 2.0265114 66
-4.2210283 -0.087683782 2.0391645 63
-5.5577135 -0.11447963 2.0227818 37
-8.0330858 -0.16406438 2.028594 27
-10.075508 -0.20401806 1.4959757 64
-29.300003 -0.58817238 1.2758458 12
-0.031306822 -0.00012008141 1.9941976 45
-0.31539485 -0.0046437876 2.0057628 93
-0.41380793 -0.0070423367 2.0131991 89
-0.48511878 -0.0085756499 1.5973628 38
-0.82536602 -0.014713071 2.0043178 80
-1.0591089 -0.019054467 2.0077264 83
-1.3821224 -0.024859322 2.1028829 37
-1.6142176 -0.029029569 2.0089054 76
-0.12591894 -0.00067233352 2.0110476 82
-0.22082208 -4.6408764e-05 2.0132346 103
-0.49012247 -0.0077277757 1.9234896 39
-0.50820631 -0.0081815906 1.4364011 60
-0.94013709 -0.015440856 2.0071244 92
-1.1855744 -0.019465331 2.0096743 85
-1.4521892 -0.02383728 1.9972607 87
-1.7841514 -0.029281426 2.0127058 85
-1.957983 -0.037261184 2.0042477 69
-2.3889418 -0.045458227 2.0083144 64
-3.0833523 -0.05813206 2.1065061 33
-3.7177243 -0.07008858 2.0321403 59
-4.7657161 -0.089013107 2.0141287 40
-6.5907121 -0.12194834 2.0262771 31
-10.073298 -0.1863855 2.004276 75
-22.167248 -0.40628564 2.0794578 51
-2.1653798 -0.038180187 2.0093827 75
-2.6497138 -0.046256252 2.0132108 69
-3.303705 -0.057669189 2.0265114 66
-4.2213087 -0.072949104 2.0391645 62
-5.5580792 -0.095078886 2.0227818 36
-8.0336094 -0.13602267 2.028594 28
-10.071208 -0.16876379 1.4952859 68
-29.301878 -0.48589265 1.2758458 21
-0.031307049 -1.07995e-05 1.9941976 45
-0.31540912 -0.0035428258 2.0057628 90
-0.41382998 -0.0055978349 2.0131991 89
-0.48514575 -0.0068822177 1.5973628 38
-0.82345885 -0.011803956 1.999715 77
-1.0591691 -0.015357371 2.0077264 83
-1.3822007 -0.020034665 2.1028829 36
-1.6143091 -0.023394719 2.0089054 74
-0.12563097 -0.00023273971 2.0060561 84
-0.22082087 0.00072440435 2.0132346 104
-0.49014643 -0.0060168826 1.9234896 39
-0.50823176 -0.0064075696 1.4364011 60
-0.94018525 -0.012159071 2.0071244 90
-1.1856351 -0.015326785 2.0096743 85
-1.4552772 -0.018806972 2.00125 87
-1.7842429 -0.023053395 2.0127058 85
-1.958101 -0.030426323 2.0042477 67
-2.3890855 -0.03711899 2.0083144 66
-3.0835364 -0.047368802 2.1065061 33
-3.7179463 -0.057110876 2.0321403 59
-4.7659974 -0.072377115 2.0141287 40
-6.5910969 -0.098941721 2.0262771 31
-10.073888 -0.15122198 2.004276 75
-22.168531 -0.32890502 2.0794578 34
-2.1654999 -0.030621367 2.0093827 75
-2.6498592 -0.037006747 2.0132108 69
-3.3038862 -0.046136755 2.0265114 65
-4.2215376 -0.058213543 2.0391645 63
-5.5536551 -0.075612701 2.0211391 14
-8.0340357 -0.10797932 2.028594 28
-10.071735 -0.13360767 1.4952859 67
nan nan nan 0
-0.031306896 9.8482575e-05 1.9941976 45
-0.31541958 -0.0024418209 2.0057628 92
-0.413847 -0.0041532647 2.0131991 91
-0.48666027 -0.0052046021 1.6021345 38
-0.82349503 -0.0089294771 1.999715 77
-1.059216 -0.011660088 2.0077264 81
-1.3822623 -0.015209761 2.1028829 36
-1.614381 -0.017759586 2.0089054 74
-0.12563102 0.00020579564 2.0060561 84
-0.22081701 0.0014952087 2.0132346 105
-0.49016446 -0.0043059154 1.9234896 39
-0.50825107 -0.00463347 1.4364011 62
-0.94022197 -0.0088771377 2.0071244 88
-1.1856815 -0.011188054 2.0096743 87
-1.4553339 -0.013726993 2.00125 84
-1.7843125 -0.016825086 2.0127058 83
-1.9581952 -0.02359109 2.0042477 73
-2.3930931 -0.028826179 2.011452 66
-3.0836828 -0.036604963 2.1065061 33
-3.718123 -0.044132471 2.0321403 61
-4.7708573 -0.055794451 2.0160019 40
-6.5914025 -0.075933889 2.0262771 31
-10.074353 -0.11605663 2.004276 74
-22.164562 -0.25146389 2.0790114 30
-2.1655936 -0.023062177 2.0093827 75
-2.649972 -0.027756786 2.0132108 69
-3.3040271 -0.034603756 2.0265114 66
-4.221715 -0.043477274 2.0391645 64
-5.5538855 -0.056226362 2.0211391 10
-8.0343637 -0.079934642 2.028594 27
-10.072141 -0.098449938 1.4952859 66
nan nan nan 0
-0.031306364 0.00020776343 1.9941976 45
-0.31542617 -0.0013407862 2.0057628 95
-0.41385898 -0.0027086437 2.0131991 91
-0.48667547 -0.0035058088 1.6021345 38
-0.82352114 -0.006054888 1.999715 77
-1.0592504 -0.0079626627 2.0077264 81
-1.3823069 -0.010384672 2.1028829 36
-1.6144331 -0.012124238 2.0089054 74
-0.12562953 0.00064432848 2.0060561 86
-0.22134432 0.0022721449 2.0182061 107
-0.4901765 -0.0025948959 1.9234896 39
-0.50826412 -0.0028593147 1.4364011 62
-0.94024724 -0.0055950959 2.0071244 90
-1.1857132 -0.0070491843 2.0096743 87
-1.455373 -0.008646844 2.00125 84
-1.7843604 -0.010596569 2.0127058 83
-1.9582657 -0.016755568 2.0042477 73
-2.3931794 -0.020472549 2.011452 64
-3.083792 -0.025840675 2.1065061 33
-3.7182543 -0.031153534 2.0321403 61
-4.7710233 -0.039140712 2.0160019 40
-6.5964241 -0.052963655 2.0276861 31
-10.074697 -0.080889866 2.004276 74
-22.165308 -0.1740936 2.0790114 31
-2.1656609 -0.015502702 2.0093827 73
-2.6500528 -0.018506486 2.0132108 69
-3.3041279 -0.023070341 2.0265114 65
-4.2263794 -0.028771365 2.0412626 64
-5.5540476 -0.03683934 2.0211391 10
-8.0394535 -0.051920384 2.0297663 27
-10.072423 -0.063291006 1.4952859 65
-21.102186 -0.12891157 0.94493198 42
-0.031305447 0.00031704179 1.9941976 45
-0.31542894 -0.00023973528 2.0057628 93
-0.41386592 -0.0012639898 2.0131991 91
-0.48668474 -0.0018069729 1.6021345 38
-0.82549095 -0.0031877274 2.0043178 78
-1.0592717 -0.0042651407 2.0077264 81
-1.3823348 -0.0055594575 2.1028829 36
-1.6144656 -0.0064887404 2.0089054 74
-0.12562652 0.0010828535 2.0060561 86
-0.22133504 0.0030447668 2.0182061 107
-0.49018255 -0.00088384486 1.9234896 39
-0.50827098 -0.0010851246 1.4364011 60
-0.94026107 -0.0023129869 2.0071244 92
-1.1857307 -0.0029102298 2.0096743 85
-1.4553944 -0.003566592 2.00125 84
-1.7843865 -0.0043679248 2.0127058 83
-1.9583123 -0.0099198446 2.0042477 73
-2.3932362 -0.012118671 2.011452 66
-3.0838635 -0.015076078 2.1065061 30
-3.7183404 -0.018174216 2.0321403 56
-4.7711306 -0.022486495 2.0160019 40
-6.5965691 -0.029937521 2.0276861 31
-10.070005 -0.045699827 2.0033436 74
-22.155819 -0.096677743 2.078119 35
-2.1657019 -0.0079430407 2.0093827 75
-2.6501014 -0.0092559643 2.0132108 69
-3.3041883 -0.011536642 2.0265114 65
-4.2264547 -0.014018373 2.0412626 65
-5.5588651 -0.017466709 2.0227818 10
-8.0395861 -0.023857139 2.0297663 28
-10.06763 -0.028117476 1.494596 66
-21.107502 -0.055263489 0.94513351 103
-0.031304147 0.0004263162 1.9941976 45
-0.31542784 0.00086131861 2.0057628 93
-0.4138678 0.00018067948 2.0131991 93
-0.48668811 -0.00010811509 1.6021345 37
-0.82549709 -0.00030620693 2.0043178 78
-1.0592802 -0.00056756655 2.0077264 81
-1.3851599 -0.00073564873 2.1070161 36
-1.6176844 -0.00085484382 2.0127425 74
-0.12562197 0.0015213651 2.0060561 86
-0.22132307 0.0038173515 2.0182061 108
-0.49018267 0.00082721701 1.9234896 39
-0.50827169 0.00068907894 1.4364011 60
-0.94026339 0.00096915051 2.0071244 90
-1.1857336 0.00122876 2.0096743 87
-1.455398 0.0015137038 2.00125 84
-1.7843908 0.0018607724 2.0127058 83
-1.958335 -0.0030839981 2.0042477 73
-2.3932641 -0.0037646431 2.011452 66
-3.079716 -0.0043054549 2.1037648 30
-3.7183812 -0.0051946742 2.0321403 56
-4.775815 -0.0058376677 2.0178747 40
-6.5966334 -0.0069110151 2.0276861 30
-10.075017 -0.010553814 2.004276 74
-22.146063 -0.019330215 2.0772266 33
-2.1657164 -0.00038328263 2.0093827 75
-2.6501174 -5.3278313e-06 2.0132108 69
-3.3042083 -2.8028915e-06 2.0265114 65
-4.2264776 0.0007347918 2.0412626 63
-5.5636148 0.0019391065 2.0244248 16
-8.0396214 0.0042064004 2.0297663 28
-10.067667 0.0070252805 1.494596 65
-21.107567 0.018415777 0.94513351 100
-0.031302467 0.00053558551 1.9941976 45
-0.31542292 0.0019623621 2.0057628 93
-0.41386464 0.0016253466 2.0131991 93
-0.48668551 0.001590744 1.6021345 37
-0.82549316 0.0025753176 2.0043178 77
-1.0592756 0.0031300145 2.0077264 81
-1.3851539 0.0040994654 2.1070161 35
-1.6176776 0.0047919336 2.0127425 74
-0.12561589 0.0019598585 2.0060561 86
-0.2213084 0.0045898901 2.0182061 108
-0.4901768 0.0025382687 1.9234896 39
-0.50826621 0.0024632742 1.4364011 58
-0.94025427 0.0042512766 2.0071244 90
-1.185722 0.0053677345 2.0096743 87
-1.4553837 0.0065939813 2.00125 84
-1.7843734 0.0080894474 2.0127058 81
-1.9583338 0.0037518856 2.0042477 73
-2.3932626 0.0045894301 2.011452 66
-3.0797122 0.0064447853 2.1037648 31
-3.7183766 0.0077849291 2.0321403 50
-4.7758064 0.010833073 2.0178747 40
-6.6014147 0.016127296 2.0290954 30
-10.074992 0.024614621 2.004276 74
-22.141018 0.057961047 2.0767806 29
-2.1657047 0.0071764807 2.0093827 75
-2.6501014 0.0092453081 2.0132108 67
-3.3084996 0.011546086 2.0290439 65
-4.2264495 0.015487948 2.0412626 63
-5.5682964 0.021377865 2.0260673 37
-8.0395565 0.032269888 2.0297663 27
-10.062629 0.042147208 1.4939061 65
-21.127356 0.092182003 0.94593966 96
-0.031300411 0.00064484822 1.9941976 45
-0.31541416 0.0030633814 2.0057628 93
-0.41385645 0.0030699936 2.0131991 91
-0.48667699 0.0032895838 1.6021345 38
-0.82547915 0.0054568104 2.0043178 77
-1.0592582 0.0068275579 2.0077264 83
-1.3851311 0.0089345295 2.1070161 35
-1.6176509 0.010438653 2.0127425 76
-0.1256083 0.0023983277 2.0060561 86
-0.22129102 0.0053623724 2.0182061 108
-0.49016494 0.0042492896 1.9234896 39
-0.50825453 0.0042374395 1.4364011 58
-0.94023365 0.0075333505 2.0071244 92
-1.185696 0.0095066447 2.0096743 85
-1.4553518 0.011674179 2.00125 84
-1.7843343 0.014318024 2.0127058 83
-1.9583088 0.010587723 2.0042477 73
-2.3932319 0.012943448 2.011452 66
-3.0796707 0.017194947 2.1037648 31
-3.7183266 0.020764438 2.0321403 50
-4.7757401 0.02750368 2.0178747 40
-6.6013184 0.039170433 2.0290954 30
-10.074845 0.059782755 2.004276 74
-22.180517 0.13549061 2.0803502 25
-2.1656663 0.014736157 2.0093827 75
-2.650053 0.018495832 2.0132108 67
-3.308439 0.023094833 2.0290439 65
-4.2263694 0.030240912 2.0412626 63
-5.5729103 0.040849335 2.02771 37
-8.0442553 0.060369451 2.0309386 27
-10.057467 0.077234045 1.4932164 49
-21.121912 0.16589044 0.94573814 82
-0.031297967 0.00075410318 1.9941976 45
-0.31540152 0.0041643637 2.0057628 92
-0.41384324 0.0045146039 2.0131991 89
-0.48666257 0.0049883835 1.6021345 38
-0.82545507 0.0083382372 2.0043178 75
-1.0592281 0.010525017 2.0077264 83
-1.3850915 0.013769485 2.1070161 35
-1.6143988 0.016053351 2.0089054 76
-0.12559916 0.002836768 2.0060561 86
-0.22127096 0.0061347899 2.0182061 108
-0.49014714 0.0059602587 1.9234896 39
-0.50823659 0.0060115531 1.4364011 58
-0.9402017 0.010815333 2.0071244 92
-1.1856556 0.013645438 2.0096743 87
-1.4553022 0.016754234 2.00125 84
-1.7842735 0.020546425 2.0127058 83
-1.9582599 0.017423432 2.0042477 71
-2.3931723 0.021297308 2.011452 66
-3.0795922 0.027944898 2.1037648 31
-3.7182317 0.033743694 2.0321403 61
-4.7756147 0.04417396 2.0178747 39
-6.6059384 0.062258311 2.0305047 29
-10.074575 0.094950169 2.004276 74
-22.194847 0.21305767 2.0816886 25
-2.1656017 0.022295654 2.0093827 75
-2.6499722 0.02774613 2.0132108 69
-3.3083382 0.0346433 2.0290439 65
-4.2262378 0.044993512 2.0412626 63
-5.5727339 0.060302172 2.02771 36
-8.0488558 0.088502213 2.0321107 26
-10.052186 0.11228538 1.4925267 33
-21.126196 0.23967534 0.94593966 69
-0.031295147 0.00086334883 1.9941976 45
-0.31538507 0.005265295 2.0057628 92
-0.41382495 0.0059591588 2.0131991 93
-0.48664215 0.0066871224 1.6021345 38
-0.82542086 0.011219562 2.0043178 71
-1.0591848 0.014222349 2.0077264 83
-1.385035 0.018604273 2.1070161 34
-1.6143329 0.021688554 2.0089054 74
-0.12558849 0.0032751735 2.0060561 88
-0.22124819 0.0069071325 2.0182061 109
-0.49012336 0.007671155 1.9234896 39
-0.50821257 0.0077855932 1.4364011 56
-0.94015819 0.014097183 2.0071244 92
-1.1856008 0.017784065 2.0096743 87
-1.455235 0.021834085 2.00125 84
-1.7841909 0.026774576 2.0127058 83
-1.9617531 0.02430312 2.0077524 73
-2.3930833 0.029650906 2.011452 66
-3.0794756 0.038694512 2.1037648 31
-3.7225211 0.04677821 2.0344584 58
-4.7754312 0.060843695 2.0178747 39
-6.6056809 0.085316956 2.0305047 29
-10.074182 0.1301164 2.004276 74
nan nan nan 0
-2.1655107 0.029854877 2.0093827 75
-2.6498592 0.036996089 2.0132108 69
-3.3081973 0.046191342 2.0290439 65
-4.2260556 0.059745561 2.0412626 63
-5.5772109 0.079821847 2.0293527 36
-8.0533581 0.11666784 2.033283 27
-10.046781 0.14730078 1.4918368 31
nan nan nan 0
-0.031335529 0.00097454811 1.9991974 45
-0.31536475 0.0063661621 2.0057628 93
-0.41380161 0.0074036405 2.0131991 93
-0.48661587 0.0083857793 1.6021345 38
-0.82537669 0.01410075 2.0043178 71
-1.0591286 0.017919507 2.0077264 83
-1.3849617 0.023438836 2.1070161 34
-1.6142474 0.027323497 2.0089054 76
-0.12528686 0.0037044943 2.0010643 86
-0.22122273 0.0076793907 2.0182061 110
-0.49135116 0.0094061047 1.9283288 39
-0.50818229 0.0095595382 1.4364011 56
-0.94010329 0.017378861 2.0071244 92
-1.1855315 0.021922475 2.0096743 85
-1.4551499 0.026913667 2.00125 82
-1.7840866 0.033002399 2.0127058 83
-1.9616565 0.031150768 2.0077524 73
-2.3929653 0.038004145 2.011452 66
-3.0793219 0.049443655 2.1037648 31
-3.7223351 0.059771951 2.0344584 58
-4.7798252 0.07758794 2.0197477 40
-6.6101394 0.10845327 2.031914 30
-10.078578 0.16536166 2.0052087 74
-19.548779 0.32415676 1.8447512 18
-2.1653931 0.037413735 2.0093827 75
-2.649714 0.046245594 2.0132108 69
-3.3080158 0.057738822 2.0290439 65
-4.2258205 0.074496888 2.0412626 62
-5.5768986 0.099289477 2.0293527 37
-8.0577612 0.14486596 2.0344553 26
-10.056108 0.18254945 1.4932164 39
nan nan nan 0
-0.031332128 0.0010784551 1.9991974 45
-0.31534195 0.0074119149 2.0057628 93
-0.41377479 0.0087758163 2.0131991 91
-0.48658538 0.0099994102 1.6021345 38
-0.82532543 0.01683772 2.0043178 69
-1.0590634 0.021431606 2.0077264 81
-1.3848764 0.028031403 2.1070161 33
-1.6141479 0.032676384 2.0089054 74
-0.12527461 0.0040980759 2.0010643 86
-0.22119752 0.0083743427 2.0182061 111
-0.49131921 0.010949682 1.9283288 39
-0.50814968 0.01115599 1.4364011 58
-0.94221765 0.020543763 2.0116253 92
-1.1854523 0.025853718 2.0096743 85
-1.4550526 0.03173897 2.00125 82
-1.7839741 0.038607102 2.0127058 83
-1.9615424 0.037655681 2.0077524 73
-2.3928258 0.045939289 2.011452 66
-3.0791411 0.05965478 2.1037648 30
-3.7221167 0.072115332 2.0344584 59
-4.7795582 0.092603803 2.0197477 40
-6.609766 0.12921907 2.031914 30
-10.077974 0.19878252 2.0052087 75
-19.492825 0.38789117 1.8398429 86
-2.1652572 0.044594232 2.0093827 75
-2.6495459 0.055032112 2.0132108 69
-3.3078179 0.068130963 2.0290439 65
-4.2255659 0.087772302 2.0412626 62
-5.5812807 0.11690819 2.0309954 36
-8.0572662 0.17017941 2.0344553 26
-10.055485 0.21414068 1.4932164 41
-19.464422 0.41791371 0.87903136 113
-0.031328171 0.001187818 1.9991974 44
-0.31531414 0.008512618 2.0057628 95
-0.41374162 0.010220106 2.0131991 91
-0.48654753 0.011697849 1.6021345 38
-0.82526165 0.019718541 2.0043178 67
-1.0589823 0.025128296 2.0077264 81
-1.38477 0.032865357 2.1070161 33
-1.614024 0.03831061 2.0089054 74
-0.12525876 0.004557203 2.0010643 86
-0.22116534 0.0091850162 2.0182061 112
-0.49127573 0.012750382 1.9283288 39
-0.50810546 0.013018378 1.4364011 56
-0.94214016 0.023832593 2.0116253 92
-1.1853548 0.029991563 2.0096743 85
-1.4549329 0.03681786 2.00125 84
-1.7838206 0.045145437 2.0127058 83
-1.961399 0.044502515 2.0077524 73
-2.3926511 0.054291539 2.011452 64
-3.0789139 0.070402622 2.1037648 29
-3.7218421 0.085107498 2.0344584 60
-4.7791867 0.11012113 2.0197477 40
-6.6092482 0.1534442 2.031914 29
-10.082129 0.23407403 2.0061414 73
-19.486374 0.45581502 1.8393968 86
-2.1650884 0.052152123 2.0093827 75
-2.6493375 0.064280421 2.0132108 69
-3.3075461 0.080254264 2.0290439 65
-4.2297535 0.10337007 2.0433607 63
-5.5808144 0.13736382 2.0309954 36
-8.0614481 0.19983009 2.0356278 27
-10.069485 0.25136521 1.4952859 40
-19.462759 0.48925155 0.87903136 105
-0.031323832 0.0012971666 1.9991974 44
-0.31528249 0.0096132187 2.0057628 93
-0.41370344 0.011664271 2.0131991 91
-0.48650372 0.013396145 1.6021345 38
-0.8251878 0.022599122 2.0043178 67
-1.058888 0.028824681 2.0077264 83
-1.3846469 0.037698906 2.1070161 33
-1.6138804 0.043944374 2.0089054 71
-0.12524208 0.0049944096 2.0010643 88
-0.22059861 0.0099322861 2.0132346 112
-0.49122825 0.014465177 1.9283288 39
-0.50805688 0.014791916 1.4364011 56
-0.94205123 0.02712113 2.0116253 92
-1.1852429 0.034129038 2.0096743 83
-1.4547955 0.041896295 2.00125 84
-1.7836522 0.051371854 2.0127058 81
-1.9612317 0.051348802 2.0077524 73
-2.3924468 0.062643118 2.011452 64
-3.0786495 0.081149608 2.1037648 28
-3.7215223 0.098098628 2.0344584 61
-4.7787728 0.12680294 2.0197477 40
-6.6086721 0.17651385 2.031914 29
-10.081252 0.26926583 2.0061414 73
-19.449816 0.52289551 1.8362733 20
-2.1648932 0.05970937 2.0093827 75
-2.6490972 0.07352794 2.0132108 69
-3.307246 0.091799267 2.0290439 65
-4.2293668 0.11813404 2.0433607 63
-5.585022 0.15697636 2.0326381 36
-8.0655594 0.22810599 2.0368001 27
-10.078445 0.28679445 1.4966655 39
nan nan nan 0
-0.031319112 0.0014064992 1.9991974 45
-0.31524703 0.010713701 2.0057628 93
-0.4136602 0.013108294 2.0131991 91
-0.48645398 0.015094278 1.6021345 38
-0.82510388 0.025479427 2.0043178 67
-1.0587809 0.032520711 2.0077264 81
-1.3845069 0.04253199 2.1070161 32
-1.6137172 0.049577601 2.0089054 71
-0.12522389 0.0054315557 2.0010643 88
-0.22056258 0.010702259 2.0132346 112
-0.49117476 0.016179794 1.9283288 39
-0.50800216 0.016565276 1.4364011 58
-0.93977427 0.03033904 2.0071244 93
-1.1851165 0.038266104 2.0096743 85
-1.4546405 0.046974227 2.00125 84
-1.7834619 0.057597652 2.0127058 81
-1.9610405 0.058194462 2.0077524 73
-2.3961051 0.071109414 2.0145898 66
-3.0783474 0.09189561 2.1037648 26
-3.7211573 0.11108857 2.0344584 58
-4.7829351 0.14362234 2.021621 41
-6.6128106 0.19972616 2.033323 30
-10.080251 0.3044543 2.0061414 74
-9.9702291 0.30287305 0.98668975 2
-2.1646714 0.067265891 2.0093827 75
-2.6488245 0.082774565 2.0132108 69
-3.306905 0.10334314 2.0290439 65
-4.2289286 0.13289654 2.0433607 62
-5.5844398 0.17647076 2.0326381 36
-8.0647154 0.25625864 2.0368001 27
-10.037786 0.32070789 1.491147 30
-10.011432 0.32161495 0.4977349 2
-0.031314015 0.0015158147 1.9991974 42
-0.31520772 0.011814052 2.0057628 93
-0.41361192 0.014552157 2.0131991 91
-0.48639834 0.016792228 1.6021345 38
-0.82500988 0.028359421 2.0043178 63
-1.058661 0.036216352 2.0077264 81
-1.3843499 0.047364566 2.1070161 32
-1.6135342 0.055210222 2.0089054 74
-0.12520416 0.0058686356 2.0010643 88
-0.22052388 0.0114721 2.0132346 112
-0.4911153 0.017894218 1.9283288 39
-0.50794125 0.018338433 1.4364011 58
-0.93966264 0.033619277 2.0071244 93
-1.1849757 0.042402696 2.0096743 85
-1.4574797 0.052159403 2.0052397 82
-1.78325 0.063822746 2.0127058 81
-1.9608253 0.065039419 2.0077524 73
-2.3958421 0.079472952 2.0145898 66
-3.0780079 0.10264049 2.1037648 26
-3.7207468 0.12407716 2.0344584 58
-4.7824044 0.16031702 2.021621 41
-6.6120734 0.22280794 2.033323 29
-10.084036 0.33980453 2.0070741 76
-9.8645916 0.33413342 0.9773193 4
-2.1644235 0.074821599 2.0093827 75
-2.6485195 0.092020191 2.0132108 67
-3.3065243 0.11488577 2.0290439 65
-4.2284389 0.14765745 2.0433607 62
-5.5837893 0.19596301 2.0326381 36
-8.0637712 0.28440818 2.0368001 27
-9.8336935 0.3485522 1.4628645 13
-9.8654566 0.35140201 0.49189049 4
-0.031308532 0.0016251118 1.9991974 44
-0.31516454 0.012914261 2.0057628 93
-0.4135586 0.015995845 2.0131991 91
-0.48633677 0.018489974 1.6021345 38
-0.82490587 0.031239072 2.0043178 63
-1.0585281 0.03991155 2.0077264 79
-1.3841763 0.052196555 2.1070161 32
-1.6133318 0.060842171 2.0089054 74
-0.12518291 0.0063056438 2.0010643 86
-0.22101554 0.012272071 2.0182061 112
-0.49104983 0.019608421 1.9283288 39
-0.50787413 0.020111367 1.4364011 56
-0.93953955 0.036899105 2.0071244 90
-1.1848205 0.046538774 2.0096743 85
-1.4572887 0.057246637 2.0052397 82
-1.7830163 0.070047058 2.0127058 81
-1.9605864 0.071883582 2.0077524 67
-2.39555 0.087835521 2.0145898 66
-3.077631 0.11338412 2.1037648 22
-3.7202911 0.13706423 2.0344584 60
-4.781816 0.17700975 2.021621 41
-6.6160493 0.24606535 2.0347321 28
-10.082788 0.37500229 2.0070741 76
-9.704114 0.36261448 0.96304059 5
-2.167881 0.082518451 2.0127075 73
-2.6481819 0.10126469 2.0132108 67
-3.306103 0.12642699 2.0290439 65
-4.2324328 0.16259079 2.045459 63
-5.58779 0.21563499 2.0342808 36
-8.0675869 0.31274259 2.0379725 27
-9.733448 0.37902215 1.4490682 5
-9.72439 0.38036925 0.4862476 4
-0.031302363 0.0017398524 1.9991974 44
-0.31511509 0.014069309 2.0057628 92
-0.41349718 0.017511506 2.0131991 91
-0.48626572 0.020272361 1.6021345 38
-0.82478589 0.034262292 2.0043178 62
-1.0583748 0.043790977 2.0077264 81
-1.3839755 0.057269465 2.1070161 32
-1.6130979 0.066754922 2.0089054 74
-0.12515897 0.0067644198 2.0010643 88
-0.22096908 0.013082052 2.0182061 112
-0.49097469 0.021408077 1.9283288 39
-0.507797 0.021972686 1.4364011 56
-0.93939102 0.0405064 2.0071244 90
-1.1846331 0.051087808 2.0096743 87
-1.4570583 0.062841788 2.0052397 84
-1.7827343 0.076892816 2.0127058 85
-1.9603096 0.079069011 2.0077524 67
-2.3952119 0.096615061 2.0145898 66
-3.0813725 0.12483269 2.1065061 22
-3.7197638 0.15069886 2.0344584 60
-4.7811351 0.19453481 2.021621 41
-6.6151032 0.27031276 2.0347321 27
-10.076365 0.41351312 2.0061414 80
-9.5583525 0.39392585 0.95010054 5
-2.1675484 0.090841889 2.0127075 73
-2.6518118 0.11160216 2.0161538 69
-3.3099008 0.13930185 2.0315762 65
-4.2317772 0.17884094 2.045459 64
-5.5869207 0.23708892 2.0342808 37
-8.0663261 0.34371752 2.0379725 27
-9.5390339 0.40647212 1.4221654 3
-9.5981474 0.41066927 0.48120934 5
-0.0312961 0.0018491074 1.9991974 44
-0.31506407 0.015169182 2.0057628 92
-0.41343355 0.018954773 2.0131991 91
-0.48619199 0.021969622 1.6021345 38
-0.82270944 0.037053179 1.999715 60
-1.0582155 0.047485128 2.0077264 81
-1.3837672 0.062100094 2.1070161 31
-1.6128551 0.072385274 2.0089054 74
-0.12513459 0.0072012651 2.0010643 88
-0.22092207 0.013853298 2.0182061 112
-0.49089697 0.023121767 1.9283288 39
-0.50771719 0.023745093 1.4364011 56
-0.93925148 0.043621305 2.0071244 90
-1.1844572 0.05501591 2.0096743 85
-1.4568418 0.067673221 2.0052397 82
-1.7824695 0.082804158 2.0127058 83
-1.9600217 0.085911281 2.0077524 73
-2.3948603 0.10497532 2.0145898 62
-3.0809181 0.13558793 2.1065061 23
-3.7192149 0.16368234 2.0344584 60
-4.7850585 0.21142754 2.023494 40
-6.6189117 0.29361472 2.0361414 28
-10.074939 0.44692531 2.0061414 88
-9.4475393 0.42074582 0.94028383 5
-2.1672351 0.098029241 2.0127075 75
-2.6514273 0.12039527 2.0161538 69
-3.3094206 0.15027709 2.0315762 64
-4.2311611 0.19287303 2.045459 63
-5.5861039 0.25561452 2.0342808 37
-8.0699968 0.37068751 2.0391448 27
-9.3446255 0.43087116 1.3952625 11
-9.4619093 0.43793401 0.47576803 5
-0.031289455 0.0019583399 1.9991974 44
-0.31500918 0.016268866 2.0057628 93
-0.41336486 0.02039781 2.0131991 85
-0.48611233 0.023666615 1.6021345 38
-0.82452649 0.040019505 2.0043178 60
-1.0580432 0.051178701 2.0077264 79
-1.3835421 0.066929966 2.1070161 30
-1.6125926 0.078014746 2.0089054 74
-0.12510869 0.0076380223 2.0010643 88
-0.22087236 0.014624374 2.0182061 114
-0.49081326 0.024835177 1.9283288 39
-0.50763124 0.025517212 1.4364011 56
-0.93909347 0.046899639 2.0071244 93
-1.1816531 0.059019972 2.0054085 85
-1.4565969 0.072758131 2.0052397 82
-1.7821696 0.089025624 2.0127058 81
-1.9561477 0.092583895 2.0042477 73
-2.3944793 0.11333431 2.0145898 62
-3.0846028 0.14653994 2.1092477 24
-3.7186208 0.17666383 2.0344584 58
-4.7842913 0.22812922 2.023494 40
-6.6178465 0.31671724 2.0361414 29
-10.083131 0.48256034 2.0080066 88
-9.3365784 0.44846478 0.93046725 15
-2.1668797 0.1055937 2.0127075 75
-2.6509907 0.12964974 2.0161538 69
-3.3088758 0.1618282 2.0315762 65
-4.2304621 0.20764138 2.045459 62
-5.5851779 0.27511206 2.0342808 36
-8.0686541 0.39885482 2.0391448 27
-10.065196 0.49931079 1.4959757 75
-9.3555384 0.46574301 0.47153586 28
-0.031282429 0.0020675487 1.9991974 44
-0.3149505 0.017368356 2.0057628 93
-0.41329113 0.021840598 2.0131991 85
-0.48602676 0.025363319 1.6021345 38
-0.82438183 0.042897392 2.0043178 60
-1.0578582 0.054871645 2.0077264 81
-1.3833001 0.071759015 2.1070161 30
-1.6123105 0.083643273 2.0089054 74
-0.12508127 0.0080746869 2.0010643 88
-0.22081997 0.015395274 2.0182061 115
-0.49072358 0.026548285 1.9283288 39
-0.50753909 0.02728902 1.4364011 56
-0.93892407 0.050177403 2.0071244 92
-1.1814399 0.063144349 2.0054085 85
-1.456334 0.077842169 2.0052397 80
-1.781848 0.095246017 2.0127058 83
-1.9558126 0.099411555 2.0042477 73
-2.3940692 0.1216919 2.0145898 64
-3.0840724 0.15730633 2.1092477 22
-3.7179816 0.18964316 2.0344584 58
-4.7834659 0.2448281 2.023494 40
-6.6167011 0.33981588 2.0361414 29
-10.061762 0.51674628 2.004276 61
-10.080974 0.5194971 0.99739873 56
-2.1664979 0.11315688 2.0127075 75
-2.6505222 0.13890263 2.0161538 69
-3.3082907 0.17337735 2.0315762 64
-4.2342434 0.22264548 2.0475569 63
-5.5888996 0.29485515 2.0359235 36
-8.0720663 0.4272742 2.0403171 27
-10.023829 0.53234082 1.4904572 54
-10.072251 0.53667527 0.50055635 83
-0.031275019 0.0021767321 1.9991974 42
-0.31488794 0.018467633 2.0057628 95
-0.41321239 0.02328312 2.0131991 85
-0.48593527 0.027059715 1.6021345 37
-0.82422704 0.045774762 2.0043178 58
-1.0576601 0.058563929 2.0077264 79
-1.383041 0.076587208 2.1070161 30
-1.6120087 0.089270778 2.0089054 74
-0.12505232 0.0085112518 2.0010643 88
-0.22076488 0.016165985 2.0182061 116
-0.49062791 0.028261067 1.9283288 39
-0.50744075 0.029060496 1.4364011 54
-0.93874323 0.053454556 2.0071244 93
-1.1812123 0.067267962 2.0054085 85
-1.4560534 0.082925245 2.0052397 80
-1.7815048 0.10146525 2.0127058 83
-1.9554538 0.10623801 2.0042477 73
-2.3936296 0.13004802 2.0145898 66
-3.0835047 0.16807079 2.1092477 22
-3.7172971 0.20262018 2.0344584 59
-4.7825818 0.26152402 2.023494 40
-6.6154742 0.36291042 2.0361414 29
nan nan nan 0
-10.039319 0.55249387 0.99382907 37
-2.1660898 0.12071868 2.0127075 77
-2.6500211 0.14815386 2.0161538 69
-3.3076651 0.18492439 2.0315762 64
-4.2334404 0.23742437 2.0475569 63
-5.5878367 0.31436223 2.0359235 37
-8.0753784 0.45572215 2.0414894 27
nan nan nan 0
-10.070317 0.57183069 0.50055635 49
-0.031267233 0.0022858889 1.9991974 42
-0.31482154 0.019566683 2.0057628 93
-0.41312861 0.024725359 2.0131991 87
-0.48583785 0.028755782 1.6021345 37
-0.82211196 0.048536386 1.999715 56
-1.0598409 0.062396325 2.012115 81
-1.3827654 0.081414446 2.1070161 30
-1.6116872 0.094897188 2.0089054 74
-0.12531063 0.0089688702 2.0060561 88
-0.2207071 0.016936501 2.0182061 115
-0.49052629 0.029973505 1.9283288 39
-0.5073362 0.030831616 1.4364011 56
-0.93855083 0.056731056 2.0071244 93
-1.1809702 0.071390755 2.0054085 85
-1.455755 0.088007316 2.0052397 84
-1.7811396 0.10768324 2.0127058 83
-1.955071 0.11306318 2.0042477 73
-2.3931611 0.13840257 2.0145898 66
-3.0828991 0.17883322 2.1092477 23
-3.716567 0.21559474 2.0344584 50
-4.7816401 0.27821678 2.023494 40
-6.6141672 0.38600051 2.0361414 29
nan nan nan 0
nan nan nan 0
-2.1656551 0.128279 2.0127075 77
-2.649488 0.15740325 2.0161538 67
-3.3069997 0.19646917 2.0315762 65
-4.2325859 0.25220039 2.0475569 60
-5.5914192 0.33414724 2.0375662 37
-8.0737381 0.48390773 2.0414894 27
nan nan nan 0
-9.724164 0.58623481 0.48665068 11
-0.031259064 0.002395018 1.9991974 44
-0.31475133 0.020665498 2.0057628 95
-0.41303977 0.026167298 2.0131991 87
-0.48573452 0.030451497 1.6021345 38
-0.82388741 0.051527791 2.0043178 56
-1.0596166 0.066095479 2.012115 81
-1.3824726 0.086240709 2.1070161 29
-1.611346 0.10052245 2.0089054 74
-0.12527856 0.0094062313 2.0060561 88
-0.22064665 0.01770681 2.0182061 114
-0.49041867 0.03168558 1.9283288 39
-0.50722551 0.032602366 1.4364011 54
-0.93834716 0.060006864 2.0071244 93
-1.1833166 0.075679161 2.0096743 87
-1.455439 0.093088314 2.0052397 84
-1.7807529 0.11389993 2.0127058 81
-1.9546642 0.11988696 2.0042477 73
-2.3926635 0.14675541 2.0145898 66
-3.0822561 0.18959343 2.1092477 23
-3.7157919 0.22856665 2.0344584 50
-4.7806401 0.29490611 2.023494 40
-6.6175675 0.40938216 2.0375507 29
-9.7665281 0.60418731 1.9492514 4
nan nan nan 0
-2.1651943 0.13583778 2.0127075 75
-2.6489224 0.16665071 2.0161538 67
-3.3062937 0.20801155 2.0315762 65
-4.2362094 0.26725912 2.049655 60
-5.5902185 0.35366291 2.0375662 37
-8.0768509 0.51239514 2.0426617 27
-9.7014065 0.6171574 1.446309 2
-9.6672125 0.61667633 0.48443383 4
-0.03125051 0.002504118 1.9991974 45
-0.3146773 0.021764057 2.0057628 93
-0.41294593 0.027608914 2.0131991 91
-0.4856253 0.032146841 1.6021345 38
-0.82175303 0.054274578 1.999715 56
-1.056989 0.069636308 2.0077264 81
-1.3793552 0.090880886 2.1028829 29
-1.6109855 0.10614648 2.0089054 74
-0.12524496 0.0098434789 2.0060561 88
-0.2205835 0.018476902 2.0182061 114
-0.4903051 0.033397265 1.9283288 39
-0.50710863 0.03437271 1.4364011 54
-0.93813193 0.063281938 2.0071244 92
-1.1830451 0.079809234 2.0096743 85
-1.4551051 0.098168172 2.0052397 84
-1.7803444 0.12011521 2.0127058 83
-1.9542339 0.12670928 2.0042477 73
-2.3921366 0.15510647 2.0145898 64
-3.0815754 0.20035137 2.1092477 23
-3.7149715 0.2415358 2.0344584 56
-4.7842069 0.31189343 2.0253668 39
-6.6160989 0.43247926 2.0375507 29
-9.6124048 0.62834215 1.9203403 4
-9.7994223 0.64228475 0.97285718 8
-2.1647067 0.14339489 2.0127075 75
-2.6483245 0.17589617 2.0161538 67
-3.3055475 0.21955141 2.0315762 64
-4.2352509 0.28204465 2.049655 63
-5.5936623 0.37348887 2.0392089 37
-8.0701628 0.54026079 2.0414894 25
-9.7337799 0.65333939 1.4511377 12
-9.8294964 0.66148734 0.49108434 14
-0.031241581 0.0026131873 1.9991974 45
-0.31459939 0.022862354 2.0057628 93
-0.41284704 0.029050199 2.0131991 93
-0.48551011 0.033841792 1.6021345 38
-0.82155859 0.057142701 1.999715 56
-1.0567393 0.073325455 2.0077264 81
-1.3790296 0.095695175 2.1028829 29
-1.6106051 0.11176922 2.0089054 74
-0.12520984 0.010280605 2.0060561 86
-0.22051765 0.019246768 2.0182061 115
-0.49144015 0.03519848 1.9331679 39
-0.50698549 0.036142644 1.4364011 54
-0.93790531 0.066556245 2.0071244 92
-1.1827595 0.08393836 2.0096743 83
-1.4547535 0.10324685 2.0052397 82
-1.7799144 0.12632905 2.0127058 83
-1.9573376 0.13377324 2.0077524 71
-2.3915806 0.16345564 2.0145898 64
-3.0808573 0.21110685 2.1092477 23
-3.7141054 0.254502 2.0344584 56
-4.7830892 0.3285915 2.0253668 39
-6.6145482 0.45557114 2.0375507 30
-9.4778347 0.65277863 1.8951595 6
-9.7722788 0.67477196 0.97062618 9
-2.1641932 0.15095025 2.0127075 75
-2.6476943 0.18513948 2.0161538 67
-3.3047609 0.23108859 2.0315762 65
-4.2342405 0.29682672 2.049655 62
-5.5923243 0.39301214 2.0392089 37
-8.0730772 0.56876928 2.0426617 9
-9.7116804 0.68591708 1.4483783 14
nan nan nan 0
-0.031232743 0.0027167737 1.9991974 42
-0.31452185 0.023905478 2.0057628 93
-0.41274843 0.030419087 2.0131991 93
-0.48688477 0.035560481 1.6069062 38
-0.82136458 0.059866771 1.999715 58
-1.0564903 0.076829329 2.0077264 81
-1.3787047 0.10026768 2.1028829 29
-1.6102256 0.11710957 2.0089054 74
-0.12517692 0.010673912 2.0060561 86
-0.22045609 0.019939449 2.0182061 116
-0.49132714 0.036742207 1.9331679 39
-0.50686949 0.037735201 1.4364011 50
-0.93767947 0.069666095 2.0071244 92
-1.1824745 0.08786007 2.0096743 85
-1.4544033 0.10807042 2.0052397 84
-1.7795087 0.13192017 2.0127058 83
-1.9568834 0.14026327 2.0077524 71
-2.3910255 0.1713855 2.0145898 66
-3.0759697 0.22102249 2.1065061 22
-3.7176602 0.26713455 2.0367765 59
-4.782033 0.34361637 2.0253668 42
-6.6178694 0.47669369 2.0389597 30
-9.4315233 0.68102062 1.8867658 5
-9.7799215 0.70789331 0.97151858 8
-2.1636806 0.15812615 2.0127075 75
-2.6470659 0.19391853 2.0161538 69
-3.3083186 0.24178389 2.0341086 65
-4.2332873 0.31012747 2.049655 60
-5.5910616 0.41057897 2.0392089 38
-8.0567083 0.59305823 2.0391448 6
-9.8329468 0.72553402 1.4656237 20
nan nan nan 0
-0.03122307 0.0028257798 1.9991974 42
-0.3144365 0.025003217 2.0057628 93
-0.41263971 0.031859662 2.0131991 89
-0.4867577 0.03725981 1.6069062 38
-0.82309866 0.062882371 2.0043178 58
-1.0562158 0.080516703 2.0077264 81
-1.3783463 0.10507964 2.1028829 26
-1.6130038 0.12297332 2.0127425 74
-0.12513696 0.011132637 2.0060561 82
-0.22038154 0.020747328 2.0182061 116
-0.49118915 0.038542766 1.9331679 39
-0.50672776 0.039592721 1.4364011 50
-0.93743056 0.07293877 2.0071244 90
-1.1821607 0.091987133 2.0096743 87
-1.454017 0.11314657 2.0052397 82
-1.7790133 0.13844152 2.0127058 81
-1.9563817 0.14709321 2.0077524 73
-2.3904126 0.1797307 2.0145898 66
-3.0751796 0.23175828 2.1065061 22
-3.7167051 0.28010997 2.0367765 60
-4.7853642 0.36149031 2.02724 40
-6.6160779 0.50094622 2.0389597 30
-9.541748 0.72246879 1.9082161 7
-9.8518772 0.74768025 0.9782117 27
-2.1631155 0.16567785 2.0127075 75
-2.6463728 0.20315732 2.0161538 69
-3.3074102 0.25390786 2.0341086 65
-4.2321219 0.32564116 2.049655 60
-5.5942278 0.43143156 2.0408514 37
-8.0835581 0.62483114 2.0461786 26
-9.8351583 0.76195127 1.4663136 16
-9.8620119 0.76576328 0.49269664 18
-0.031256393 0.002939441 2.0041974 42
-0.3143473 0.026100654 2.0057628 92
-0.41252601 0.033299848 2.0131991 89
-0.48662466 0.038958684 1.6069062 38
-0.82287413 0.065755144 2.0043178 54
-1.0559283 0.084203094 2.0077264 81
-1.3779712 0.10989033 2.1028829 26
-1.6125647 0.12860301 2.0127425 74
-0.12509733 0.011569379 2.0060561 80
-0.22030777 0.021516476 2.0182061 116
-0.49105161 0.0402571 1.9331679 39
-0.50658643 0.041361287 1.4364011 54
-0.93717027 0.076210566 2.0071244 90
-1.1818323 0.096113078 2.0096743 87
-1.4536132 0.11822134 2.0052397 82
-1.7785192 0.14465059 2.0127058 83
-1.9558564 0.15392137 2.0077524 73
-2.3897705 0.18807369 2.0145898 66
-3.0743518 0.24249126 2.1065061 21
-3.7157049 0.293082 2.0367765 58
-4.7840729 0.37819216 2.02724 40
-6.6190705 0.52441645 2.040369 31
-9.5734463 0.75848716 1.9147446 6
-9.8492069 0.78206515 0.9782117 20
-2.162524 0.1732275 2.0127075 75
-2.6496768 0.21271715 2.0190971 67
-3.3065038 0.26545134 2.0341086 65
-4.2354836 0.34077603 2.051753 62
-5.5926881 0.45095646 2.0408514 37
-8.0571032 0.65108669 2.0403171 20
-9.8324385 0.7962777 1.4663136 15
-9.8592787 0.80018348 0.49269664 8
-0.031245943 0.0030485285 2.0041974 40
-0.31425428 0.027197771 2.0057628 92
-0.41240728 0.034739628 2.0131991 89
-0.48648569 0.040657081 1.6069062 38
-0.82263958 0.068627112 2.0043178 55
-1.0556279 0.087888457 2.0077264 81
-1.3775791 0.11469968 2.1028829 27
-1.6121058 0.13423114 2.0127425 73
-0.124768 0.011977823 2.0010643 77
-0.22023132 0.022285363 2.0182061 116
-0.49090812 0.041970946 1.9331679 39
-0.50643897 0.043129355 1.4364011 50
-0.93689853 0.079481438 2.0071244 90
-1.1814897 0.10023786 2.0096743 85
-1.4501885 0.12303984 2.00125 82
-1.7780033 0.1508579 2.0127058 81
-1.9553072 0.16074763 2.0077524 73
-2.3890996 0.1964144 2.0145898 66
-3.0734866 0.25322127 2.1065061 21
-3.714659 0.30605042 2.0367765 56
-4.7827239 0.39488935 2.02724 40
-6.6171999 0.54751807 2.040369 32
nan nan nan 0
-9.8513813 0.81685209 0.97865796 18
-2.161906 0.18077506 2.0127075 75
-2.6489179 0.22196494 2.0190971 67
-3.305557 0.27699155 2.0341086 65
-4.2342682 0.35555851 2.051753 61
-5.5910797 0.47047579 2.0408514 38
-8.0596237 0.67961562 2.0414894 19
-9.8444042 0.83184552 1.4683831 17
-9.8713598 0.83585846 0.49330121 62
-0.031235112 0.0031575784 2.0041974 44
-0.3141574 0.028294558 2.0057628 92
-0.41228348 0.036178991 2.0131991 89
-0.48634082 0.042354986 1.6069062 38
-0.82239503 0.071498238 2.0043178 55
-1.0553148 0.091572747 2.0077264 81
-1.3771703 0.11950763 2.1028829 26
-1.6116275 0.13985761 2.0127425 73
-0.12472543 0.012413273 2.0010643 77
-0.22015218 0.023053978 2.0182061 116
-0.49201146 0.043795869 1.9380071 39
-0.50628537 0.044896893 1.4364011 50
-0.93661541 0.082751341 2.0071244 90
-1.1811326 0.10436142 2.0096743 85
-1.4497501 0.1281012 2.00125 82
-1.7774658 0.15706336 2.0127058 81
-1.9547342 0.16757196 2.0077524 73
-2.3883994 0.20475273 2.0145898 66
-3.0725839 0.2639482 2.1065061 21
-3.713568 0.31901515 2.0367765 56
-4.7813163 0.41158181 2.02724 40
-6.620028 0.57102543 2.0417781 32
-9.866457 0.85105467 1.9716343 11
-9.8534307 0.85166371 0.97910416 11
-2.161262 0.18832043 2.0127075 75
-2.6481271 0.23121004 2.0190971 69
-3.30457 0.28852841 2.0341086 65
-4.2330012 0.37033671 2.051753 61
-5.5894032 0.48998943 2.0408514 39
-7.5923724 0.66691405 1.9289469 3
-9.851306 0.86707217 1.4697626 14
-9.8833113 0.87162751 0.49390581 62
-0.031223331 0.0032720398 2.0041974 42
-0.3140516 0.029445812 2.0057628 93
-0.41214812 0.037689842 2.0131991 89
-0.4861823 0.044137232 1.6069062 37
-0.82212746 0.07451199 2.0043178 55
-1.0549721 0.095440067 2.0077264 81
-1.3767231 0.1245544 2.1028829 26
-1.6111041 0.14576359 2.0127425 74
-0.1246791 0.01287033 2.0010643 71
-0.22006622 0.023860723 2.0182061 115
-0.4918476 0.045598891 1.9380071 39
-0.5061174 0.046752218 1.4364011 50
-0.93630576 0.08618366 2.0071244 90
-1.1807421 0.1086898 2.0096743 87
-1.4492708 0.13341394 2.00125 82
-1.7768784 0.16357706 2.0127058 81
-1.9541069 0.17473528 2.0077524 73
-2.3876328 0.21350525 2.0145898 66
-3.0757608 0.27558118 2.1092477 21
-3.7167861 0.33301923 2.0390942 59
-4.7797756 0.4291034 2.02724 40
-6.6226687 0.59571499 2.0431874 27
-9.8632708 0.88721132 1.9716343 8
-9.8552027 0.88821965 0.97955036 7
-2.1605573 0.19624057 2.0127075 75
-2.6472619 0.24091434 2.0190971 69
-3.3034904 0.30063835 2.0341086 64
-4.236135 0.38626111 2.0538511 60
-5.5922728 0.51090205 2.0424941 39
-7.1784439 0.65707648 1.8292998 2
-9.8579245 0.90407765 1.4711423 12
-9.885026 0.90830302 0.49410734 35
-0.031211719 0.0033810092 2.0041974 42
-0.31394693 0.030541878 2.0057628 93
-0.41201404 0.039128277 2.0131991 91
-0.4860253 0.045834057 1.6069062 38
-0.8238073 0.07756447 2.0089202 55
-1.0546324 0.099122018 2.0077264 81
-1.37628 0.1293593 2.1028829 26
-1.6105856 0.1513865 2.0127425 74
-0.12463342 0.013305463 2.0010643 71
-0.21998158 0.024628749 2.0182061 115
-0.49168545 0.047315478 1.9380071 39
-0.50595111 0.048518613 1.4364011 50
-0.93599927 0.089451455 2.0071244 92
-1.1803557 0.11281069 2.0096743 87
-1.4487964 0.13847202 2.00125 84
-1.7762966 0.16977853 2.0127058 83
-1.9534851 0.18155533 2.0077524 69
-2.386873 0.22183837 2.0145898 66
-3.0747797 0.28631589 2.1092477 20
-3.7156007 0.34599119 2.0390942 61
-4.782865 0.44621605 2.0291131 43
-6.6205487 0.61882877 2.0431874 19
-7.214119 0.67431056 1.4670868 2
-9.8619585 0.92354387 0.98044276 5
-2.1598592 0.20378114 2.0127075 75
-2.6464047 0.25015354 2.0190971 69
-3.3024206 0.31216785 2.0341086 64
-4.2347612 0.40104565 2.0538511 60
-5.5904551 0.53041959 2.0424941 36
