# .PCD v0.7 - Point Cloud Data file format
VERSION 0.7
FIELDS x y z intensity
SIZE 4 4 4 4
TYPE F F F F
COUNT 1 1 1 1
WIDTH 1380
HEIGHT 1
VIEWPOINT 0 0 0 1 0 0 0
POINTS 1380
DATA ascii
1.1711246 -1.7727259 1.9728094 79
1.4225214 -2.1540837 1.9631768 52
1.7566849 -2.6601048 1.9581357 72
2.0359027 -3.0840888 1.7957906 81
2.0316906 -3.0788765 1.3722787 85
2.0261099 -3.0715857 0.9781974 87
2.0172343 -3.0592916 0.60266423 91
2.0234475 -3.06988 0.24199218 95
0.016802719 -0.026415907 1.9941976 78
0.1721805 -0.26429027 2.0057628 96
0.23563229 -0.35988104 2.0915227 52
0.34957576 -0.53314942 2.0840786 39
0.44846421 -0.68372846 1.9859076 91
0.57454479 -0.87563616 1.9857829 83
0.71357477 -1.0875355 1.9830275 82
0.88216794 -1.3444918 2.0012317 40
0.06727615 -0.10541317 1.9960728 89
0.1172718 -0.18584739 2.0032918 93
0.29206747 -0.44729584 2.0928619 53
0.38752455 -0.5930652 1.980762 81
0.50982499 -0.77965981 1.9891212 92
0.640365 -0.97930264 1.9840788 87
0.78825915 -1.2054855 1.9813027 70
0.96913129 -1.4821025 1.9980052 43
1.0603592 -1.6123881 1.9762113 75
1.2850641 -1.9540832 1.9675231 73
1.5722989 -2.3917668 1.9612085 69
2.0498657 -3.1182446 2.0390942 60
2.0193539 -3.0729985 1.5739659 75
2.0177031 -3.0716543 1.1694862 83
2.0146117 -3.0669479 0.7881394 83
2.0116944 -3.0636725 0.42134184 90
1.1649293 -1.7768031 1.9728094 81
1.4149934 -2.1590362 1.9631768 69
1.7473885 -2.6662207 1.9581357 72
2.0201507 -3.0835838 1.7915945 80
2.0157566 -3.0780485 1.3689934 85
2.0100513 -3.0705056 0.97585273 84
2.0038316 -3.0621705 0.60197443 93
2.0072494 -3.0685627 0.2415891 95
0.016710408 -0.026474398 1.9941976 78
0.1712569 -0.26488966 2.0057628 97
0.23437466 -0.36070132 2.0915227 52
0.34771261 -0.53436643 2.0840786 39
0.44714054 -0.68692702 1.99051 93
0.5714848 -0.87763643 1.9857829 83
0.70977426 -1.0900197 1.9830275 82
0.87746948 -1.347563 2.0012317 40
0.066907786 -0.10564737 1.9960728 89
0.11662235 -0.18625559 2.0032918 93
0.29050431 -0.44831264 2.0928619 53
0.385452 -0.59441429 1.980762 69
0.50710028 -0.78143471 1.9891212 92
0.63694268 -0.98153204 1.9840788 87
0.78404641 -1.2082298 1.9813027 87
0.96395189 -1.4854764 1.9980052 43
1.0547245 -1.6160794 1.9762113 75
1.2782352 -1.9585568 1.9675231 73
1.5639404 -2.3972406 1.9612085 69
2.0341272 -3.1179605 2.0344584 84
2.0035501 -3.0722623 1.5702199 76
2.0043488 -3.0746601 1.168077 83
1.9985284 -3.0657315 0.78627414 83
1.9982692 -3.0665038 0.42089561 91
1.15872 -1.7808588 1.9728094 81
1.4074484 -2.1639621 1.9631768 73
1.7380711 -2.6723037 1.9581357 72
2.004427 -3.0830066 1.7873983 80
2.0024264 -3.0811064 1.3673507 85
1.996673 -3.0734272 0.97468042 84
1.987736 -3.0608401 0.60059476 91
1.9938056 -3.0713601 0.24138758 96
0.016617894 -0.026532568 1.9941976 78
0.1699118 -0.26483178 2.0008237 96
0.23311412 -0.36151725 2.0915227 56
0.34584519 -0.53557694 2.0840786 38
0.44474 -0.68848366 1.99051 93
0.56841773 -0.87962592 1.9857829 85
0.70596498 -1.0924906 1.9830275 82
0.87276024 -1.3506178 2.0012317 40
0.066538602 -0.10588028 1.9960728 89
0.11597149 -0.18666154 2.0032918 93
0.28825736 -0.44826594 2.0880225 53
0.38337472 -0.59575617 1.980762 50
0.5043695 -0.78320003 1.9891212 92
0.63351262 -0.98374939 1.9840788 87
0.77982414 -1.2109593 1.9813027 87
0.95876074 -1.4888321 1.9980052 43
1.0490769 -1.6197515 1.9762113 75
1.2713907 -1.9630067 1.9675231 73
1.5555629 -2.4026852 1.9612085 69
2.0184157 -3.117604 2.0298221 80
1.987776 -3.0714536 1.5664738 76
1.9883924 -3.0735819 1.1652585 82
1.9824783 -3.0644403 0.78440887 85
1.9821444 -3.0650964 0.42000318 90
1.1524967 -1.7848926 1.9728094 81
1.3976941 -2.1654656 1.9602337 73
1.7287325 -2.6783545 1.9581357 73
1.988732 -3.0823576 1.7832023 81
1.98654 -3.0801399 1.3640653 84
1.980665 -3.0722077 0.97233576 84
1.9743569 -3.0635972 0.59990495 91
1.9776614 -3.0699012 0.2409845 95
0.016525175 -0.026590412 1.9941976 78
0.16898634 -0.26542327 2.0008237 95
0.23185079 -0.36232877 2.0915227 56
0.34397358 -0.53678089 2.0840786 38
0.442334 -0.69003183 1.99051 95
0.5653438 -0.88160473 1.9857829 85
0.70214719 -1.0949483 1.9830275 82
0.86804038 -1.3536562 2.0012317 40
0.066168599 -0.1061119 1.9960728 89
0.11531921 -0.18706521 2.0032918 95
0.28669086 -0.44926941 2.0880225 53
0.38129285 -0.59709078 1.980762 44
0.50163257 -0.78495586 1.9891212 92
0.63007486 -0.98595476 1.9840788 87
0.77559233 -1.2136739 1.9813027 84
0.95355791 -1.4921697 1.9980052 43
1.0434165 -1.6234034 1.9762113 69
1.2645309 -1.9674327 1.9675231 73
1.5471665 -2.4081004 1.9612085 69
2.0027316 -3.1171763 2.0251863 78
1.9745375 -3.0744727 1.5646008 77
1.9724681 -3.0724299 1.1624402 83
1.9691159 -3.0672081 0.78347629 85
1.9687434 -3.0678058 0.41955698 88
1.1462593 -1.7889047 1.9728094 79
1.3901267 -2.1703315 1.9602337 73
1.7193727 -2.6843727 1.9581357 72
1.9730656 -3.081636 1.7790061 81
1.9706846 -3.0791006 1.36078 87
1.96469 -3.0709143 0.96999115 83
1.9609828 -3.0662985 0.59921515 90
1.9615513 -3.068367 0.24058145 95
0.016432257 -0.026647935 1.9941976 80
0.16805881 -0.26601154 2.0008237 93
0.23058459 -0.3631359 2.0915227 54
0.34209776 -0.53797829 2.0840786 38
0.43992263 -0.69157165 1.99051 93
0.56226301 -0.88357276 1.9857829 83
0.69832087 -1.0973924 1.9830275 84
0.86330998 -1.3566778 2.0012317 40
0.065797806 -0.10634222 1.9960728 89
0.11466553 -0.18746662 2.0032918 93
0.28512087 -0.45026743 2.0880225 53
0.38012987 -0.59987575 1.9854547 40
0.49888951 -0.7867021 1.9891212 93
0.62662935 -0.98814809 1.9840788 87
0.7713511 -1.2163739 1.9813027 87
0.9483434 -1.4954892 1.9980052 43
1.0377433 -1.6270357 1.9762113 69
1.2576555 -1.9718349 1.9675231 73
1.5387514 -2.4134865 1.9612085 69
1.989457 -3.1204126 2.0228682 73
1.9588102 -3.0735276 1.5608548 77
1.9591537 -3.0752504 1.161031 82
1.9531184 -3.0657771 0.78161103 83
1.9526726 -3.0662577 0.41866457 88
1.1400077 -1.792895 1.9728094 79
1.3825424 -2.1751707 1.9602337 75
1.7099919 -2.6903579 1.9581357 70
1.9598629 -3.0846736 1.776908 82
1.954861 -3.0779879 1.3574946 85
1.9513532 -3.0736501 0.96881884 84
1.9449604 -3.0647624 0.59783548 91
1.9481527 -3.070977 0.24037993 95
0.016361389 -0.026742663 1.9991974 82
0.16712922 -0.26659656 2.0008237 95
0.22931561 -0.36393857 2.0915227 52
0.34021777 -0.53916919 2.0840786 39
0.43750596 -0.69310308 1.99051 95
0.56045443 -0.88755566 1.9901714 85
0.69448602 -1.0998235 1.9830275 82
0.85685742 -1.3569723 1.9973947 40
0.065426201 -0.10657124 1.9960728 89
0.11401045 -0.18786575 2.0032918 93
0.28421661 -0.45232502 2.0928619 53
0.37803361 -0.60119891 1.9854547 40
0.49614039 -0.78843874 1.9891212 92
0.62317628 -0.99032938 1.9840788 87
0.76710051 -1.219059 1.9813027 87
0.94311744 -1.4987905 1.9980052 43
1.0320576 -1.6306483 1.9762113 75
1.2507648 -1.9762129 1.9675231 71
1.5303173 -2.418843 1.9612085 69
1.9453919 -3.0749238 1.9904157 41
1.9455917 -3.0764279 1.5589817 76
1.9407169 -3.0699055 1.1568034 82
1.93978 -3.0684235 0.78067839 82
1.9392972 -3.0688455 0.41821834 87
1.1337425 -1.7968634 1.9728094 81
1.3749413 -2.1799831 1.9602337 75
1.7028906 -2.6999571 1.9606682 70
1.9442426 -3.083818 1.772712 81
1.9390693 -3.0768023 1.3542092 83
1.9354308 -3.0722177 0.96647424 84
1.9316119 -3.0673425 0.59714574 91
1.9294366 -3.0650744 0.23977533 94
0.01626794 -0.026799612 1.9991974 82
0.1661976 -0.2671783 2.0008237 96
0.22804382 -0.3647368 2.0915227 48
0.33833367 -0.54035348 2.0840786 39
0.43508393 -0.69462609 1.99051 95
0.55735284 -0.88950658 1.9901714 85
0.6906426 -1.1022409 1.9830275 82
0.85211539 -1.3599551 1.9973947 43
0.065053791 -0.10679898 1.9960728 89
0.11335398 -0.18826257 2.0032918 93
0.28263596 -0.45331433 2.0928619 51
0.37593272 -0.60251486 1.9854547 40
0.49338517 -0.79016578 1.9891212 92
0.61971557 -0.99249864 1.9840788 87
0.76284045 -1.2217293 1.9813027 87
0.93787992 -1.5020734 1.9980052 43
1.0263592 -1.6342409 1.9762113 75
1.2438589 -1.9805669 1.9675231 71
1.5218647 -2.42417 1.9612085 69
1.9016697 -3.0291667 1.9579635 30
1.9299126 -3.0753472 1.5552356 76
1.929989 -3.0766611 1.1568034 80
1.9238367 -3.0668535 0.77881318 82
1.9232816 -3.0671577 0.41732591 88
1.1274633 -1.8008099 1.9728094 79
1.3673233 -2.1847694 1.9602337 73
1.6934555 -2.7058852 1.9606682 72
1.9310592 -3.0867381 1.7706139 81
1.9233094 -3.0755441 1.3509238 81
1.9221183 -3.0748332 0.96530187 83
1.9182686 -3.0698664 0.59645587 90
1.916079 -3.0675535 0.23957381 94
0.01617429 -0.026856234 1.9991974 80
0.16526398 -0.26775682 2.0008237 95
0.22676928 -0.36553061 2.0915227 48
0.33644539 -0.54153121 2.0840786 39
0.43265653 -0.69614059 1.99051 95
0.55424446 -0.89144665 1.9901714 83
0.68679088 -1.104645 1.9830275 80
0.84567028 -1.3601985 1.9935577 52
0.064680599 -0.10702541 1.9960728 91
0.11269613 -0.1886571 2.0032918 93
0.28105187 -0.45429817 2.0928619 51
0.37382728 -0.60382348 1.9854547 40
0.49062398 -0.79188323 1.9891212 92
0.61624736 -0.99465585 1.9840788 87
0.75857121 -1.2243847 1.9813027 87
0.93263096 -1.5053381 1.9980052 43
1.0206485 -1.6378136 1.9762113 77
1.236938 -1.9848967 1.9675231 73
1.5133934 -2.4294674 1.9612085 61
1.8863993 -3.0282655 1.9533273 30
1.9167156 -3.0781298 1.5533626 74
1.9090973 -3.0670884 1.1511667 79
1.9053322 -3.0610394 0.77601534 76
1.9073018 -3.0653958 0.41643351 85
1.1211704 -1.8047347 1.9728094 81
1.3596888 -2.1895289 1.9602337 73
1.6839999 -2.7117798 1.9606682 69
1.9202727 -3.0934598 1.7706139 80
1.9075822 -3.0742135 1.3476384 80
1.9062494 -3.0732627 0.9629572 80
1.8944933 -3.0554998 0.59300685 85
1.8948323 -3.0572376 0.23876768 89
0.016080448 -0.026912533 1.9991974 80
0.16432831 -0.26833206 2.0008237 95
0.22549196 -0.36631995 2.0915227 46
0.33455306 -0.54270226 2.0840786 38
0.43022391 -0.69764662 1.99051 95
0.54987162 -0.8913371 1.9857829 85
0.68293083 -1.1070356 1.9830275 80
0.83923417 -1.3604139 1.9897208 57
0.064306617 -0.10725053 1.9960728 89
0.11203691 -0.18904935 2.0032918 91
0.27946436 -0.45527649 2.0928619 53
0.37171724 -0.60512465 1.9854547 40
0.48785681 -0.79359096 1.9891212 93
0.61277163 -0.9968009 1.9840788 87
0.75429267 -1.227025 1.9813027 87
0.92737079 -1.5085844 1.9980052 43
1.0149252 -1.6413665 1.9762113 77
1.2300017 -1.9892024 1.9675231 73
1.5049038 -2.4347353 1.9612085 61
1.8665004 -3.019758 1.9440553 35
1.9059592 -3.0848017 1.5533626 72
1.8933381 -3.0655704 1.1483482 73
1.8894732 -3.0593128 0.77415007 62
1.8913575 -3.0635598 0.41554108 70
1.114864 -1.8086371 1.9728094 81
1.3520375 -2.194262 1.9602337 75
1.6745238 -2.7176414 1.9606682 69
1.9094628 -3.1001444 1.7706139 78
1.889412 -3.0687895 1.3427104 63
1.8980578 -3.0840375 0.96412951 17
1.8760313 -3.0494404 0.59093738 2
1.8998511 -3.0893669 0.23997685 84
0.015986407 -0.026968498 1.9991974 82
0.16339065 -0.26890403 2.0008237 96
0.22421189 -0.36710486 2.0915227 46
0.33187738 -0.54259259 2.0793068 38
0.42778608 -0.69914407 1.99051 93
0.54675692 -0.89325106 1.9857829 83
0.67906231 -1.1094129 1.9830275 80
0.83448023 -1.363335 1.9897208 68
0.063931853 -0.10747435 1.9960728 89
0.11137632 -0.18943928 2.0032918 91
0.27787346 -0.45624918 2.0928619 53
0.36960271 -0.60641855 1.9854547 39
0.48508367 -0.7952891 1.9891212 92
0.60928839 -0.99893379 1.9840788 87
0.75000495 -1.2296505 1.9813027 87
0.92209905 -1.5118123 1.9980052 45
1.0073246 -1.6418592 1.9727067 75
1.2230506 -1.9934837 1.9675231 73
1.4963957 -2.4399736 1.9612085 69
1.86058 -3.033808 1.9486914 56
1.8976026 -3.0953882 1.5552356 69
nan nan nan 0
nan nan nan 0
1.8936591 -3.0913768 0.41777214 17
1.1085439 -1.8125178 1.9728094 79
1.34437 -2.1989679 1.9602337 75
1.6650273 -2.72347 1.9606682 72
1.9009963 -3.1106632 1.772712 75
1.9008451 -3.1116359 1.3574946 15
3.8276789 -6.2682786 1.8621248 20
nan nan nan 0
1.8916577 -3.1002443 0.24017838 83
0.015892174 -0.027024137 1.9991974 80
0.16245101 -0.26947275 2.0008237 95
0.22134624 -0.3652727 2.0768371 40
0.32998136 -0.54374778 2.0793068 39
0.42534301 -0.70063311 1.99051 95
0.54363555 -0.89515412 1.9857829 81
0.67518562 -1.1117764 1.9830275 82
0.82805204 -1.3634994 1.9858838 64
0.063556306 -0.10769686 1.9960728 88
0.11071438 -0.18982691 2.0032918 93
0.27627915 -0.45721638 2.0928619 53
0.36748368 -0.607705 1.9854547 39
0.48343208 -0.79884058 1.9936218 92
0.60579777 -1.0010545 1.9840788 87
0.74570817 -1.2322611 1.9813027 87
0.91681629 -1.5150219 1.9980052 47
1.0015874 -1.6453654 1.9727067 75
1.2160847 -1.9977407 1.9675231 73
1.4878695 -2.4451823 1.9612085 69
1.8522817 -3.0440688 1.9510094 55
1.8891954 -3.1059539 1.5571086 67
3.202775 -5.2676339 1.9008586 10
3.7871797 -6.2288108 1.4754804 28
1.8880296 -3.1064792 0.41866457 17
1.1022103 -1.8163762 1.9728094 79
1.3366859 -2.2036474 1.9602337 75
1.6555104 -2.7292655 1.9606682 70
1.8901265 -3.11728 1.772712 75
1.9071062 -3.146522 1.3689934 15
3.790663 -6.256659 1.8550909 33
nan nan nan 0
1.8911736 -3.1239238 0.2409845 83
0.015797745 -0.027079444 1.9991974 82
0.16150939 -0.27003816 2.0008237 95
0.21797159 -0.36255237 2.057256 40
0.32808131 -0.54489636 2.0793068 39
0.42289475 -0.70211351 1.99051 95
0.54050756 -0.89704627 1.9857829 83
0.67130065 -1.1141264 1.9830275 84
0.82328749 -1.3663814 1.9858838 54
0.063179985 -0.10791806 1.9960728 88
0.11005108 -0.19021219 2.0032918 93
0.27468148 -0.45817798 2.0928619 55
0.36447245 -0.60750431 1.980762 39
0.48064065 -0.80052316 1.9936218 92
0.60229969 -1.0031631 1.9840788 87
0.74140215 -1.2348566 1.9813027 87
0.91152227 -1.5182129 1.9980052 47
0.99583781 -1.6488516 1.9727067 75
1.2070913 -1.9986414 1.9643854 73
1.4793253 -2.4503613 1.9612085 66
1.8416446 -3.0505161 1.9510094 64
1.878342 -3.1125295 1.5571086 66
3.1794121 -5.270566 1.8980402 9
3.7654142 -6.241993 1.4754804 28
1.8823177 -3.1215801 0.41955698 18
1.0958632 -1.8202126 1.9728094 81
1.3289856 -2.2082996 1.9602337 73
1.6459734 -2.7350278 1.9606682 70
1.8792336 -3.1238585 1.772712 75
1.8912439 -3.145066 1.365708 12
3.7612877 -6.2573543 1.8515738 35
nan nan nan 0
1.8751127 -3.1219409 0.24058145 84
0.015703123 -0.027134426 1.9991974 82
0.16056582 -0.27060029 2.0008237 96
0.21461865 -0.35981303 2.0376754 42
0.32617727 -0.54603827 2.0793068 39
0.4204413 -0.70358545 1.99051 95
0.53737301 -0.89892757 1.9857829 85
0.66740763 -1.1164629 1.9830275 84
0.81851298 -1.3692468 1.9858838 40
0.062802903 -0.10813794 1.9960728 88
0.10938644 -0.19059519 2.0032918 93
0.27308044 -0.45913401 2.0928619 58
0.36323217 -0.61025566 1.9854547 38
0.47784337 -0.80219609 1.9936218 93
0.59879428 -1.0052594 1.9840788 87
0.73708713 -1.237437 1.9813027 87
0.9062171 -1.5213854 1.9980052 45
0.99007618 -1.6523178 1.9727067 75
1.2001075 -2.0028429 1.9643854 73
1.4707627 -2.4555099 1.9612085 63
1.8309851 -3.056926 1.9510094 64
1.8674657 -3.1190672 1.5571086 66
3.1609948 -5.2816324 1.8980402 6
3.7335122 -6.2382388 1.4717499 30
1.8790798 -3.1409526 0.42089561 21
1.0895028 -1.8240267 1.9728094 81
1.321269 -2.2129254 1.9602337 73
1.6364164 -2.7407568 1.9606682 69
1.8683177 -3.1303992 1.772712 75
1.880254 -3.1516485 1.365708 9
3.7344434 -6.2620964 1.8492292 35
nan nan nan 0
1.8616464 -3.1241753 0.24037993 85
0.015608311 -0.027189074 1.9991974 82
0.15962026 -0.27115911 2.0008237 95
0.21128747 -0.35705465 2.0180943 52
0.32350791 -0.54588866 2.0745351 39
0.41798282 -0.70504874 1.99051 95
0.5342319 -0.9007979 1.9857829 83
0.66350639 -1.1187859 1.9830275 82
0.81372851 -1.3720957 1.9858838 39
0.062425043 -0.10835651 1.9960728 88
0.10872047 -0.19097586 2.0032918 93
0.27147612 -0.46008444 2.0928619 62
0.36285454 -0.61449182 1.9948403 36
0.47393242 -0.80198443 1.9891212 93
0.59528172 -1.0073434 1.9840788 87
0.73276329 -1.2400024 1.9813027 87
0.90090102 -1.5245395 1.9980052 43
0.98430246 -1.6557636 1.9727067 75
1.193109 -2.0070198 1.9643854 73
1.4621825 -2.4606287 1.9612085 50
1.8203032 -3.0632987 1.9510094 64
1.8541993 -3.1215808 1.5552356 71
3.1474378 -5.3008842 1.9008586 5
3.6966665 -6.2258906 1.4661542 33
1.8553956 -3.1260798 0.41866457 29
1.083129 -1.8278188 1.9728094 81
1.3135365 -2.2175238 1.9602337 75
1.6268394 -2.7464521 1.9606682 69
1.855067 -3.1329966 1.7706139 76
1.8620251 -3.1460006 1.36078 7
3.7026615 -6.2583609 1.8445399 36
6.1962318 -10.47725 1.7877678 2
1.845645 -3.1220531 0.23997685 85
0.015513308 -0.027243391 1.9991974 80
0.15867276 -0.27171466 2.0008237 95
0.20797826 -0.35427752 1.9985133 67
0.32160044 -0.54701459 2.0745351 39
0.41551915 -0.70650345 1.99051 95
0.53108424 -0.90265721 1.9857829 83
0.65959698 -1.1210952 1.9830275 76
0.80893397 -1.3749279 1.9858838 39
0.062046427 -0.10857375 1.9960728 88
0.10805319 -0.1913542 2.0032918 93
0.26986849 -0.46102929 2.0928619 62
0.36419621 -0.62171078 2.0136113 33
0.47113004 -0.80363387 1.9891212 93
0.59176177 -1.0094153 1.9840788 87
0.72843033 -1.2425526 1.9813027 84
0.89557385 -1.527675 1.9980052 45
0.9803285 -1.6622614 1.9762113 77
1.1860958 -2.0111723 1.9643854 73
1.4535846 -2.4657178 1.9612085 40
1.8095994 -3.0696342 1.9510094 64
1.8409381 -3.1240404 1.5533626 71
3.1191757 -5.2953043 1.8952218 5
3.6749115 -6.2387562 1.4661542 33
1.8419455 -3.1282458 0.41821834 30
1.0767423 -1.8315885 1.9728094 81
1.3057878 -2.2220955 1.9602337 75
1.6172425 -2.7521141 1.9606682 65
1.841821 -3.1355398 1.7685159 75
1.8462499 -3.1443367 1.3574946 5
3.6783333 -6.267055 1.8433677 37
6.1470923 -10.47746 1.7843187 2
1.8322082 -3.1241672 0.23977533 85
0.015418117 -0.027297378 1.9991974 80
0.15772332 -0.27226686 2.0008237 95
0.20674032 -0.35500133 1.9985133 77
0.31968901 -0.54813385 2.0745351 39
0.41305047 -0.70794958 1.99051 93
0.52913779 -0.90657461 1.9901714 83
0.65567964 -1.1233908 1.9830275 76
0.80412966 -1.3777432 1.9858838 40
0.061667059 -0.10878967 1.9960728 88
0.10738458 -0.1917302 2.0032918 91
0.26825756 -0.46196848 2.0928619 62
0.36462486 -0.62745446 2.0276897 32
0.46832201 -0.80527353 1.9891212 93
0.58823466 -1.0114747 1.9840788 87
0.72408861 -1.2450879 1.9813027 84
0.8902359 -1.5307919 1.9980052 43
0.97452015 -1.6656731 1.9762113 77
1.1790684 -2.0153003 1.9643854 73
1.4449686 -2.4707768 1.9612085 40
1.7988732 -3.075932 1.9510094 64
1.8253425 -3.1224432 1.5496166 71
3.1079338 -5.3185854 1.8994493 9
3.6456764 -6.238822 1.4633564 25
1.8234793 -3.1217561 0.41687971 32
1.0703423 -1.8353359 1.9728094 81
1.2980235 -2.22664 1.9602337 75
1.607626 -2.7577426 1.9606682 59
1.8262945 -3.1341071 1.7643198 76
1.8305092 -3.1426003 1.3542092 4
3.6466517 -6.2630553 1.8386785 30
nan nan nan 0
1.816267 -3.1219072 0.23937225 85
0.015322737 -0.027351031 1.9991974 82
0.15677199 -0.27281576 2.0008237 95
0.20549987 -0.35572082 1.9985133 79
0.31777376 -0.54924643 2.0745351 39
0.41057676 -0.70938718 1.99051 95
0.52596992 -0.90841609 1.9901714 85
0.65175426 -1.1256726 1.9830275 80
0.79931551 -1.3805417 1.9858838 50
0.061428424 -0.10925692 2.0010643 88
0.10671466 -0.19210389 2.0032918 93
0.26664335 -0.46290207 2.0928619 56
0.3650178 -0.63320869 2.0417681 32
0.46550822 -0.8069033 1.9891212 92
0.58470035 -1.0135218 1.9840788 89
0.71973801 -1.2476077 1.9813027 87
0.88488698 -1.5338899 1.9980052 43
0.96869987 -1.6690649 1.9762113 77
1.1720265 -2.0194039 1.9643854 73
1.4363351 -2.4758055 1.9612085 50
1.7881253 -3.0821927 1.9510094 64
1.8121064 -3.1247852 1.5477434 69
3.0797257 -5.3128004 1.8938125 4
nan nan nan 0
1.8100743 -3.1237931 0.41643351 36
1.0639293 -1.8390608 1.9728094 79
1.290243 -2.2311573 1.9602337 73
1.5979899 -2.7633374 1.9606682 43
1.8130721 -3.1365335 1.7622217 77
1.8171657 -3.1448822 1.3525665 4
nan nan nan 0
1.8149154 -3.1435204 0.59783548 3
1.8028613 -3.1239011 0.23917073 84
0.015227171 -0.027404349 1.9991974 82
0.15581873 -0.27336133 2.0008237 96
0.20425694 -0.35643598 1.9985133 79
0.31585455 -0.55035233 2.0745351 39
0.40809801 -0.71081597 1.99051 95
0.5227958 -0.91024655 1.9901714 83
0.64782101 -1.1279409 1.9830275 78
0.79449165 -1.3833233 1.9858838 55
0.061046671 -0.10947067 2.0010643 88
0.10604344 -0.19247523 2.0032918 93
0.26502588 -0.46382999 2.0928619 56
0.36537495 -0.63897324 2.0558462 33
0.46268877 -0.80852342 1.9891212 92
0.581159 -1.0155567 1.9840788 89
0.7153787 -1.2501124 1.9813027 87
0.87952733 -1.5369694 1.9980052 45
0.96286792 -1.672436 1.9762113 77
1.1649704 -2.0234826 1.9643854 73
1.4276842 -2.4808042 1.9612085 67
1.7773556 -3.0884156 1.9510094 68
1.7965646 -3.1230547 1.5439974 71
1.7793721 -3.0944173 1.1384839 2
1.7875481 -3.1086359 0.77228487 3
1.7941957 -3.1214571 0.41554108 38
1.0575032 -1.8427635 1.9728094 81
1.2804357 -2.2321415 1.9572905 75
1.5883343 -2.7688987 1.9606682 37
1.7975972 -3.134969 1.7580256 76
1.8014802 -3.1430116 1.3492812 5
1.7857511 -3.1168303 0.95709562 9
1.7842426 -3.1154578 0.59231699 31
1.7894636 -3.1258392 0.23896921 84
0.015131419 -0.027457336 1.9991974 78
0.15486357 -0.27390358 2.0008237 96
0.20301148 -0.3571468 1.9985133 83
0.31393152 -0.5514515 2.0745351 39
0.40561435 -0.71223617 1.99051 95
0.51961529 -0.91206592 1.9901714 83
0.64387977 -1.1301953 1.9830275 80
0.78965813 -1.3860884 1.9858838 73
0.060664173 -0.1096831 2.0010643 89
0.10537094 -0.19284421 2.0032918 93
0.2634052 -0.46475229 2.0928619 55
0.36484495 -0.64324683 2.0652318 36
0.46093863 -0.81202739 1.9936218 93
0.57761049 -1.0175791 1.9840788 89
0.70952272 -1.2499808 1.9773132 89
0.87415695 -1.5400302 1.9980052 45
0.95702416 -1.6757869 1.9762113 75
1.1579 -2.0275366 1.9643854 73
1.419016 -2.4857726 1.9612085 69
1.7665641 -3.0946009 1.9510094 68
1.7833546 -3.1252804 1.5421244 72
1.7780671 -3.1172781 1.1441206 29
nan nan nan 0
1.7808223 -3.1233749 0.41509488 40
1.0510643 -1.8464437 1.9728094 81
1.2726364 -2.2365975 1.9572905 73
1.5786593 -2.774426 1.9606682 35
1.7821555 -3.1333344 1.7538295 74
1.7858299 -3.1410701 1.3459958 18
1.7820654 -3.1357226 0.9606126 32
1.7709107 -3.1173613 0.59162718 32
1.7760749 -3.1277225 0.23876768 84
0.015035482 -0.027509987 1.9991974 80
0.15390651 -0.27444246 2.0008237 96
0.20176357 -0.35785326 1.9985133 83
0.31273898 -0.55384445 2.0793068 39
0.4031257 -0.71364766 1.99051 95
0.51642841 -0.91387409 1.9901714 83
0.63993073 -1.1324359 1.9830275 82
0.78323781 -1.3860452 1.982047 74
0.060280938 -0.10989419 2.0010643 89
0.10469714 -0.19321084 2.0032918 93
0.26178128 -0.46566889 2.0928619 55
0.36344349 -0.64602053 2.0699246 38
0.45810133 -0.81363136 1.9936218 93
0.57405496 -1.0195891 1.9840788 87
0.70663387 -1.2550763 1.9813027 89
0.8687759 -1.5430721 1.9980052 43
0.95116872 -1.6791173 1.9762113 71
1.1508155 -2.0315664 1.9643854 73
1.4103304 -2.490711 1.9612085 67
1.7557513 -3.1007485 1.9510094 70
1.7678673 -3.1234176 1.5383784 70
1.767175 -3.1234655 1.1441206 30
1.7658024 -3.1210396 0.77228487 37
1.7674572 -3.1252372 0.41464868 77
1.0427765 -1.8468492 1.9694844 81
1.2648214 -2.2410264 1.9572905 73
1.5689652 -2.7799196 1.9606682 35
1.768977 -3.1355834 1.7517314 74
1.7678953 -3.1349442 1.3410677 68
1.7591745 -3.1207526 0.95475101 81
1.7551563 -3.1148951 0.59024757 85
1.7602426 -3.1251969 0.23836461 85
0.014939363 -0.027562302 1.9991974 80
0.1529476 -0.27497804 2.0008237 95
0.2005132 -0.35855538 1.9985133 83
0.3108038 -0.55493277 2.0793068 40
0.40063211 -0.71505058 1.99051 95
0.51323527 -0.91567117 1.9901714 83
0.63597393 -1.1346627 1.9830275 82
0.77839482 -1.3887708 1.982047 74
0.059896968 -0.11010394 2.0010643 89
0.10402207 -0.19357513 2.0032918 93
0.26015422 -0.46657985 2.0928619 55
0.36202705 -0.64879221 2.0746174 40
0.45525843 -0.81522548 1.9936218 92
0.57049239 -1.0215867 1.9840788 89
0.70224851 -1.2575352 1.9813027 89
0.86173141 -1.5431354 1.99433 45
0.94530171 -1.6824272 1.9762113 71
1.1437169 -2.0355709 1.9643854 73
1.4016275 -2.4956186 1.9612085 67
1.7449169 -3.106858 1.9510094 74
1.7546844 -3.1255269 1.5365053 70
1.7539135 -3.1254315 1.1427114 76
1.7452812 -3.110049 0.76855439 74
1.7541009 -3.1270444 0.41420248 80
1.0363234 -1.8504779 1.9694844 81
1.2550167 -2.2419004 1.9543474 73
1.5592519 -2.7853794 1.9606682 37
1.7535887 -3.1338179 1.7475352 74
1.752331 -3.1328533 1.3377824 79
1.7482703 -3.1268742 0.95475101 80
1.7418565 -3.1166797 0.58955777 85
1.7468864 -3.126961 0.23816308 85
0.014843062 -0.027614284 1.9991974 80
0.15198681 -0.27551025 2.0008237 95
0.1992604 -0.35925311 1.9985133 80
0.30886483 -0.5560143 2.0793068 40
0.39813372 -0.71644467 1.99051 93
0.51003587 -0.91745716 1.9901714 83
0.63200933 -1.1368757 1.9830275 82
0.7735424 -1.3914794 1.982047 76
0.059512269 -0.11031234 2.0010643 89
0.10334574 -0.19393705 2.0032918 93
0.25852397 -0.4674851 2.0928619 55
0.35976014 -0.65005189 2.0746174 40
0.45135492 -0.81490469 1.9891212 92
0.5669229 -1.0235718 1.9840788 89
0.6978547 -1.2599789 1.9813027 89
0.85633963 -1.5461341 1.99433 50
0.93942314 -1.6857167 1.9762113 75
1.1366045 -2.0395508 1.9643854 73
1.3929076 -2.5004959 1.9612085 67
1.7340612 -3.1129303 1.9510094 75
1.7392528 -3.1235323 1.5327592 70
1.7383267 -3.1231513 1.1398931 76
1.7344145 -3.1161222 0.76855439 74
1.7383325 -3.1244445 0.41331002 65
1.0298576 -1.854084 1.9694844 81
1.2471832 -2.2462676 1.9543474 73
1.5495195 -2.7908053 1.9606682 41
1.7404367 -3.135952 1.7454373 75
1.7368028 -3.1306918 1.334497 79
1.7326305 -3.1244564 0.95240635 80
1.7285658 -3.1184101 0.58886796 86
1.731118 -3.1243 0.23776001 86
0.01474658 -0.027665924 1.9991974 80
0.15102418 -0.27603912 2.0008237 95
0.19800514 -0.35994649 1.9985133 80
0.30692211 -0.55708903 2.0793068 40
0.39563042 -0.71783 1.99051 90
0.50683016 -0.91923189 1.9901714 83
0.62803704 -1.139075 1.9830275 82
0.76868051 -1.3941711 1.982047 76
0.058990683 -0.11026385 1.9960728 89
0.10266814 -0.19429661 2.0032918 93
0.25689057 -0.46838468 2.0928619 53
0.35748884 -0.65130371 2.0746174 39
0.44850761 -0.81647527 1.9891212 92
0.56334651 -1.0255446 1.9840788 89
0.6934523 -1.2624072 1.9813027 87
0.84930515 -1.5461425 1.9906548 59
0.93353319 -1.6889856 1.9762113 77
1.1294782 -2.0435059 1.9643854 73
1.3841709 -2.505343 1.9612085 67
1.7210422 -3.1150863 1.9486914 75
1.7260978 -3.1255262 1.5308862 70
1.725096 -3.1250005 1.1384839 76
1.7211525 -3.117857 0.76762176 74
1.7250093 -3.126133 0.41286382 65
1.0251815 -1.8609387 1.9728094 81
1.2393348 -2.2506075 1.9543474 73
1.5397685 -2.7961969 1.9606682 57
1.7272909 -3.1380317 1.7433392 74
1.7235876 -3.1325979 1.3328543 80
1.7193711 -3.1262264 0.95123404 80
1.7128985 -3.1157451 0.58748829 87
1.7177955 -3.1259451 0.23755848 88
0.014649917 -0.027717233 1.9991974 82
0.1500597 -0.27656463 2.0008237 95
0.19674751 -0.36063546 1.9985133 85
0.30425957 -0.55684638 2.0745351 40
0.39312235 -0.71920669 1.99051 81
0.50246906 -0.91889358 1.9857829 83
0.62405711 -1.1412604 1.9830275 82
0.76380926 -1.3968458 1.982047 76
0.058605433 -0.1104691 1.9960728 89
0.10198928 -0.19465381 2.0032918 91
0.25525403 -0.46927854 2.0928619 53
0.35521322 -0.65254766 2.0746174 39
0.44565487 -0.81803584 1.9891212 92
0.55976331 -1.0275048 1.9840788 87
0.68904144 -1.2648201 1.9813027 87
0.84390295 -1.5490975 1.9906548 68
0.92763191 -1.692234 1.9762113 77
1.1223382 -2.047436 1.9643854 73
1.3754171 -2.5101593 1.9612085 61
1.710158 -3.1210749 1.9486914 74
1.7129502 -3.1274664 1.5290132 69
1.7095695 -3.1225872 1.1356654 75
1.7102586 -3.1238458 0.76762176 76
1.7116958 -3.1277668 0.41241762 68
1.0186794 -1.864506 1.9728094 81
1.2314711 -2.2549198 1.9543474 75
1.5299985 -2.8015547 1.9606682 61
1.7119772 -3.1360748 1.7391431 74
1.7081182 -3.1303046 1.329569 80
1.7061207 -3.1279418 0.95006174 79
1.6996416 -3.1173575 0.58679849 86
1.7020919 -3.1231487 0.23715541 88
0.014553077 -0.027768202 1.9991974 82
0.14909339 -0.2770867 2.0008237 95
0.19548745 -0.36132002 1.9985133 83
0.30231395 -0.55790508 2.0745351 42
0.39060941 -0.72057456 1.99051 68
0.49925846 -0.9206419 1.9857829 83
0.62006956 -1.1434318 1.9830275 82
0.75892872 -1.3995035 1.982047 74
0.058219463 -0.110673 1.9960728 88
0.1013092 -0.19500864 2.0032918 93
0.25421146 -0.47127372 2.0977008 55
0.35293323 -0.65378362 2.0746174 38
0.44279668 -0.81958646 1.9891212 93
0.55617321 -1.0294524 1.9840788 87
0.68462217 -1.2672176 1.9813027 87
0.83849043 -1.5520339 1.9906548 68
0.92171925 -1.6954619 1.9762113 75
1.1151844 -2.0513413 1.9643854 73
1.3646501 -2.511271 1.9584669 61
1.6971377 -3.1231329 1.9463733 73
1.6975974 -3.1252792 1.5252671 69
1.6963702 -3.1243196 1.1342562 75
1.6970003 -3.1254799 0.76668912 76
1.6983922 -3.1293459 0.41197142 68
1.0121648 -1.8680505 1.9728094 81
1.2255175 -2.262759 1.9572905 73
1.5202099 -2.8068783 1.9606682 65
1.6988592 -3.1380408 1.737045 74
1.6949333 -3.1320944 1.3279263 80
1.6928791 -3.1296031 0.94888943 77
1.6863941 -3.1189151 0.58610862 79
1.6888044 -3.1246762 0.23695388 85
0.01445606 -0.027818833 1.9991974 80
0.14812528 -0.27760544 2.0008237 95
0.19422501 -0.3620002 1.9985133 83
0.30036467 -0.55895692 2.0745351 42
0.38809177 -0.72193366 1.99051 40
0.49604177 -0.92237902 1.9857829 83
0.6160745 -1.1455892 1.9830275 82
0.75403893 -1.4021441 1.982047 76
0.057832785 -0.11087555 1.9960728 88
0.10062788 -0.19536108 2.0032918 93
0.25256485 -0.47215819 2.0977008 55
0.35064891 -0.65501159 2.0746174 38
0.43993306 -0.82112718 1.9891212 93
0.55257636 -1.0313877 1.9840788 89
0.68019462 -1.2695997 1.9813027 87
0.83146679 -1.5519631 1.9869798 50
0.91579527 -1.6986688 1.9762113 73
1.1080171 -2.0552216 1.9643854 71
1.3558757 -2.5160191 1.9584669 67
1.6862255 -3.1290379 1.9463733 60
1.6844791 -3.1271043 1.523394 71
1.6831795 -3.1259983 1.1328471 76
1.6837509 -3.1270595 0.76575649 76
1.6827378 -3.1264849 0.41107899 53
1.0056379 -1.8715721 1.9728094 81
1.2176114 -2.2670231 1.9572905 75
1.5104028 -2.8121679 1.9606682 69
1.6836016 -3.1359541 1.732849 74
1.681757 -3.1338305 1.3262836 80
1.6796467 -3.1312101 0.94771707 77
1.6731566 -3.1204185 0.58541888 78
1.6755267 -3.1261487 0.23675236 85
0.014358865 -0.027869124 1.9991974 80
0.14715536 -0.27812082 2.0008237 95
0.1929602 -0.36267596 1.9985133 85
0.29841173 -0.56000197 2.0745351 45
0.38556939 -0.72328395 1.99051 39
0.49281904 -0.92410493 1.9857829 85
0.61207181 -1.1477327 1.9830275 82
0.7491399 -1.4047676 1.982047 74
0.057445407 -0.11107674 1.9960728 89
0.099945329 -0.19571115 2.0032918 93
0.25091517 -0.47303694 2.0977008 55
0.34836039 -0.65623152 2.0746174 39
0.43706414 -0.82265782 1.9891212 92
0.54897279 -1.0333102 1.9840788 89
0.67575872 -1.2719662 1.9813027 87
0.82604432 -1.5548561 1.9869798 38
0.90986031 -1.7018551 1.9762113 75
1.1026716 -2.0625095 1.9675231 73
1.3470849 -2.5207367 1.9584669 66
1.6732049 -3.1309977 1.9440553 60
1.6713691 -3.1288757 1.5215211 71
1.669998 -3.1276228 1.1314379 75
1.6681978 -3.1242514 0.76389128 77
1.6694692 -3.1279461 0.41063279 52
0.99909878 -1.8750712 1.9728094 81
1.2096907 -2.2712595 1.9572905 75
1.5026039 -2.821228 1.9632006 70
1.670512 -3.1378057 1.7307509 74
1.668589 -3.1355128 1.3246409 80
1.666424 -3.1327629 0.94654483 77
1.6576045 -3.1174948 0.58403921 78
1.659915 -3.1231551 0.23634928 83
0.014261497 -0.027919076 1.9991974 82
0.14618364 -0.27863282 2.0008237 95
0.19169307 -0.36334732 1.9985133 85
0.29645512 -0.56104022 2.0745351 42
0.38304231 -0.72462541 1.99051 39
0.48959032 -0.92581952 1.9857829 85
0.60806179 -1.1498623 1.9830275 82
0.74423182 -1.4073741 1.982047 74
0.057057329 -0.11127659 1.9960728 88
0.09926156 -0.19605882 2.0032918 93
0.24926242 -0.47390994 2.0977008 55
0.34526387 -0.65591663 2.0699246 39
0.43520483 -0.82610512 1.9936218 92
0.54536253 -1.0352201 1.9840788 87
0.6713146 -1.2743173 1.9813027 87
0.82061189 -1.5577298 1.9869798 38
0.90391415 -1.7050208 1.9762113 75
1.0954654 -2.0663462 1.9675231 73
1.3382778 -2.5254235 1.9584669 67
1.6601912 -3.1329048 1.9417373 67
1.6560971 -3.126498 1.5177749 68
1.6568257 -3.1291935 1.1300287 74
1.6549834 -3.1257141 0.76295865 76
1.6562108 -3.129353 0.41018659 61
0.99254745 -1.8785472 1.9728094 81
1.2017552 -2.2754683 1.9572905 75
1.4927468 -2.8264561 1.9632006 69
1.6553112 -3.1355908 1.7265548 74
1.6554301 -3.1371419 1.3229982 78
1.6509432 -3.1299622 0.94420016 77
1.6444026 -3.1188812 0.58334941 79
1.6466738 -3.1245105 0.23614776 84
0.014163954 -0.02796869 1.9991974 82
0.14485171 -0.27845201 1.9958843 95
0.19042358 -0.36401424 1.9985133 85
0.29449493 -0.56207168 2.0745351 42
0.38051054 -0.72595805 1.99051 39
0.4863556 -0.9275229 1.9857829 85
0.60404432 -1.1519778 1.9830275 82
0.73931462 -1.4099634 1.982047 76
0.05666855 -0.11147508 1.9960728 88
0.098576583 -0.19640413 2.0032918 93
0.24760668 -0.4747771 2.0977008 56
0.34297219 -0.65711778 2.0699246 39
0.43231851 -0.82761919 1.9936218 95
0.54174554 -1.0371175 1.9840788 87
0.66686231 -1.2766528 1.9813027 89
0.81516933 -1.5605849 1.9869798 42
0.89795703 -1.7081656 1.9762113 75
1.0882459 -2.0701571 1.9675231 73
1.3294542 -2.5300796 1.9584669 67
1.6471844 -3.1347589 1.9394193 68
1.6430178 -3.1281555 1.5159019 68
1.6436626 -3.1307101 1.1286194 75
1.6417791 -3.1271224 0.76202601 76
1.6406491 -3.1262958 0.40929416 64
0.98598409 -1.8820004 1.9728094 81
1.193805 -2.2796495 1.9572905 73
1.4828715 -2.8316495 1.9632006 51
1.642251 -3.1373289 1.7244568 75
1.6400906 -3.1345329 1.3197129 78
1.6377547 -3.1313989 0.94302785 79
1.6312113 -3.120214 0.5826596 80
1.6334434 -3.1258118 0.23594624 85
0.014066239 -0.02801796 1.9991974 80
0.14387886 -0.27895594 1.9958843 95
0.18915176 -0.36467674 1.9985133 85
0.29253113 -0.56309623 2.0745351 44
0.37797418 -0.72728187 1.99051 39
0.48422006 -0.93134046 1.9901714 83
0.60001945 -1.1540793 1.9830275 80
0.73438841 -1.4125355 1.982047 76
0.056279086 -0.11167221 1.9960728 88
0.097890399 -0.19674703 2.0032918 93
0.24594787 -0.47563854 2.0977008 56
0.34067631 -0.65831101 2.0699246 39
0.42942694 -0.8291232 1.9936218 93
0.53812206 -1.0390022 1.9840788 85
0.66240185 -1.2789727 1.9813027 89
0.80971688 -1.5634208 1.9869798 54
0.89198899 -1.7112898 1.9762113 77
1.0792137 -2.0704913 1.9643854 75
1.3206146 -2.5347049 1.9584669 67
1.634185 -3.1365604 1.9371012 70
1.6278058 -3.125648 1.5121559 70
1.628294 -3.1279178 1.1258011 76
1.6285852 -3.1284771 0.76109338 76
1.6274273 -3.1275856 0.40884793 63
0.97940862 -1.8854307 1.9728094 81
1.1858402 -2.2838025 1.9572905 73
1.4729782 -2.8368082 1.9632006 37
1.6271083 -3.1349859 1.7202606 75
1.6269643 -3.1360464 1.3180702 77
1.6245766 -3.1327817 0.94185555 79
1.6180307 -3.1214919 0.58196974 81
1.6202239 -3.1270587 0.23574471 86
0.013968352 -0.028066888 1.9991974 80
0.14290425 -0.27945647 1.9958843 95
0.18787767 -0.36533478 1.9985133 85
0.29056379 -0.56411386 2.0745351 45
0.37543321 -0.72859675 1.99051 38
0.48096612 -0.93302506 1.9901714 83
0.59598738 -1.1561667 1.9830275 76
0.72945327 -1.4150903 1.982047 76
0.055888932 -0.11186798 1.9960728 88
0.097203031 -0.19708753 2.0032918 91
0.24428609 -0.47649416 2.0977008 55
0.33837631 -0.65949613 2.0699246 39
0.42553544 -0.82867998 1.9891212 93
0.53449202 -1.0408742 1.9840788 85
0.65793347 -1.2812772 1.9813027 87
0.802706 -1.5632219 1.9833045 69
0.88600999 -1.7143929 1.9762113 77
1.0719798 -2.0742462 1.9643854 75
1.3117586 -2.5392992 1.9584669 67
1.6191597 -3.1343739 1.9324652 70
1.6147585 -3.127192 1.5102829 70
1.6151654 -3.1293199 1.1243919 76
1.6131488 -3.1254129 0.75922811 76
1.6119336 -3.1243963 0.40795553 63
0.9728213 -1.8888379 1.9728094 81
1.1760108 -2.2843342 1.9543474 73
1.4630669 -2.8419325 1.9632006 37
1.6140785 -3.1366105 1.7181625 75
1.6116873 -3.1333077 1.3147848 78
1.6091862 -3.1297879 0.93951088 77
1.6025976 -3.1183119 0.58059013 82
1.6070156 -3.1282513 0.23554316 85
0.013870295 -0.028115477 1.9991974 80
0.14227906 -0.28064668 2.0008237 96
0.18706366 -0.3668955 2.0034087 87
0.28927207 -0.56645477 2.0793068 45
0.37288764 -0.72990286 1.99051 38
0.47770634 -0.93469828 1.9901714 83
0.59194791 -1.1582401 1.9830275 78
0.72450924 -1.4176279 1.982047 76
0.055626173 -0.11232209 2.0010643 88
0.096514471 -0.19742563 2.0032918 89
0.24262132 -0.47734398 2.0977008 55
0.33607215 -0.66067332 2.0699246 39
0.4226402 -0.83016038 1.9891212 93
0.53085542 -1.0427337 1.9840788 87
0.65345693 -1.2835661 1.9813027 87
0.79724443 -1.5660145 1.9833045 80
0.8800202 -1.7174752 1.9762113 77
1.0647328 -2.0779755 1.9643854 73
1.3028868 -2.5438628 1.9584669 66
1.6061894 -3.1360633 1.9301471 75
1.5996075 -3.1245563 1.5065368 72
1.6020467 -3.1306679 1.1229826 77
1.5999916 -3.1266518 0.75829554 77
1.5987498 -3.1255701 0.40750933 85
0.96622217 -1.8922222 1.9728094 79
1.1680299 -2.2884254 1.9543474 73
1.4550979 -2.8508625 1.9657331 38
1.6010574 -3.1381834 1.7160646 75
1.5985947 -3.1347075 1.3131421 78
1.5960438 -3.1310554 0.93833858 77
1.5894547 -3.1194746 0.57990032 82
1.5938189 -3.12939 0.23534164 84
0.013772069 -0.028163722 1.9991974 80
0.14129856 -0.28114164 2.0008237 96
0.18578182 -0.36754623 2.0034087 93
0.28729302 -0.56746107 2.0793068 44
0.37033752 -0.73120004 1.99051 38
0.47444072 -0.93636006 1.9901714 83
0.58790129 -1.1602993 1.9830275 82
0.71955633 -1.4201484 1.982047 73
0.055233758 -0.11251558 2.0010643 88
0.095824741 -0.19776133 2.0032918 89
0.24095359 -0.47818798 2.0977008 55
0.33376396 -0.66184235 2.0699246 39
0.41973981 -0.83163053 1.9891212 93
0.52721238 -1.0445803 1.9840788 87
0.64897245 -1.2858392 1.9813027 87
0.7917732 -1.5687877 1.9833045 80
0.87401974 -1.7205366 1.9762113 75
1.0574728 -2.0816793 1.9643854 73
1.2939993 -2.5483952 1.9584669 67
1.5912211 -3.1337507 1.925511 75
1.5865927 -3.1259871 1.5046637 71
1.5889385 -3.1319633 1.1215736 77
1.5846227 -3.1234565 0.75643033 79
1.583325 -3.1222486 0.4066169 85
0.95961112 -1.8955834 1.9728094 81
1.1600348 -2.2924886 1.9543474 75
1.4451376 -2.8559241 1.9657331 40
1.5859964 -3.1356528 1.7118685 76
1.585512 -3.1360538 1.3114994 80
1.5807202 -3.1279314 0.93599391 81
1.5763233 -3.1205835 0.57921052 87
1.5806338 -3.1304748 0.23514012 83
0.013673676 -0.028211623 1.9991974 82
0.14031634 -0.28163311 2.0008237 96
0.18449771 -0.36819249 2.0034087 93
0.28531045 -0.56846046 2.0793068 44
0.36953607 -0.73598021 1.999715 37
0.47116932 -0.93801051 1.9901714 83
0.58384752 -1.1623445 1.9830275 82
0.71459472 -1.4226515 1.982047 74
0.054840665 -0.11270769 2.0010643 88
0.095133841 -0.19809461 2.0032918 91
0.23928295 -0.47902614 2.0977008 55
0.33145162 -0.66300339 2.0699246 40
0.41683432 -0.83309072 1.9891212 93
0.52356291 -1.0464143 1.9840788 87
0.64448011 -1.2880968 1.9813027 89
0.78629231 -1.571542 1.9833045 78
0.86800867 -1.723577 1.9762113 75
1.0502 -2.0853577 1.9643854 73
1.2850958 -2.5528965 1.9584669 66
1.5782807 -3.135329 1.9231931 76
1.5735877 -3.1273651 1.5027907 73
1.5758407 -3.1332047 1.1201643 78
1.569296 -3.1201921 0.75456506 81
1.5701797 -3.1233068 0.40617067 88
0.95298845 -1.8989216 1.9728094 81
1.1520255 -2.296524 1.9543474 73
1.4370928 -2.864805 1.9682654 48
1.573007 -3.1371126 1.7097703 76
1.5703236 -3.1331255 1.3082141 80
1.5654377 -3.1247385 0.9336493 92
1.5632033 -3.121639 0.57852072 88
1.5674607 -3.1315055 0.23493859 84
0.013575116 -0.02825918 1.9991974 77
0.13933238 -0.28212121 2.0008237 96
0.18366425 -0.36974624 2.0083039 95
0.28332442 -0.56945294 2.0793068 40
0.36957631 -0.7425127 2.0135226 34
0.4678922 -0.9396494 1.9901714 85
0.57978666 -1.1643753 1.9830275 84
0.70962441 -1.4251372 1.982047 76
0.05444691 -0.11289844 2.0010643 86
0.094441779 -0.19842547 2.0032918 91
0.23760937 -0.47985849 2.0977008 55
0.32913533 -0.66415632 2.0699246 40
0.41392377 -0.83454067 1.9891212 93
0.51990706 -1.0482355 1.9840788 87
0.63997984 -1.2903386 1.9813027 89
0.78080183 -1.5742772 1.9833045 76
0.86198699 -1.7265964 1.9762113 73
1.0429144 -2.089011 1.9643854 73
1.2761766 -2.5573668 1.9584669 67
1.5653486 -3.1368549 1.920875 75
1.5605923 -3.12869 1.5009177 73
1.5627537 -3.134393 1.1187551 77
1.5562029 -3.1212544 0.75363243 83
1.5570465 -3.1243117 0.4057245 88
0.94635415 -1.9022366 1.9728094 81
1.144002 -2.3005311 1.9543474 73
1.427084 -2.8698039 1.9682654 48
1.5600266 -3.1385205 1.7076724 76
1.5572761 -3.1343591 1.3065712 77
1.5523589 -3.1258304 0.93247694 85
1.5500953 -3.1226406 0.57783085 88
1.552079 -3.1280074 0.23453552 84
0.01347639 -0.028306395 1.9991974 77
0.13834675 -0.28260586 2.0008237 96
0.18237248 -0.37038508 2.0083039 95
0.28133494 -0.57043844 2.0793068 40
0.36957532 -0.74905425 2.0273302 30
0.46460932 -0.94127697 1.9901714 83
0.57571864 -1.166392 1.9830275 84
0.7046454 -1.4276056 1.982047 76
0.054052487 -0.1130878 2.0010643 86
0.093748569 -0.19875392 2.0032918 91
0.23593292 -0.48068497 2.0977008 58
0.32681498 -0.6653012 2.0699246 39
0.41100818 -0.83598042 1.9891212 93
0.51624489 -1.0500439 1.9840788 87
0.63547182 -1.2925646 1.9813027 87
0.77530175 -1.576993 1.9833045 71
0.85595471 -1.7295948 1.9762113 67
1.0356159 -2.0926387 1.9643854 73
1.267242 -2.561806 1.9584669 67
1.5504608 -3.1343579 1.9162389 74
1.5476068 -3.1299629 1.4990447 73
1.547552 -3.1312273 1.1159368 77
1.5409453 -3.1178598 0.75176716 83
1.5439255 -3.1252627 0.40527827 88
0.93970835 -1.9055284 1.9728094 81
1.1359646 -2.3045106 1.9543474 73
1.4189641 -2.8786349 1.9707979 51
1.547056 -3.1398754 1.7055743 78
1.5442392 -3.1355393 1.3049287 78
1.5371445 -3.1225085 0.93013233 85
1.5369995 -3.1235893 0.57714105 88
1.5389456 -3.1289232 0.23433399 85
0.013377501 -0.028353265 1.9991974 80
0.13735943 -0.28308704 2.0008237 95
0.18107848 -0.37101942 2.0083039 95
0.27934203 -0.57141703 2.0793068 40
0.37039143 -0.75735992 2.0457404 28
0.46132085 -0.94289303 1.9901714 83
0.57164365 -1.1683947 1.9830275 84
0.69965786 -1.4300566 1.982047 76
0.053657413 -0.1132758 2.0010643 89
0.09305422 -0.19907996 2.0032918 93
0.23370339 -0.48037454 2.0928619 53
0.32449064 -0.66643798 2.0699246 39
0.40808752 -0.83740997 1.9891212 93
0.51257634 -1.0518396 1.9840788 87
0.63095599 -1.294775 1.9813027 87
0.77127743 -1.5827373 1.9869798 64
0.84991217 -1.7325722 1.9762113 67
1.0283051 -2.096241 1.9643854 73
1.2582918 -2.5662138 1.9584669 66
1.53756 -3.1357734 1.913921 72
1.5346315 -3.1311834 1.4971716 74
1.5345019 -3.1323018 1.1145275 77
1.5278915 -3.1188085 0.75083458 85
1.5308167 -3.1261604 0.40483207 79
0.93305111 -1.908797 1.9728094 79
1.1279135 -2.3084617 1.9543474 73
1.4089072 -2.8835707 1.9707979 50
1.5340946 -3.1411781 1.7034762 78
1.5291414 -3.1324227 1.3016433 81
1.5241041 -3.1234868 0.92896003 85
1.5239158 -3.1244845 0.57645124 86
1.5258251 -3.1297853 0.23413247 85
0.013278447 -0.028399788 1.9991974 82
0.13637042 -0.28356481 2.0008237 95
0.17978227 -0.37164927 2.0083039 95
0.27734569 -0.57238859 2.0793068 40
0.37030193 -0.76392227 2.0595479 28
0.45802671 -0.94449759 1.9901714 83
0.56756175 -1.170383 1.9830275 84
0.69466174 -1.4324901 1.982047 76
0.053261675 -0.1134624 2.0010643 89
0.092134945 -0.1989188 1.9983203 93
0.23202515 -0.4811874 2.0928619 53
0.32216239 -0.66756654 2.0699246 39
0.40516195 -0.83882934 1.9891212 93
0.5089016 -1.0536224 1.9840788 87
0.62643266 -1.2969695 1.9813027 87
0.76574796 -1.58542 1.9869798 55
0.8438592 -1.7355283 1.9762113 69
1.0209814 -2.0998178 1.9643854 71
1.2493266 -2.5705905 1.9584669 66
1.5246682 -3.1371367 1.9116029 70
1.5216666 -3.1323512 1.4952986 73
1.5214634 -3.1333241 1.1131183 77
1.5148498 -3.119704 0.74990195 83
1.5177205 -3.1270049 0.40438583 79
0.92638248 -1.9120421 1.9728094 81
1.1198486 -2.3123848 1.9543474 73
1.400712 -2.8923512 1.9733303 50
1.5211431 -3.1424294 1.7013782 77
1.5161409 -3.1334903 1.3000005 78
1.5110756 -3.1244121 0.92778766 84
1.5108446 -3.1253262 0.57576144 86
1.5127171 -3.1305943 0.23393092 85
0.013179232 -0.028445967 1.9991974 80
0.13537978 -0.28403911 2.0008237 96
0.17848389 -0.37227452 2.0083039 91
0.27534598 -0.57335323 2.0793068 40
0.37017101 -0.77049315 2.0733554 32
0.45472699 -0.94609064 1.9901714 83
0.56347287 -1.172357 1.9830275 80
0.68965721 -1.4349062 1.982047 76
0.052865297 -0.11364763 2.0010643 89
0.091440029 -0.19923921 1.9983203 93
0.23034407 -0.48199436 2.0928619 53
0.31983015 -0.66868705 2.0699246 39
0.4022314 -0.84023851 1.9891212 93
0.50522071 -1.0553924 1.9840788 87
0.62190151 -1.2991483 1.9813027 87
0.76020914 -1.5880833 1.9869798 50
0.83779591 -1.7384634 1.9762113 58
1.0136455 -2.1033688 1.9643854 71
1.2403458 -2.5749357 1.9584669 67
1.5117857 -3.1384485 1.9092849 70
1.5067012 -3.1292901 1.4915526 74
1.506356 -3.1299706 1.1102999 78
1.5018206 -3.1205468 0.74896938 83
1.5046372 -3.1277957 0.40393963 81
0.91970253 -1.9152642 1.9728094 81
1.11177 -2.3162796 1.9543474 73
1.3906074 -2.8972228 1.9733303 54
1.5082012 -3.1436274 1.69928 79
1.503152 -3.1345055 1.298358 78
1.4980592 -3.1252844 0.92661542 83
1.4977863 -3.1261148 0.57507163 86
1.4996223 -3.1313496 0.23372939 85
0.013079857 -0.028491795 1.9991974 82
0.13438746 -0.28450993 2.0008237 96
0.17718333 -0.3728953 2.0083039 91
0.27334291 -0.57431084 2.0793068 40
0.36831912 -0.77354461 2.0779581 35
0.4514218 -0.94767219 1.9901714 83
0.55937713 -1.1743166 1.9830275 80
0.68464434 -1.4373049 1.982047 76
0.052347496 -0.1135683 1.9960728 89
0.090743996 -0.1995572 1.9983203 93
0.22866018 -0.48279548 2.0928619 53
0.31749406 -0.66979939 2.0699246 39
0.39929599 -0.84163749 1.9891212 86
0.50153363 -1.0571495 1.9840788 87
0.61736286 -1.3013111 1.9813027 87
0.75466102 -1.5907272 1.9869798 49
0.83172244 -1.7413771 1.9762113 46
1.0062972 -2.106894 1.9643854 71
1.2313502 -2.5792496 1.9584669 59
1.4989126 -3.1397085 1.9069668 70
1.4937723 -3.1303461 1.4896795 73
1.4933558 -3.1308794 1.1088908 78
1.4909186 -3.1257699 0.74896938 83
1.4937099 -3.133029 0.40393963 80
0.91301143 -1.9184629 1.9728094 79
1.1054143 -2.3237965 1.9572905 73
1.3804857 -2.9020593 1.9733303 52
1.49527 -3.1447744 1.6971821 79
1.4901741 -3.135468 1.2967153 80
1.4850551 -3.1261044 0.92544305 83
1.4847409 -3.1268506 0.57438183 87
1.4865406 -3.1320517 0.23352787 84
0.012980323 -0.028537279 1.9991974 82
0.13339354 -0.28497729 2.0008237 96
0.1758806 -0.37351149 2.0083039 95
0.27133656 -0.57526153 2.0793068 39
0.36645034 -0.77659237 2.0825605 38
0.448111 -0.94924217 1.9901714 83
0.55527461 -1.1762621 1.9830275 80
0.67825431 -1.4367867 1.97821 76
0.051950749 -0.11375033 1.9960728 89
0.09004686 -0.19987273 1.9983203 93
0.22643916 -0.48245203 2.0880225 51
0.31515408 -0.67090356 2.0699246 39
0.39635566 -0.84302616 1.9891212 80
0.4978404 -1.0588938 1.9840788 87
0.61281669 -1.3034583 1.9813027 89
0.74766135 -1.5902838 1.9833045 45
0.82563883 -1.7442698 1.9762113 44
0.99893665 -2.110394 1.9643854 71
1.2223394 -2.5835321 1.9584669 59
1.4860493 -3.1409168 1.9046489 70
1.4808543 -3.1313505 1.4878064 73
1.4783176 -3.127399 1.1060723 76
1.4778993 -3.126514 0.74803668 83
1.4806368 -3.1337209 0.40349343 80
0.90630919 -1.9216383 1.9728094 81
1.097296 -2.3276412 1.9572905 73
1.3703473 -2.9068604 1.9733303 54
1.482349 -3.1458693 1.695084 79
1.4751958 -3.1321058 1.2934299 78
1.4720637 -3.1268716 0.92427075 81
1.4717085 -3.1275337 0.57369196 86
1.4734722 -3.1327004 0.23332632 85
0.01288063 -0.028582416 1.9991974 80
0.13239795 -0.28544119 2.0008237 96
0.17457573 -0.37412316 2.0083039 95
0.26932687 -0.57620519 2.0793068 39
0.36456487 -0.77963656 2.087163 38
0.44479486 -0.95080054 1.9901714 83
0.55116534 -1.1781932 1.9830275 82
0.67323494 -1.4391454 1.97821 76
0.051553376 -0.11393098 1.9960728 89
0.089565627 -0.20067367 2.0032918 93
0.2226322 -0.47867745 2.0686657 45
0.31281027 -0.67199957 2.0699246 39
0.3943302 -0.84637845 1.9936218 62
0.49414113 -1.0606251 1.9840788 87
0.60826302 -1.3055894 1.9813027 87
0.74210566 -1.5928838 1.9833045 45
0.81954509 -1.7471412 1.9762113 44
0.99156392 -2.1138682 1.9643854 73
1.2133137 -2.5877833 1.9584669 67
1.4731956 -3.1420739 1.9023308 64
1.4679475 -3.1323028 1.4859334 73
1.4653568 -3.1281958 1.1046631 76
1.4648929 -3.1272054 0.74710411 84
1.4675776 -3.1343603 0.40304723 80
0.89959592 -1.9247901 1.9728094 79
1.0891644 -2.3314571 1.9572905 75
1.3601919 -2.9116263 1.9733303 55
1.4694388 -3.1469121 1.692986 78
1.4622566 -3.1329572 1.2917871 80
1.4590849 -3.1275859 0.92309844 81
1.4586896 -3.1281636 0.57300216 87
1.4604175 -3.133297 0.23312479 85
0.01278078 -0.028627204 1.9991974 80
0.13140078 -0.28590161 2.0008237 96
0.17326874 -0.37473026 2.0083039 95
0.2673139 -0.57714182 2.0793068 44
0.3618412 -0.78090441 2.087163 37
0.44147319 -0.9523474 1.9901714 83
0.54704928 -1.18011 1.9830275 82
0.66820723 -1.4414867 1.97821 76
0.051155362 -0.11411023 1.9960728 89
0.088864595 -0.20098509 2.0032918 95
0.21832794 -0.4737398 2.0444696 47
0.31046265 -0.67308736 2.0699246 39
0.39137337 -0.84774977 1.9936218 37
0.4904359 -1.0623435 1.9840788 87
0.60370201 -1.3077048 1.9813027 87
0.73654103 -1.5954646 1.9833045 47
0.81344151 -1.7499913 1.9762113 56
0.98417908 -2.1173162 1.9643854 73
1.2042732 -2.5920029 1.9584669 67
1.4603521 -3.1431794 1.9000129 64
1.455052 -3.1332028 1.4840603 71
1.4524088 -3.1289406 1.103254 76
1.4518999 -3.1278441 0.74617147 84
1.4545316 -3.1349463 0.402601 83
0.89287168 -1.9279187 1.9728094 81
1.0810194 -2.3352449 1.9572905 73
1.3500203 -2.9163563 1.9733303 57
1.4546332 -3.1437843 1.6887898 78
