# .PCD v0.7 - Point Cloud Data file format
VERSION 0.7
FIELDS x y z intensity
SIZE 4 4 4 4
TYPE F F F F
COUNT 1 1 1 1
WIDTH 1440
HEIGHT 1
VIEWPOINT 0 0 0 1 0 0 0
POINTS 1440
DATA ascii
0.81559217 2.0505488 2.0459561 35
0.98883438 2.4848459 2.0308697 69
1.2328761 3.098089 2.0442383 65
1.5785185 3.9646361 2.0601451 56
2.1096117 5.2958469 2.0720625 45
3.0719082 7.7076244 2.0918989 29
3.9161093 9.820796 1.5649573 19
1.5512756 3.8883109 0.2625483 1
0.012071615 0.028886113 1.9941976 75
0.11815793 0.29162407 2.0008237 97
0.15453526 0.38393414 2.0131991 95
0.24045233 0.598508 2.1079371 37
0.32436147 0.80773765 2.1101756 51
0.39724916 0.98972017 2.0208921 83
0.49395224 1.2306343 2.0202241 83
0.6085543 1.5161408 2.0319271 78
0.048043638 0.11545486 1.9960728 89
0.085467838 0.20245287 2.0032918 91
0.19773521 0.4894875 2.0686657 39
0.28258064 0.70017034 2.1074667 36
0.35323468 0.87608838 2.0161262 55
0.44633004 1.1069646 2.0224724 89
0.54988557 1.3637828 2.0211978 84
0.67488909 1.6737936 2.0347569 85
0.74082315 1.8512743 2.0392931 37
0.89928937 2.2472608 2.0334165 71
1.1058464 2.7620316 2.035228 64
1.3985577 3.4931147 2.0553207 54
1.8517553 4.6227059 2.1002882 4
2.5058064 6.2523098 2.068553 30
3.7279634 9.3017454 1.9940171 112
3.9218493 9.780571 1.0371114 68
0.82274497 2.0476894 2.0459561 28
0.99750209 2.481379 2.0308697 69
1.243683 3.0937665 2.0442383 65
1.5923481 3.9591019 2.0601451 56
2.1280847 5.2884512 2.0720625 48
3.0969787 7.6923451 2.0907266 29
3.9559176 9.8208466 1.5670267 19
1.5517665 3.8504357 0.2611376 1
0.012167338 0.028845925 1.9941976 77
0.11912435 0.29123065 2.0008237 97
0.15580758 0.3834196 2.0131991 95
0.24243572 0.59770733 2.1079371 37
0.32703829 0.80665761 2.1101756 40
0.40052903 0.98839748 2.0208921 83
0.49803048 1.2289896 2.0202241 83
0.61357868 1.5141145 2.0319271 80
0.048406113 0.11530337 1.9960728 89
0.086103447 0.2021834 2.0032918 91
0.20259592 0.497017 2.1025403 38
0.28477889 0.69927913 2.1074667 36
0.35613793 0.87491226 2.0161262 68
0.44999838 1.1054785 2.0224724 87
0.55440497 1.3619519 2.0211978 84
0.68014419 1.6716652 2.0347569 85
0.74695814 1.8488075 2.0392931 42
0.90673661 2.2442663 2.0334165 69
1.1149995 2.7583489 2.035228 64
1.4101335 3.4884574 2.0553207 51
1.8523695 4.5824809 2.085304 5
2.5254364 6.2444072 2.068553 29
3.7624741 9.29844 1.9958825 112
3.9636059 9.7905941 1.0393425 66
0.82953078 2.0449498 2.0459561 24
1.0057251 2.4780574 2.0308697 69
1.2533962 3.089844 2.0442383 65
1.6047782 3.9540796 2.0601451 56
2.1446884 5.2817388 2.0720625 55
3.1211298 7.6825776 2.0907266 29
3.9942098 9.8267212 1.569786 19
1.529979 3.7622399 0.25751004 2
0.012267957 0.028803278 1.9941976 77
0.1201402 0.29081306 2.0008237 96
0.15714501 0.38287339 2.0131991 95
0.24452063 0.59685743 2.1079371 37
0.32985204 0.80551112 2.1101756 39
0.40397671 0.98699337 2.0208921 83
0.50231743 1.2272435 2.0202241 75
0.61886013 1.5119635 2.0319271 80
0.048828393 0.11512517 1.9960728 88
0.086843908 0.20186643 2.0032918 91
0.20489532 0.49743411 2.1073792 38
0.28733999 0.69823068 2.1074667 36
0.35836166 0.87164962 2.0116253 80
0.4538545 1.103901 2.0224724 87
0.5591557 1.3600084 2.0211978 87
0.68626654 1.6691611 2.0347569 88
0.75340706 1.8461889 2.0392931 60
0.91456497 2.2410874 2.0334165 69
1.1246212 2.7544403 2.035228 64
1.4223019 3.4835141 2.0553207 51
1.8516213 4.5327439 2.0665736 7
2.5483062 6.2351089 2.068553 29
3.8042006 9.3079853 2.0005455 113
4.0034113 9.7905254 1.0406811 68
0.83524817 2.0385861 2.0426311 24
1.014369 2.4745317 2.0308697 69
1.2647126 3.0852294 2.0442383 65
1.6192596 3.9481711 2.0601451 56
2.1640327 5.2738433 2.0720625 54
3.1474211 7.6665912 2.0895545 24
4.0358443 9.825758 1.5718554 18
nan nan nan 0
0.012368423 0.028760277 1.9941976 75
0.12145395 0.29110894 2.0057628 97
0.1588705 0.38326308 2.0180943 95
0.24660258 0.59600025 2.1079371 37
0.33266181 0.80435485 2.1101756 37
0.40650421 0.98336315 2.0165036 83
0.50767326 1.2280833 2.0243571 75
0.62413406 1.509794 2.0319271 80
0.049229961 0.11495403 1.9960728 89
0.087548025 0.20156206 2.0032918 93
0.20663044 0.49671584 2.1073792 39
0.28977549 0.69722342 2.1074667 36
0.36140212 0.87039328 2.0116253 92
0.45770511 1.1023099 2.0224724 89
0.56389964 1.3580482 2.0211978 87
0.69208884 1.6667553 2.0347569 86
0.75984693 1.8435476 2.0392931 75
0.9223823 2.2378814 2.0334165 71
1.1342292 2.7504978 2.035228 64
1.4327641 3.4744322 2.0530026 54
1.8550557 4.4962549 2.0534625 10
2.5700552 6.2261758 2.068553 30
3.8366683 9.2946491 2.0005455 94
4.0451665 9.7949038 1.042466 66
0.84235901 2.0356581 2.0426311 25
1.0230006 2.4709759 2.0308697 69
1.2738252 3.0768125 2.0417061 65
1.6330316 3.9424949 2.0601451 56
2.1806204 5.2618942 2.0704198 54
3.1723015 7.6510677 2.0883822 14
4.0758104 9.8253326 1.5739248 17
nan nan nan 0
0.01246874 0.028716929 1.9941976 75
0.12246937 0.29068318 2.0057628 97
0.16020738 0.3827062 2.0180943 95
0.24810562 0.59375781 2.1031654 38
0.3347145 0.80138588 2.1055732 34
0.40993434 0.98193824 2.0165036 81
0.51195705 1.2263037 2.0243571 83
0.62940049 1.5076063 2.0319271 74
0.049630925 0.11478148 1.9960728 89
0.088251069 0.20125523 2.0032918 93
0.20885028 0.49715114 2.1122186 39
0.29220751 0.6962077 2.1074667 36
0.36443815 0.86912656 2.0116253 92
0.46155009 1.1007056 2.0224724 89
0.56863666 1.3560716 2.0211978 84
0.69790268 1.6643294 2.0347569 85
0.76490706 1.8375919 2.0357888 79
0.9286924 2.2310541 2.0302787 71
1.1438231 2.7465217 2.035228 64
1.4448832 3.4694099 2.0530026 54
1.8814373 4.5154276 2.0647006 30
2.591773 6.2171664 2.068553 30
3.8690894 9.2811995 2.0005455 94
4.085083 9.7945127 1.0438045 64
0.84945965 2.0327055 2.0426311 31
1.0316197 2.4673898 2.0308697 69
1.2845575 3.0723474 2.0417061 53
1.6467835 3.9367704 2.0601451 56
2.1971514 5.2498937 2.0687771 47
3.2215171 7.6937494 2.1024497 6
4.1158233 9.824749 1.5759943 17
nan nan nan 0
0.012568905 0.02867323 1.9941976 75
0.12348329 0.29025391 2.0057628 97
0.1615423 0.3821446 2.0180943 95
0.2501767 0.59288812 2.1031654 39
0.33750978 0.80021268 2.1055732 23
0.41335946 0.98050129 2.0165036 81
0.51623452 1.2245092 2.0243571 81
0.63465911 1.5053999 2.0319271 73
0.050031282 0.11460754 1.9960728 88
0.088953048 0.20094596 2.0032918 93
0.21058439 0.4964191 2.1122186 39
0.29463595 0.69518346 2.1074667 36
0.36746976 0.86784905 2.0116253 92
0.46538946 1.0990878 2.0224724 89
0.57336676 1.3540783 2.0211978 87
0.70238614 1.6587614 2.0310817 83
0.77131677 1.8349105 2.0357888 79
0.93647456 2.2277987 2.0302787 69
1.1534034 2.7425125 2.035228 64
1.4569849 3.4643455 2.0530026 50
1.8935919 4.5002871 2.0609546 30
2.6153207 6.2125034 2.069962 30
nan nan nan 0
4.1250472 9.7939634 1.0451432 59
0.85509813 2.0262876 2.0393064 37
1.0402262 2.4637735 2.0308697 69
1.2935972 3.0638726 2.0391736 33
1.6605154 3.9309981 2.0601451 56
2.2136252 5.2378421 2.0671344 39
3.3089278 7.8257165 2.1399639 4
4.1558809 9.8240042 1.5780638 19
nan nan nan 0
0.012668916 0.02862918 1.9941976 75
0.12449572 0.28982112 2.0057628 97
0.16287524 0.38157839 2.0180943 95
0.25224474 0.59201121 2.1031654 39
0.33953544 0.79723233 2.1009707 15
0.41677952 0.97905236 2.0165036 81
0.52050567 1.2226998 2.0243571 83
0.6399101 1.5031754 2.0319271 78
0.050431035 0.1144322 1.9960728 88
0.089653939 0.20063423 2.0032918 93
0.21231593 0.49568102 2.1122186 39
0.29638177 0.69256419 2.1027739 35
0.37049687 0.86656111 2.0116253 95
0.46922314 1.0974566 2.0224724 89
0.57808989 1.3520688 2.0211978 87
0.70817202 1.6562996 2.0310817 85
0.77771717 1.8322071 2.0357888 77
0.94424528 2.2245164 2.0302787 71
1.1629696 2.7384696 2.035228 64
1.467337 3.4551606 2.0506845 50
1.9092891 4.4936495 2.0609546 26
2.6369905 6.2033362 2.069962 30
4.1586328 9.7828903 2.1096621 58
4.1650562 9.7932529 1.0464818 56
0.86216599 2.0232902 2.0393064 44
1.04882 2.4601276 2.0308697 71
1.3042842 3.0593383 2.0391736 12
1.674227 3.9251781 2.0601451 55
2.2300415 5.2257404 2.0654917 25
3.347676 7.8409405 2.1469979 3
4.1940384 9.8185453 1.5794433 18
nan nan nan 0
0.012768773 0.028584784 1.9941976 75
0.12550662 0.28938478 2.0057628 97
0.16420622 0.38100755 2.0180943 95
0.25371942 0.58975518 2.0983937 40
0.34000078 0.79065806 2.087163 15
0.42019451 0.97759157 2.0165036 83
0.5247705 1.2208753 2.0243571 83
0.64515328 1.5009326 2.0319271 78
0.050830171 0.11425547 1.9960728 88
0.090353727 0.20032005 2.0032918 91
0.21404487 0.49493688 2.1122186 39
0.29879749 0.6915254 2.1027739 35
0.37438264 0.86726195 2.0161262 95
0.47305113 1.095812 2.0224724 89
0.58280599 1.3500426 2.0211978 87
0.71394926 1.6538174 2.0310817 81
0.78410792 1.8294811 2.0357888 73
0.95200449 2.2212069 2.0302787 71
1.1725215 2.7343934 2.035228 64
1.479389 3.4500175 2.0506845 49
1.9249634 4.4869576 2.0609546 24
2.658628 6.1940937 2.069962 33
4.1927562 9.7683134 2.1096621 59
4.2070751 9.796957 1.0482666 64
0.86922336 2.0202687 2.0393064 64
1.0574011 2.4564514 2.0308697 69
1.3149554 3.0547669 2.0391736 12
1.6879181 3.9193099 2.0601451 41
2.2464006 5.2135873 2.063849 10
3.3731017 7.8247437 2.1458256 6
4.2302475 9.8083935 1.5801332 18
nan nan nan 0
0.012868475 0.028540038 1.9941976 75
0.12620418 0.28823322 2.0008237 95
0.16553517 0.38043204 2.0180943 95
0.25577649 0.58886588 2.0983937 40
0.33964631 0.78229827 2.068753 16
0.42360437 0.97611886 2.0165036 83
0.52902901 1.219036 2.0243571 83
0.65038854 1.4986714 2.0319271 78
0.051228687 0.11407734 1.9960728 89
0.091052428 0.20000345 2.0032918 88
0.21577123 0.4941867 2.1122186 39
0.30120951 0.69047821 2.1027739 36
0.37740764 0.86594987 2.0161262 95
0.47687331 1.0941541 2.0224724 87
0.58751494 1.3479999 2.0211978 87
0.7197178 1.6513153 2.0310817 74
0.78907293 1.8234599 2.032284 73
0.95975214 2.21787 2.0302787 71
1.1820592 2.7302837 2.035228 64
1.4914228 3.4448326 2.0506845 49
1.940614 4.4802108 2.0609546 24
2.6802332 6.1847754 2.069962 33
4.2346416 9.7716484 2.1133926 63
4.2432284 9.7867813 1.0487128 64
0.87478215 2.0137966 2.0359814 69
1.0659692 2.4527457 2.0308697 69
1.3256105 3.0501583 2.0391736 30
1.6979692 3.9050696 2.055949 21
2.2645857 5.2057137 2.063849 10
3.3790572 7.7638969 2.13293 6
4.2723675 9.8117294 1.5828925 18
nan nan nan 0
0.012968021 0.028494947 1.9941976 77
0.12720953 0.28779092 2.0008237 93
0.16686213 0.37985191 2.0180943 95
0.25783047 0.58796954 2.0983937 40
0.33923766 0.77395076 2.0503428 25
0.42700911 0.97463429 2.0165036 85
0.53328103 1.217182 2.0243571 83
0.65561593 1.496392 2.0319271 80
0.051626582 0.11389782 1.9960728 89
0.091750011 0.1996844 2.0032918 86
0.21698755 0.49227956 2.1073792 39
0.30431348 0.69100195 2.1074667 36
0.38042808 0.86462718 2.0161262 95
0.48068973 1.0924828 2.0224724 87
0.59221679 1.3459408 2.0211978 87
0.72547758 1.6487929 2.0310817 62
0.79543316 1.8206944 2.032284 77
0.96748817 2.2145064 2.0302787 71
1.1915824 2.7261412 2.035228 64
1.5034384 3.4396055 2.0506845 49
1.9543835 4.4691615 2.0590816 25
2.7018058 6.1753821 2.069962 32
4.2667565 9.7523069 2.1124599 63
4.2893467 9.7992821 1.0513902 57
0.88180625 2.0107307 2.0359814 75
1.0745244 2.4490099 2.0308697 69
1.3362494 3.0455127 2.0391736 54
1.7079419 3.8908076 2.051753 7
2.2827432 5.1977773 2.063849 25
3.3826747 7.6986542 2.1188624 6
4.3205404 9.8284903 1.5877212 19
nan nan nan 0
0.013086171 0.028488897 1.9991974 75
0.12821333 0.28734514 2.0008237 95
0.1677742 0.37833637 2.0131991 93
0.25988129 0.58706594 2.0983937 42
0.33719376 0.76204258 2.0227277 32
0.4304086 0.9731378 2.0165036 81
0.53752643 1.2153131 2.0243571 81
0.66083533 1.4940944 2.0319271 80
0.052023843 0.11371692 1.9960728 89
0.092446491 0.1993629 2.0032918 89
0.2187046 0.49151912 2.1073792 38
0.30672371 0.68993545 2.1074667 36
0.38344386 0.86329395 2.0161262 95
0.48450029 1.0907981 2.0224724 87
0.59691137 1.3438654 2.0211978 87
0.73260468 1.6493486 2.0347569 40
0.80178374 1.8179067 2.032284 77
0.9752124 2.2111158 2.0302787 73
1.2010912 2.7219651 2.035228 64
1.5172243 3.4383898 2.0530026 49
1.9699718 4.4623127 2.0590816 30
2.7233458 6.1659136 2.069962 32
4.3126802 9.7643147 2.1180556 67
4.3255396 9.788806 1.0518364 56
0.88881963 2.0076406 2.0359814 77
1.0830666 2.4452441 2.0308697 69
1.3486183 3.0447717 2.0417061 61
1.7582875 3.9678092 2.093714 5
2.3027868 5.1940942 2.0654917 41
3.3858776 7.633481 2.1047945 6
4.3668747 9.8405085 1.5918601 19
nan nan nan 0
0.013185536 0.028443044 1.9991974 77
0.12921558 0.28689584 2.0008237 97
0.16909382 0.37774843 2.0131991 87
0.26192895 0.58615524 2.0983937 42
0.33905491 0.75907707 2.0181251 36
0.43380284 0.97162944 2.0165036 81
0.54176545 1.2134295 2.0243571 81
0.66604662 1.4917785 2.0319271 80
0.052420471 0.11353463 1.9960728 89
0.093141824 0.199039 2.0032918 91
0.22041899 0.4907527 2.1073792 38
0.30913013 0.6888606 2.1074667 36
0.38645497 0.86195022 2.0161262 95
0.4872379 1.0867206 2.0182064 87
0.60159868 1.3417737 2.0211978 89
0.73835754 1.6467813 2.0347569 39
0.8081246 1.815097 2.032284 77
0.98292464 2.2076983 2.0302787 71
1.2105852 2.7177558 2.035228 58
1.5292171 3.4330728 2.0530026 46
1.9836493 4.4511743 2.0572085 34
2.7428985 6.151988 2.068553 32
4.3527389 9.76266 2.1208537 70
nan nan nan 0
0.89582229 2.0045257 2.0359814 77
1.0915954 2.4414485 2.0308697 67
1.3592383 3.0400457 2.0417061 60
1.8110446 4.0486488 2.137773 5
2.3228328 5.1903348 2.0671344 42
3.4025717 7.5994353 2.098933 12
nan nan nan 0
nan nan nan 0
0.013284741 0.028396845 1.9991974 77
0.13021624 0.28644305 2.0008237 97
0.17041138 0.37715587 2.0131991 75
0.26397341 0.58523726 2.0983937 40
0.34170252 0.75788897 2.0181251 37
0.4362075 0.96792513 2.012115 83
0.5459978 1.2115309 2.0243571 81
0.67124993 1.4894446 2.0319271 78
0.052816465 0.11335096 1.9960728 89
0.093836039 0.19871265 2.0032918 93
0.2221307 0.48998031 2.1073792 39
0.31153283 0.68777728 2.1074667 36
0.38856348 0.85861194 2.0116253 93
0.49102831 1.0850132 2.0182064 87
0.60627866 1.3396657 2.0211978 87
0.74410135 1.644194 2.0347569 39
0.81445551 1.812265 2.032284 79
0.99062496 2.2042537 2.0302787 71
1.2200646 2.7135136 2.035228 58
1.5411916 3.4277139 2.0530026 46
1.9991746 4.4442229 2.0572085 37
2.7643561 6.1423759 2.068553 32
4.3948545 9.7653255 2.1245842 70
nan nan nan 0
0.90281385 2.0013864 2.0359814 79
1.1001109 2.4376233 2.0308697 69
1.3698416 3.0352824 2.0417061 61
1.8214307 4.034029 2.1335769 4
2.3409362 5.1821947 2.0671344 43
3.4170671 7.5609355 2.0918989 26
nan nan nan 0
nan nan nan 0
0.013383783 0.028350299 1.9991974 77
0.13121532 0.28598675 2.0008237 97
0.17172685 0.37655872 2.0131991 73
0.26601467 0.58431232 2.0983937 40
0.34434599 0.75669158 2.0181251 38
0.43958351 0.96639657 2.012115 81
0.55022347 1.2096176 2.0243571 81
0.67644495 1.4870923 2.0319271 80
0.053211812 0.1131659 1.9960728 88
0.094529107 0.1983839 2.0032918 93
0.2238397 0.48920193 2.1073792 38
0.31321415 0.68511617 2.1027739 36
0.39246309 0.85923123 2.0161262 93
0.49481273 1.0832926 2.0182064 87
0.61095136 1.3375411 2.0211978 87
0.74983615 1.6415865 2.0347569 54
0.82077652 1.809411 2.032284 77
0.99831319 2.2007823 2.0302787 71
1.2312572 2.7130458 2.0379696 64
1.5531471 3.4223132 2.0530026 40
2.012759 4.4329967 2.0553353 38
2.7857802 6.132689 2.068553 28
4.4350095 9.7633419 2.1273818 66
1.6771137 3.6903334 0.45614618 13
0.90979445 1.9982228 2.0359814 79
1.1086131 2.4337685 2.0308697 69
1.3804284 3.0304823 2.0417061 62
1.8467937 4.0524263 2.1461654 5
2.3590114 5.1739922 2.0671344 43
3.4394047 7.5401173 2.0895545 24
1.6611907 3.640106 0.64957172 4
nan nan nan 0
0.013482662 0.028303407 1.9991974 77
0.1322128 0.28552702 2.0008237 97
0.17261444 0.37503213 2.0083039 73
0.2680527 0.58338022 2.0983937 42
0.34698522 0.75548494 2.0181251 39
0.44295418 0.96485621 2.012115 81
0.55444247 1.2076895 2.0243571 81
0.68029416 1.4818085 2.0280902 80
0.053606506 0.11297946 1.9960728 89
0.094989054 0.19757181 1.9983203 93
0.22554597 0.48841763 2.1073792 38
0.31560373 0.68401867 2.1027739 36
0.39545995 0.85785609 2.0161262 95
0.4985911 1.0815587 2.0182064 87
0.6156165 1.3354003 2.0211978 87
0.75556177 1.6389591 2.0347569 68
0.82560301 1.8032924 2.0287795 77
1.0059893 2.197284 2.0302787 71
1.24072 2.7087314 2.0379696 64
1.5650837 3.4168708 2.0530026 40
2.0282207 4.4259439 2.0553353 39
2.8071704 6.1229277 2.068553 19
4.4752045 9.7611961 2.1301799 65
1.689985 3.6844566 0.45614618 9
0.91676402 1.9950349 2.0359814 79
1.1171019 2.4298837 2.0308697 69
1.3909984 3.0256455 2.0417061 62
1.8628244 4.0500779 2.1482635 7
2.3770576 5.1657262 2.0671344 44
3.4616382 7.5192351 2.0872097 30
1.6697437 3.625289 0.64819205 3
nan nan nan 0
0.013581377 0.028256174 1.9991974 78
0.13320866 0.28506377 2.0008237 97
0.17392251 0.37442732 2.0083039 73
0.27008742 0.58244097 2.0983937 40
0.34962022 0.75426918 2.0181251 49
0.44631946 0.96330416 2.012115 81
0.55865479 1.2057469 2.0243571 81
0.68546253 1.479425 2.0280902 78
0.054126035 0.11305262 2.0010643 89
0.095678128 0.19723904 1.9983203 93
0.22724947 0.48762736 2.1073792 38
0.31798947 0.68291295 2.1027739 36
0.39845204 0.85647047 2.0161262 95
0.50236338 1.0798117 2.0182064 87
0.62027419 1.3332433 2.0211978 89
0.75984818 1.633238 2.0310817 83
0.83189267 1.8003997 2.0287795 77
1.013653 2.1937592 2.0302787 71
1.2501677 2.7043841 2.0379696 64
1.5770013 3.4113867 2.0530026 54
2.0417118 4.414629 2.0534625 38
2.8285263 6.1130915 2.068553 19
4.5133758 9.7544327 2.132045 65
1.7028359 3.678535 0.45614618 7
0.92372239 1.9918227 2.0359814 79
1.125577 2.4259696 2.0308697 69
1.3997368 3.0168602 2.0391736 62
1.8578415 4.0023842 2.1272829 7
2.3930857 5.1531143 2.0654917 41
3.4858162 7.5026984 2.0860374 30
1.6907376 3.6374011 0.65095133 3
nan nan nan 0
0.013679927 0.028208595 1.9991974 78
0.13420293 0.28459704 2.0008237 97
0.17522845 0.37381792 2.0083039 73
0.2721189 0.58149463 2.0983937 40
0.3514232 0.75127459 2.0135226 53
0.44967929 0.96174037 2.012115 83
0.56286019 1.2037895 2.0243571 83
0.69062245 1.4770232 2.0280902 78
0.054520331 0.112863 2.0010643 89
0.09636604 0.19690385 1.9983203 93
0.22895025 0.48683113 2.1073792 38
0.32037136 0.6817987 2.1027739 37
0.40143922 0.85507441 2.0161262 95
0.50612956 1.0780516 2.0182064 87
0.62492424 1.3310701 2.0211978 87
0.76554459 1.6305758 2.0310817 92
0.83817214 1.7974848 2.0287795 77
1.0213045 2.1902075 2.0302787 71
1.2596002 2.7000036 2.0379696 64
1.5888996 3.4058616 2.0530026 55
2.0571096 4.4074755 2.0534625 38
2.8498476 6.1031809 2.068553 21
4.5536323 9.7519712 2.1348429 65
1.7114502 3.6635447 0.45525378 5
0.93066955 1.9885861 2.0359814 79
1.1340383 2.4220257 2.0308697 69
1.4102591 3.011956 2.0391736 62
1.8641002 3.9794352 2.1188905 6
2.4110589 5.1447296 2.0654917 42
3.5099211 7.486084 2.0848651 28
1.7118365 3.6494112 0.6537106 3
nan nan nan 0
0.01377831 0.028160669 1.9991974 77
0.13519554 0.28412685 2.0008237 97
0.17653224 0.37320393 2.0083039 73
0.27478483 0.58189178 2.1031654 39
0.35404348 0.75004327 2.0135226 53
0.45405599 0.96233153 2.0165036 81
0.5670588 1.2018174 2.0243571 83
0.69577408 1.4746035 2.0280902 78
0.054913968 0.112672 2.0010643 91
0.097289763 0.19704473 2.0032918 93
0.2306482 0.48602897 2.1073792 38
0.32274935 0.68067628 2.1027739 37
0.40442157 0.85366786 2.0161262 95
0.5098896 1.0762782 2.0182064 87
0.62956673 1.3288804 2.0211978 87
0.77123171 1.6278934 2.0310817 90
0.84444147 1.7945482 2.0287795 77
1.0289437 2.1866291 2.0302787 71
1.2690173 2.6955905 2.0379696 64
1.6007787 3.4002943 2.0530026 55
2.0724819 4.4002681 2.0534625 39
2.8731794 6.0975351 2.069962 30
4.5918336 9.7449036 2.136708 64
1.7284752 3.6665573 0.45614618 5
0.93760538 1.9853255 2.0359814 79
1.1424859 2.4180524 2.0308697 69
1.4207641 3.0070148 2.0391736 62
1.8682818 3.952388 2.1084003 6
2.4269836 5.1320124 2.063849 45
3.533952 7.4693923 2.0836928 29
1.7224461 3.6389372 0.65302074 3
nan nan nan 0
0.013876526 0.028112402 1.9991974 77
0.13618648 0.2836532 2.0008237 97
0.17827256 0.37350434 2.0131991 73
0.27681434 0.58092898 2.1031654 39
0.35665947 0.74880296 2.0135226 60
0.45741239 0.96074069 2.0165036 81
0.57125044 1.1998307 2.0243571 77
0.70091718 1.4721658 2.0280902 78
0.05530693 0.11247963 2.0010643 89
0.097976975 0.19670394 2.0032918 91
0.23234336 0.48522091 2.1073792 38
0.32512337 0.67954552 2.1027739 38
0.40739897 0.85225099 2.0161262 95
0.51364338 1.0744919 2.0182064 87
0.63420159 1.3266748 2.0211978 87
0.77690941 1.6251916 2.0310817 88
0.85070044 1.7915895 2.0287795 77
1.0365701 2.1830242 2.0302787 71
1.2784189 2.6911445 2.0379696 64
1.6107371 3.3906841 2.0506845 58
2.0878291 4.3930068 2.0534625 39
2.8944461 6.0874691 2.069962 33
4.6300402 9.737689 2.1385734 59
1.7412633 3.6605015 0.45614618 5
0.94452971 1.9820404 2.0359814 77
1.1509194 2.4140496 2.0308697 69
1.431252 3.002037 2.0391736 61
1.8703437 3.9212642 2.0958121 7
2.4448829 5.1235099 2.063849 44
3.5600038 7.4570107 2.0836928 29
1.7351378 3.6329024 0.65302074 3
nan nan nan 0
0.013974572 0.028063793 1.9991974 78
0.1371758 0.28317609 2.0008237 96
0.17957523 0.37287974 2.0131991 73
0.27884048 0.57995921 2.1031654 38
0.35927111 0.74755335 2.0135226 75
0.46076322 0.95913815 2.0165036 83
0.5754351 1.1978294 2.0243571 77
0.70605165 1.4697101 2.0280902 78
0.055699222 0.11228589 2.0010643 89
0.09866301 0.19636071 2.0032918 93
0.23403569 0.48440692 2.1073792 38
0.32749346 0.67840648 2.1027739 38
0.41037136 0.8508237 2.0161262 95
0.51739091 1.0726924 2.0182064 85
0.63882864 1.324453 2.0211978 87
0.78257763 1.6224697 2.0310817 90
0.85694903 1.788609 2.0287795 77
1.0441839 2.1793926 2.0302787 71
1.287805 2.6866653 2.0379696 63
1.622563 3.3850408 2.0506845 59
2.1031508 4.3856921 2.0534625 40
2.915678 6.0773287 2.069962 33
4.6703768 9.7347536 2.1413713 50
1.7561853 3.6588907 0.45659241 5
0.9514426 1.9787313 2.0359814 77
1.1593391 2.4100173 2.0308697 69
1.4417223 2.9970229 2.0391736 62
1.872211 3.8901742 2.0832238 9
2.4607036 5.1106892 2.0622063 43
3.5860116 7.4445386 2.0836928 29
1.7456589 3.6223631 0.65233099 3
nan nan nan 0
0.014072447 0.028014842 1.9991974 78
0.13816343 0.28269553 2.0008237 96
0.18087575 0.37225068 2.0131991 73
0.2808632 0.57898235 2.1031654 38
0.3618784 0.74629474 2.0135226 84
0.46410844 0.95752394 2.0165036 83
0.57961285 1.1958133 2.0243571 83
0.71117759 1.4672366 2.0280902 73
0.056090832 0.11209078 2.0010643 88
0.09934783 0.19601512 2.0032918 93
0.23572515 0.48358703 2.1073792 38
0.32985955 0.67725921 2.1027739 38
0.41333881 0.84938604 2.0161262 95
0.52113217 1.0708798 2.0182064 87
0.643448 1.322215 2.0211978 87
0.78823638 1.6197281 2.0310817 90
0.86318725 1.7856067 2.0287795 77
1.0517851 2.1757343 2.0302787 71
1.298996 2.6859181 2.0407109 51
1.6343691 3.3793566 2.0506845 59
2.1184468 4.378324 2.0534625 40
2.9368739 6.0671139 2.069962 34
4.704329 9.7183924 2.1413713 51
1.7689464 3.6527386 0.45659241 3
0.95671391 1.9720385 2.0326567 77
1.1677445 2.405956 2.0308697 71
1.452175 2.9919722 2.0391736 62
1.8758667 3.8632019 2.0727334 14
2.4785285 5.1020684 2.0622063 42
3.6119761 7.4319758 2.0836928 29
1.7582927 3.6162477 0.65233099 2
nan nan nan 0
0.014170151 0.027965549 1.9991974 77
0.13914937 0.28221151 2.0008237 97
0.18217404 0.37161702 2.0131991 75
0.28288251 0.5779984 2.1031654 37
0.36448124 0.74502701 2.0135226 95
0.46744797 0.95589817 2.0165036 81
0.58378345 1.1937829 2.0243571 81
0.71770322 1.467625 2.0319271 73
0.056350842 0.11163602 1.9960728 89
0.10003145 0.19566713 2.0032918 93
0.23741175 0.48276123 2.1073792 39
0.3322216 0.67610365 2.1027739 38
0.41630122 0.84793806 2.0161262 95
0.52486706 1.0690542 2.0182064 87
0.64805943 1.319961 2.0211978 87
0.79388553 1.6169668 2.0310817 88
0.86941493 1.7825829 2.0287795 77
1.0593734 2.1720498 2.0302787 71
1.3083637 2.6813674 2.0407109 33
1.6461554 3.3736308 2.0506845 55
2.1337171 4.3709025 2.0534625 39
2.9559288 6.0525146 2.068553 33
4.738224 9.7019119 2.1413713 52
1.7816861 3.6465414 0.45659241 2
0.96359175 1.9686869 2.0326567 79
1.1761358 2.401865 2.0308697 69
1.4626101 2.9868848 2.0391736 62
1.86538 3.8077216 2.0475569 12
2.4963226 5.0933857 2.0622063 43
3.6378965 7.4193225 2.0836928 28
1.7709049 3.6100881 0.65233099 2
1.5538179 3.166147 0.23594624 2
0.014267683 0.027915914 1.9991974 77
0.14013363 0.28172407 2.0008237 97
0.18347012 0.37097886 2.0131991 75
0.2848984 0.57700747 2.1031654 37
0.3679443 0.745502 2.0181251 95
0.47078183 0.95426059 2.0165036 81
0.58794701 1.1917378 2.0243571 83
0.72282183 1.4651108 2.0319271 69
0.05674018 0.11143863 1.9960728 89
0.10071384 0.19531676 2.0032918 91
0.23909545 0.48192957 2.1073792 38
0.33457965 0.67493981 2.1027739 38
0.41925856 0.84647971 2.0161262 95
0.52859557 1.0672156 2.0182064 87
0.65266305 1.3176907 2.0211978 87
0.79952496 1.6141858 2.0310817 88
0.87563199 1.7795372 2.0287795 79
1.0669489 2.1683385 2.0302787 71
1.3177153 2.676784 2.0407109 16
1.6579214 3.3678641 2.0506845 52
2.1489615 4.3634281 2.0534625 39
2.9770379 6.0421596 2.068553 33
4.7698903 9.6809063 2.1404386 46
1.794404 3.6402996 0.45659241 2
0.97045791 1.9653114 2.0326567 79
1.1863029 2.4013689 2.0338128 69
1.4730273 2.9817612 2.0391736 62
1.8786602 3.801187 2.0475569 12
2.5119936 5.0804076 2.0605636 43
3.6616175 7.4022217 2.0825205 29
1.7834957 3.6038842 0.65233099 2
1.5648603 3.1607037 0.23594624 2
0.014365042 0.027865941 1.9991974 77
0.14111619 0.28123322 2.0008237 96
0.18476395 0.37033615 2.0131991 75
0.2869108 0.57600945 2.1031654 36
0.37054434 0.74421316 2.0181251 95
0.47410995 0.95261139 2.0165036 83
0.59210336 1.1896782 2.0243571 83
0.72793168 1.4625788 2.0319271 59
0.057128828 0.1112399 1.9960728 88
0.10139501 0.19496404 2.0032918 91
0.24077626 0.48109204 2.1073792 38
0.33693358 0.67376786 2.1027739 36
0.42221072 0.84501112 2.0161262 95
0.53231764 1.065364 2.0182064 87
0.65725863 1.3154044 2.0211978 87
0.80515456 1.6113851 2.0310817 88
0.88183838 1.7764699 2.0287795 73
1.0745112 2.1646011 2.0302787 69
1.327051 2.6721683 2.0407109 16
1.6696675 3.3620563 2.0506845 49
2.1641796 4.3559003 2.0534625 39
2.9959757 6.0274358 2.0671437 33
4.7992811 9.6554003 2.1385734 43
1.8048826 3.629555 0.45614618 4
0.97731227 1.9619119 2.0326567 77
1.1946779 2.3972132 2.0338128 69
1.4834266 2.9766011 2.0391736 62
1.8959678 3.8027301 2.051753 17
2.5297124 5.0716081 2.0605636 41
3.6874337 7.3893952 2.0825205 28
1.7960649 3.5976367 0.65233099 2
1.5870452 3.1775694 0.23695388 2
0.014462223 0.027815629 1.9991974 77
0.14209701 0.28073892 2.0008237 96
0.18605554 0.36968896 2.0131991 75
0.2895903 0.57633895 2.1079371 36
0.37313989 0.74291515 2.0181251 95
0.47743231 0.95095068 2.0165036 83
0.59498984 1.1850892 2.0202241 83
0.73303258 1.460029 2.0319271 40
0.05751678 0.1110398 1.9960728 89
0.10207495 0.19460891 2.0032918 91
0.2418872 0.47912586 2.1025403 38
0.33850616 0.67104697 2.0980811 30
0.42515782 0.84353215 2.0161262 95
0.53603321 1.0634993 2.0182064 87
0.66184628 1.3131021 2.0211978 87
0.81077451 1.6085646 2.0310817 88
0.88803405 1.7733808 2.0287795 73
1.0820605 2.1608372 2.0302787 69
1.3363706 2.6675196 2.0407109 28
1.681393 3.3562076 2.0506845 50
2.177294 4.3441749 2.0515895 40
3.0169973 6.0169406 2.0671437 33
4.8307533 9.6341972 2.1376407 40
1.8108423 3.6098783 0.45480755 7
0.98415464 1.9584885 2.0326567 77
1.2030386 2.3930285 2.0338128 69
1.4938079 2.9714048 2.0391736 62
1.9092301 3.7960887 2.051753 39
2.5452776 5.0585289 2.0589211 41
3.7110193 7.3721366 2.0813482 28
1.8086119 3.5913455 0.65233099 2
nan nan nan 0
0.01455923 0.027764976 1.9991974 77
0.14307611 0.28024116 2.0008237 96
0.18734486 0.36903724 2.0131991 75
0.29160032 0.57532459 2.1079371 36
0.37484789 0.73986542 2.0135226 91
0.48074883 0.9492783 2.0165036 81
0.599123 1.1830051 2.0202241 83
0.73812455 1.4574612 2.0319271 32
0.057904031 0.11083835 1.9960728 88
0.10275364 0.1942514 2.0032918 91
0.24355818 0.47827861 2.1025403 39
0.34006387 0.66832328 2.0933883 17
0.42809969 0.84204292 2.0161262 95
0.53974223 1.0616217 2.0182064 87
0.66642582 1.3107839 2.0211978 87
0.81638449 1.6057248 2.0310817 88
0.89421892 1.7702702 2.0287795 77
1.0895967 2.157047 2.0302787 67
1.3456737 2.6628385 2.0407109 40
1.6930981 3.350318 2.0506845 46
2.192445 4.3365479 2.0515895 40
3.0379817 6.0063725 2.0671437 33
4.8599195 9.6085091 2.1357756 33
1.8504139 3.6568577 0.46016207 6
0.9909851 1.9550412 2.0326567 79
1.2113844 2.3888144 2.0338128 69
1.5041709 2.9661725 2.0391736 62
1.9224694 3.7894011 2.051753 55
2.558645 5.0411916 2.0556357 38
3.7367306 7.359138 2.0813482 26
1.821137 3.5850103 0.65233099 2
nan nan nan 0
0.014656059 0.027713986 1.9991974 77
0.14405346 0.27974004 2.0008237 96
0.18863191 0.36838105 2.0131991 73
0.29360679 0.57430321 2.1079371 36
0.37742823 0.73855245 2.0135226 91
0.48405951 0.94759434 2.0165036 83
0.60324883 1.1809067 2.0202241 81
0.74320751 1.4548758 2.0319271 32
0.058425982 0.11089151 2.0010643 89
0.10343108 0.19389154 2.0032918 93
0.2452262 0.47742552 2.1025403 39
0.34081867 0.66406167 2.084003 14
0.43004259 0.83860564 2.0116253 95
0.54344469 1.0597311 2.0182064 87
0.6709972 1.3084496 2.0211978 87
0.82198453 1.6028653 2.0310817 90
0.90039289 1.767138 2.0287795 79
1.0971196 2.1532304 2.0302787 67
1.3530616 2.6543994 2.0379696 59
1.7027705 3.3404403 2.0483663 38
2.2075689 4.3288689 2.0515895 40
3.0589297 5.9957318 2.0671437 33
4.8889651 9.582736 2.1339102 28
1.8631675 3.6503766 0.46016207 6
0.99780333 1.9515702 2.0326567 79
1.2197156 2.3845713 2.0338128 69
1.5145158 2.9609039 2.0391736 62
1.9356852 3.7826672 2.051753 57
2.5740745 5.0280256 2.053993 15
3.7601802 7.3417239 2.0801759 21
1.8381561 3.5874457 0.6537106 2
nan nan nan 0
0.01475271 0.027662659 1.9991974 77
0.14502907 0.27923548 2.0008237 96
0.18991664 0.36772034 2.0131991 71
0.29560971 0.57327485 2.1079371 36
0.38000399 0.73723048 2.0135226 93
0.48736426 0.94589895 2.0165036 83
0.60736728 1.1787937 2.0202241 83
0.74828148 1.4522728 2.0319271 34
0.058812711 0.11068689 2.0010643 89
0.10410725 0.19352934 2.0032918 93
0.24689123 0.47656661 2.1025403 39
0.3399612 0.65673792 2.0652318 14
0.43296725 0.83709937 2.0116253 95
0.54714054 1.0578277 2.0182064 87
0.67556053 1.3060994 2.0211978 87
0.82601696 1.5969748 2.0274065 90
0.90655589 1.7639843 2.0287795 79
1.1046292 2.1493874 2.0302787 69
1.3623189 2.6496603 2.0379696 56
1.7144204 3.3344762 2.0483663 27
2.222666 4.321137 2.0515895 40
3.0798399 5.9850173 2.0671437 34
4.9156423 9.5525074 2.1311123 24
1.8872956 3.6659894 0.46239313 6
1.0046096 1.9480753 2.0326567 79
1.2280319 2.3802991 2.0338128 69
1.5248419 2.9555993 2.0391736 62
1.9467957 3.7718544 2.049655 56
2.5872765 5.0106173 2.0507076 15
3.785785 7.3285537 2.0801759 18
1.8529413 3.5854073 0.65440041 2
nan nan nan 0
0.014854 0.027608402 1.9991974 77
0.14605153 0.27870205 2.0008237 97
0.1907925 0.36611891 2.0083039 73
0.29701948 0.57086259 2.1031654 35
0.38180196 0.73409945 2.0089202 93
0.49082789 0.94410634 2.0165036 83
0.61168367 1.1765596 2.0202241 83
0.75359935 1.4495203 2.0319271 39
0.059218004 0.11047059 2.0010643 89
0.10481588 0.19314647 2.0032918 93
0.24863629 0.47565851 2.1025403 40
0.33917013 0.64936918 2.0464609 19
0.4361783 0.8354308 2.0116253 93
0.5511983 1.0557191 2.0182064 87
0.68057054 1.3034959 2.0211978 87
0.83214283 1.5937915 2.0274065 90
0.91301507 1.7606498 2.0287795 77
1.1124995 2.1453245 2.0302787 69
1.3720212 2.6446493 2.0379696 56
1.7225502 3.3203053 2.0437305 10
2.2363532 4.308846 2.0497162 39
3.1017556 5.9736891 2.0671437 34
4.9409628 9.5117674 2.1264493 22
1.9013582 3.6587157 0.46239313 6
1.0120822 1.9442035 2.0326567 79
1.2371624 2.3755662 2.0338128 69
1.5361793 2.9497223 2.0391736 61
1.9612643 3.7643514 2.049655 57
2.6086798 5.0048342 2.0523503 16
3.8161435 7.3182721 2.0813482 15
1.8683619 3.5829811 0.65509027 2
nan nan nan 0
0.01495028 0.027556382 1.9991974 77
0.1470235 0.27819055 2.0008237 97
0.19301689 0.36725321 2.0180943 66
0.29901037 0.56982237 2.1031654 35
0.38436213 0.73276222 2.0089202 93
0.49412045 0.94238722 2.0165036 83
0.61578691 1.1744173 2.0202241 83
0.75865448 1.4468811 2.0319271 45
0.059603255 0.11026321 2.0010643 89
0.10548945 0.19277939 2.0032918 91
0.2502951 0.47478771 2.1025403 45
0.33741331 0.64054745 2.0229971 32
0.43894628 0.83397973 2.0116253 95
0.55469614 1.0538855 2.0182064 87
0.68488938 1.3012319 2.0211978 87
0.83742344 1.5910232 2.0274065 90
0.91915536 1.757452 2.0287795 77
1.1181772 2.1379786 2.0271409 69
1.3812444 2.6398442 2.0379696 64
1.7669916 3.3770783 2.0808189 5
2.2513802 4.3010135 2.0497162 34
3.1225886 5.9628253 2.0671437 34
4.9610839 9.4735718 2.1217861 20
1.7956151 3.4274132 0.43963641 4
1.0185239 1.9408367 2.0326567 79
1.2450334 2.3714509 2.0338128 67
1.5459526 2.9446118 2.0391736 62
1.9737365 3.7578268 2.049655 56
2.6296551 5.0045166 2.0556357 36
3.8403909 7.3055778 2.0813482 18
1.8877704 3.5895882 0.65715969 2
nan nan nan 0
0.01504638 0.027504027 1.9991974 77
0.14799365 0.27767566 2.0008237 97
0.19620536 0.37017566 2.0376754 48
0.30099761 0.56877518 2.1031654 37
0.38691759 0.73141611 2.0089202 93
0.49740699 0.94065672 2.0165036 83
0.61988264 1.1722606 2.0202241 83
0.76220185 1.44139 2.0280902 62
0.059987783 0.11005449 2.0010643 89
0.10616173 0.19241001 2.0032918 93
0.25195092 0.47391114 2.1025403 47
0.33640867 0.63326991 2.0042257 38
0.44185472 0.83244252 2.0116253 95
0.55837154 1.0519428 2.0182064 85
0.68942738 1.2988333 2.0211978 87
0.84297204 1.5880905 2.0274065 90
0.92528439 1.7542329 2.0287795 79
1.1256334 2.1340621 2.0271409 71
1.3904508 2.6350064 2.0379696 63
1.8097825 3.4296622 2.1155894 5
2.2642155 4.2890291 2.0478432 14
3.1433837 5.9518895 2.0671437 35
4.9826517 9.4344778 2.1171229 21
1.8517709 3.5047855 0.44811442 4
1.0252924 1.9372696 2.0326567 79
1.2533036 2.3670905 2.0338128 67
1.5562217 2.9391978 2.0391736 61
1.9868417 3.7509143 2.049655 56
2.6515305 5.0036526 2.0589211 41
3.8635924 7.2878332 2.0801759 27
1.9049294 3.5917263 0.6585393 2
nan nan nan 0
0.015142296 0.02745134 1.9991974 75
0.14896204 0.27715737 2.0008237 97
0.19941656 0.37308025 2.057256 42
0.30298114 0.56772101 2.1031654 38
0.38946837 0.73006105 2.0089202 93
0.50068742 0.93891472 2.0165036 83
0.62397081 1.1700897 2.0202241 83
0.76722854 1.4387207 2.0280902 69
0.060371578 0.10984442 2.0010643 89
0.10683272 0.19203827 2.0032918 93
0.25360364 0.47302875 2.1025403 49
0.33780226 0.63057065 1.9995331 48
0.44475782 0.83089507 2.0116253 93
0.56204003 1.0499873 2.0182064 87
0.69395685 1.2964188 2.0211978 87
0.84851038 1.5851382 2.0274065 88
0.93140221 1.7509923 2.0287795 77
1.1330757 2.1301198 2.0271409 71
1.3996402 2.6301367 2.0379696 63
1.8238243 3.4272344 2.1179073 5
2.2791734 4.2810988 2.0478432 9
3.1641405 5.9408808 2.0671437 34
5.0063181 9.3996859 2.1133926 21
1.8991209 3.5642264 0.45480755 3
1.0320485 1.9336787 2.0326567 79
1.2615588 2.3627012 2.0338128 69
1.5664719 2.9337475 2.0391736 62
1.9999229 3.7439561 2.049655 56
2.6712062 4.9985309 2.0605636 38
3.8867164 7.2700162 2.0790036 31
1.9221267 3.5937889 0.65991896 2
nan nan nan 0
0.015238025 0.027398314 1.9991974 75
0.1499286 0.27663571 2.0008237 97
0.20265038 0.37596691 2.0768371 39
0.30496103 0.56665993 2.1031654 38
0.39201435 0.72869712 2.0089202 95
0.50396186 0.93716121 2.0165036 81
0.6280514 1.1679045 2.0202241 83
0.772246 1.4360338 2.0280902 68
0.060613859 0.10937997 1.9960728 89
0.10750241 0.19166417 2.0032918 93
0.25525329 0.47214064 2.1025403 53
0.3408215 0.63090587 2.0042257 58
0.44765547 0.82933748 2.0116253 86
0.56570184 1.0480189 2.0182064 87
0.6984781 1.2939885 2.0211978 87
0.85403842 1.5821667 2.0274065 88
0.93750864 1.7477304 2.0287795 77
1.1405042 2.1261518 2.0271409 71
1.4088125 2.6252351 2.0379696 63
1.8588201 3.4637873 2.1434057 5
2.2941031 4.2731171 2.0478432 9
3.1825888 5.9255733 2.0657346 34
5.0298009 9.3648415 2.1096621 20
1.9115508 3.5575755 0.45480755 3
1.038792 1.9300644 2.0326567 79
1.2697984 2.358283 2.0338128 69
1.5767031 2.9282618 2.0391736 61
2.0129793 3.7369523 2.049655 58
2.6908784 4.9933333 2.0622063 38
3.9097633 7.2521272 2.0778313 30
1.9440627 3.6044917 0.66267818 2
1.5964682 2.9587808 0.2292957 2
0.015333571 0.027344957 1.9991974 77
0.1508933 0.27611065 2.0008237 97
0.20590678 0.3788355 2.0964177 40
0.30693716 0.56559193 2.1031654 39
0.3945556 0.72732431 2.0089202 93
0.5072301 0.93539637 2.0165036 83
0.6321243 1.1657051 2.0202241 83
0.77725399 1.4333295 2.0280902 68
0.060995296 0.10916772 1.9960728 89
0.10817079 0.19128774 2.0032918 93
0.2568998 0.47124678 2.1025403 53
0.34302169 0.62971234 2.0042257 60
0.45054767 0.82776982 2.0116253 80
0.56935662 1.0460379 2.0182064 87
0.70299065 1.2915424 2.0211978 87
0.85955596 1.5791758 2.0274065 88
0.94360358 1.7444474 2.0287795 77
1.1479189 2.1221578 2.0271409 71
1.4179678 2.6203017 2.0379696 63
1.8603573 3.4377964 2.1318154 7
2.3090053 4.2650833 2.0478432 5
3.2032535 5.9144278 2.0657346 30
5.0554419 9.3342705 2.1068642 19
1.9880137 3.6691043 0.4668552 5
1.0437415 1.9231442 2.0293317 79
1.2780226 2.3538361 2.0338128 69
1.5869151 2.92274 2.0391736 61
2.0260115 3.729903 2.049655 58
2.7082918 4.9839101 2.0622063 39
3.9327328 7.2341642 2.076659 30
1.9613651 3.6063852 0.66405785 2
1.5757467 2.8961406 0.22667581 2
0.015428929 0.027291266 1.9991974 77
0.15185618 0.27558228 2.0008237 97
0.20771736 0.37900731 2.1013131 42
0.3089096 0.5645172 2.1031654 40
0.39709204 0.72594261 2.0089202 91
0.51049209 0.9336201 2.0165036 83
0.63753957 1.1659606 2.0243571 77
0.78225243 1.4306076 2.0280902 68
0.061375991 0.10895415 1.9960728 89
0.10883784 0.19090901 2.0032918 93
0.25914913 0.47144935 2.1073792 58
0.34521773 0.62851113 2.0042257 62
0.45343441 0.82619202 2.0116253 78
0.57300454 1.0440441 2.0182064 87
0.70749468 1.2890806 2.0211978 84
0.86506307 1.5761658 2.0274065 90
0.94968712 1.7411429 2.0287795 77
1.1571838 2.1215556 2.0302787 71
1.4271057 2.6153359 2.0379696 63
1.8723462 3.4312816 2.1318154 8
2.3238792 4.2569976 2.0478432 3
3.2169809 5.8905792 2.061507 24
5.0856385 9.3122549 2.1059318 20
1.9840953 3.6315506 0.46373177 6
1.0504482 1.9194893 2.0293317 79
1.2842902 2.3458154 2.0308697 67
1.5971076 2.9171829 2.0391736 61
2.0390189 3.7228081 2.049655 59
2.7256725 4.9744258 2.0622063 39
3.9556241 7.2161303 2.0754867 29
1.99061 3.6299114 0.66888654 2
1.5858464 2.8906224 0.22667581 2
0.0155241 0.027237244 1.9991974 77
0.15281723 0.27505052 2.0008237 97
0.20953162 0.3791711 2.1062086 42
0.31087825 0.56343538 2.1031654 42
0.39962366 0.72455204 2.0089202 91
0.51374799 0.93183255 2.0165036 83
0.64160568 1.163728 2.0243571 77
0.78724146 1.4278684 2.0280902 68
0.06175594 0.10873923 1.9960728 89
0.10950358 0.19052792 2.0032918 93
0.26079321 0.47054189 2.1073792 60
0.34740955 0.62730223 2.0042257 62
0.45631558 0.82460427 2.0116253 71
0.57664543 1.0420377 2.0182064 87
0.71199012 1.2866032 2.0211978 87
0.87055969 1.5731367 2.0274065 90
0.95404035 1.7346923 2.025275 75
1.1645824 2.1175032 2.0302787 69
1.4362261 2.6103384 2.0379696 63
1.8757694 3.409199 2.1225433 7
2.34096 4.2529206 2.0497162 3
3.2305813 5.8667068 2.0572793 12
5.1157441 9.290143 2.1049991 19
1.5738379 2.8568983 0.38519883 40
1.057142 1.9158107 2.0293317 77
1.2924708 2.3413179 2.0308697 67
1.6072807 2.9115901 2.0391736 61
2.0520015 3.715668 2.049655 59
2.7430201 4.9648814 2.0622063 40
3.9784374 7.1980243 2.0743141 29
1.9936833 3.6056056 0.66612726 2
1.6031817 2.8981841 0.22728041 2
0.015619081 0.027182888 1.9991974 77
0.15377641 0.27451539 2.0008237 96
0.2108539 0.3784374 2.1062086 42
0.31284308 0.56234676 2.1031654 38
0.40215039 0.7231527 2.0089202 93
0.51699752 0.9300335 2.0165036 83
0.64566392 1.1614813 2.0243571 83
0.79222083 1.4251117 2.0280902 66
0.06213513 0.108523 1.9960728 89
0.11016798 0.19014452 2.0032918 93
0.26243412 0.46962866 2.1073792 60
0.34959713 0.62608576 2.0042257 60
0.46025234 0.82490814 2.0161262 61
0.58027929 1.0400183 2.0182064 85
0.71647686 1.2841101 2.0211978 87
0.87604564 1.5700881 2.0274065 88
0.9600898 1.7313515 2.025275 77
1.1719667 2.1134253 2.0302787 69
1.4453292 2.6053092 2.0379696 63
1.881211 3.3910089 2.1155894 6
2.358041 4.2487774 2.0515895 3
3.2766562 5.9015307 2.0727806 5
5.1457567 9.2679348 2.1040664 17
1.5765462 2.8383262 0.3838602 40
1.063823 1.9121089 2.0293317 77
1.3006357 2.3367922 2.0308697 64
1.6174344 2.905962 2.0391736 61
2.0649593 3.7084825 2.049655 59
2.7626319 4.9594021 2.063849 40
4.0035391 7.1840925 2.0743141 30
2.0062573 3.5986245 0.66612726 2
nan nan nan 0
0.015713871 0.027128201 1.9991974 78
0.15473372 0.27397695 2.0008237 95
0.21217361 0.37769911 2.1062086 42
0.31480414 0.56125134 2.1031654 37
0.4056277 0.72344869 2.0135226 93
0.52024078 0.92822319 2.0165036 83
0.64971435 1.1592203 2.0243571 83
0.79719061 1.4223375 2.0280902 64
0.062513568 0.10830545 1.9960728 89
0.11083104 0.18975881 2.0032918 93
0.26407182 0.46870971 2.1073792 60
0.35178044 0.6248616 2.0042257 58
0.46312898 0.82329655 2.0161262 55
0.58390611 1.0379865 2.0182064 87
0.72095484 1.2816013 2.0211978 87
0.88152093 1.5670208 2.0274065 88
0.96612746 1.7279896 2.025275 77
1.1793368 2.1093214 2.0302787 69
1.4544147 2.6002481 2.0379696 63
1.8843856 3.3689551 2.106317 6
2.3751216 4.2445655 2.0534625 4
3.3675363 6.0156384 2.1150563 3
5.1756778 9.2456293 2.1031337 22
1.5791441 2.8197708 0.38252157 39
1.070491 1.9083838 2.0293317 79
1.3107628 2.335763 2.0338128 48
1.6275681 2.9002986 2.0391736 61
2.0778916 3.7012517 2.049655 59
2.7799265 4.9497285 2.063849 41
4.0285921 7.1700745 2.0743141 29
2.0188062 3.5915992 0.66612726 2
nan nan nan 0
0.015808471 0.027073186 1.9991974 77
0.15568912 0.27343518 2.0008237 96
0.21349074 0.37695616 2.1062086 40
0.31676134 0.56014907 2.1031654 37
0.40815055 0.72202837 2.0135226 95
0.52347773 0.9264015 2.0165036 81
0.6537568 1.1569455 2.0243571 83
0.80215067 1.4195461 2.0280902 71
0.062891245 0.10808658 1.9960728 88
0.11149274 0.18937078 2.0032918 93
0.26570633 0.46778512 2.1073792 58
0.35395944 0.62362987 2.0042257 60
0.46599999 0.82167494 2.0161262 54
0.58752573 1.035942 2.0182064 89
0.72542411 1.2790769 2.0211978 80
0.88698542 1.5639341 2.0274065 90
0.97390467 1.7277135 2.0287795 79
1.1866925 2.1051919 2.0302787 69
1.4634823 2.5951552 2.0379696 63
1.8874292 3.3469212 2.0970449 5
2.3922012 4.2402864 2.0553353 5
3.4003038 6.0247359 2.1221023 2
5.2055049 9.2232285 2.102201 23
1.5840803 2.8055682 0.38162914 39
1.0771461 1.9046357 2.0293317 79
1.318908 2.3311732 2.0338128 35
1.6376821 2.8945994 2.0391736 61
2.0907989 3.6939759 2.049655 62
2.7995145 4.9441042 2.0654917 46
4.0559916 7.1601977 2.0754867 28
2.0313311 3.5845304 0.66612726 2
nan nan nan 0
0.015902877 0.027017839 1.9991974 77
0.15664265 0.27289003 2.0008237 97
0.21480526 0.3762086 2.1062086 40
0.31871474 0.55903995 2.1031654 37
0.41066843 0.72059923 2.0135226 95
0.52670825 0.92456865 2.0165036 83
0.65779132 1.1546563 2.0243571 83
0.80710083 1.4167376 2.0280902 76
0.063268155 0.10786639 1.9960728 89
0.11215308 0.18898045 2.0032918 93
0.26733759 0.46685475 2.1073792 58
0.35613418 0.62239057 2.0042257 62
0.46886536 0.82004333 2.0161262 54
0.5911383 1.0338849 2.0182064 87
0.73138046 1.2791532 2.025187 70
0.89243925 1.5608284 2.0274065 90
0.97992957 1.7243034 2.0287795 73
1.1940339 2.1010368 2.0302787 69
1.4704657 2.5863962 2.035228 63
1.8881527 3.3210564 2.0854549 6
2.4069879 4.2319102 2.0553353 7
3.4260588 6.0211692 2.1249206 3
5.237668 9.2050018 2.102201 23
1.5840093 2.7827096 0.37984428 28
1.0837879 1.900864 2.0293317 79
1.3290401 2.3300664 2.036756 30
1.6477762 2.8888652 2.0391736 60
2.1036804 3.6866555 2.049655 67
2.8167558 4.9343019 2.0654917 49
4.0833712 7.1502171 2.076659 36
2.0585709 3.6032176 0.67026615 2
nan nan nan 0
0.015997089 0.026962163 1.9991974 77
0.15759425 0.27234161 2.0008237 95
0.21611717 0.37545654 2.1062086 40
0.3206642 0.55792397 2.1031654 37
0.4131813 0.71916133 2.0135226 95
0.52993244 0.92272449 2.0165036 83
0.66041636 1.1499131 2.0202241 83
0.81204128 1.4139116 2.0280902 80
0.063644297 0.10764489 1.9960728 89
0.11281206 0.1885878 2.0032918 91
0.26833668 0.46482947 2.1025403 62
0.35830456 0.62114364 2.0042257 66
0.47172499 0.81840163 2.0161262 54
0.59474367 1.0318151 2.0182064 87
0.7358411 1.2765925 2.025187 53
0.89788216 1.5577036 2.0274065 90
0.98594254 1.7208723 2.0287795 75
1.2013605 2.0968561 2.0302787 69
1.4794848 2.5812473 2.035228 63
1.8865156 3.2913835 2.0715468 6
2.4194393 4.2194614 2.0534625 7
3.4255719 5.9717216 2.1122379 4
5.2673235 9.1824026 2.1012685 21
1.586277 2.7642055 0.37850568 28
1.0904164 1.8970693 2.0293317 79
1.3371655 2.3254128 2.036756 30
1.6578504 2.8830957 2.0391736 62
2.1165366 3.6792898 2.049655 69
2.8339622 4.9244399 2.0654917 49
4.1107302 7.1401324 2.0778313 38
2.0760791 3.6045926 0.67164582 2
nan nan nan 0
0.016091108 0.026906159 1.9991974 78
0.15854396 0.27178982 2.0008237 95
0.21742642 0.37469986 2.1062086 40
0.32335854 0.55809349 2.1079371 37
0.41568908 0.71771467 2.0135226 93
0.53315008 0.92086899 2.0165036 83
0.66442621 1.1476007 2.0202241 81
0.81697184 1.4110684 2.0280902 81
0.064019658 0.10742208 1.9960728 89
0.11346968 0.18819286 2.0032918 93
0.26995763 0.46388996 2.1025403 60
0.36047056 0.61988908 2.0042257 69
0.47457886 0.81674999 2.0161262 54
0.59834176 1.0297327 2.0182064 87
0.74029279 1.274016 2.025187 34
0.90331405 1.5545599 2.0274065 88
0.99194348 1.7174201 2.0287795 77
1.2086725 2.0926497 2.0302787 69
1.4884862 2.5760674 2.035228 63
1.8869112 3.2655985 2.0599566 12
2.4341533 4.21099 2.0534625 7
3.4343886 5.9389629 2.1051919 6
5.2993445 9.1639595 2.1012685 20
1.5884347 2.7457192 0.37716705 39
1.097032 1.8932515 2.0293317 79
1.3452743 2.3207312 2.036756 37
1.6679039 2.8772912 2.0391736 62
2.1293664 3.6718793 2.049655 68
2.8511345 4.9145169 2.0654917 36
4.1405087 7.1341472 2.0801759 38
2.1010814 3.6187372 0.6750949 2
1.5907558 2.7386925 0.22143602 2
0.01618493 0.026849825 1.9991974 78
0.1594917 0.27123475 2.0008237 97
0.21873307 0.37393862 2.1062086 39
0.32530469 0.55696142 2.1079371 37
0.41819185 0.71625924 2.0135226 93
0.53636134 0.91900235 2.0165036 83
0.66842806 1.1452744 2.0202241 83
0.82350838 1.4109768 2.0319271 80
0.064394243 0.10719795 1.9960728 89
0.11412591 0.18779562 2.0032918 93
0.27157527 0.46294484 2.1025403 56
0.36263216 0.61862707 2.0042257 79
0.47742695 0.81508851 2.0161262 50
0.60193253 1.0276378 2.0182064 89
0.74473542 1.2714243 2.025187 30
0.90873498 1.5513973 2.0274065 90
0.99793237 1.7139472 2.0287795 77
1.2159699 2.0884178 2.0302787 69
1.4974692 2.5708559 2.035228 61
1.88269 3.2321951 2.0437305 8
2.4465036 4.198462 2.0515895 7
3.4309387 5.8854938 2.0911002 8
5.3337741 9.1496496 2.102201 21
1.5904831 2.7272522 0.37582842 38
1.1017505 1.8861862 2.0260069 79
1.3513277 2.3125312 2.0338128 54
1.6779374 2.8714519 2.0391736 61
2.1421709 3.6644237 2.049655 60
2.8682721 4.9045348 2.0654917 22
4.1653867 7.1196508 2.0801759 37
2.1187036 3.6199286 0.67647451 2
1.5927328 2.7201891 0.22083142 1
0.016278554 0.026793167 1.9991974 78
0.16043751 0.27067637 2.0008237 97
0.22003701 0.37317282 2.1062086 39
0.32724687 0.55582249 2.1079371 38
0.42068955 0.71479517 2.0135226 95
0.53956598 0.91712451 2.0165036 83
0.67242175 1.1429342 2.0202241 83
0.82842857 1.4080936 2.0319271 76
0.064768039 0.10697252 1.9960728 89
0.11478073 0.18739612 2.0032918 91
0.27318957 0.46199402 2.1025403 56
0.3647894 0.61735743 2.0042257 89
0.48026919 0.81341696 2.0161262 45
0.6055159 1.0255306 2.0182064 87
0.74916887 1.2688169 2.025187 30
0.91414475 1.5482159 2.0274065 92
1.0021039 1.7073776 2.025275 77
1.2232525 2.0841606 2.0302787 69
1.5064341 2.5656133 2.035228 58
1.8939608 3.2256038 2.0437305 8
2.461144 4.1898966 2.0515895 7
3.4271564 5.8321214 2.077008 9
5.3656793 9.1309757 2.102201 20
1.5924219 2.7088044 0.37448978 38
1.1083277 1.8823289 2.0260069 79
1.3593917 2.3078001 2.0338128 67
1.6879505 2.8655772 2.0391736 60
2.1526449 3.6530135 2.0475569 60
2.8853748 4.8944926 2.0654917 22
4.1926818 7.1092534 2.0813482 37
2.1690726 3.6764889 0.68682176 2
1.5869821 2.6887984 0.21962222 1
0.01637198 0.026736181 1.9991974 78
0.16138136 0.27011469 2.0008237 97
0.22133829 0.37240243 2.1062086 40
0.32918504 0.55467677 2.1079371 38
0.42318204 0.71332234 2.0135226 95
0.54276407 0.91523546 2.0165036 81
0.67640728 1.1405801 2.0202241 83
0.83333868 1.4051932 2.0319271 69
0.065141052 0.10674579 1.9960728 89
0.11543418 0.18699431 2.0032918 91
0.27480057 0.46103761 2.1025403 53
0.36694214 0.61608034 2.0042257 93
0.48310563 0.81173557 2.0161262 47
0.60909206 1.0234106 2.0182064 87
0.75359339 1.2661941 2.025187 35
0.9195435 1.5450155 2.0274065 92
1.0080576 1.7038692 2.025275 75
1.2305201 2.0798779 2.0302787 69
1.5153804 2.560339 2.035228 58
1.9029522 3.2151606 2.0414124 14
2.4757545 4.1812801 2.0515895 7
3.4352691 5.7994847 2.069962 10
5.4000235 9.116416 2.1031337 21
1.5967901 2.6946604 0.37359735 38
