# .PCD v0.7 - Point Cloud Data file format
VERSION 0.7
FIELDS x y z intensity
SIZE 4 4 4 4
TYPE F F F F
COUNT 1 1 1 1
WIDTH 1328
HEIGHT 1
VIEWPOINT 0 0 0 1 0 0 0
POINTS 1328
DATA ascii
-0.20950697 -1.1205865 0.68304878 31
-0.22443077 -1.1992495 0.58125854 32
-0.24031572 -1.2828918 0.47334358 29
-0.25233999 -1.3470808 0.35167316 25
-0.27162614 -1.4486389 0.22500947 14
-0.17748766 -0.94296265 0.93545663 34
-0.18832186 -0.99956167 0.82417381 35
-0.20308188 -1.0778878 0.729909 33
-0.21804759 -1.1562105 0.63137144 32
-0.23311576 -1.2349259 0.52629608 32
-0.24820024 -1.3135768 0.41314036 30
-0.26226082 -1.3866638 0.28879806 17
-0.27780783 -1.4674627 0.15392315 11
-0.0063220439 -0.030662082 1.9941976 77
-0.060032077 -0.30808067 1.9958843 97
-0.078225166 -0.40640795 2.0131991 107
-0.11474868 -0.59825289 1.9934158 86
-0.15426932 -0.80498719 1.99051 95
-0.19740076 -1.030969 1.9901714 23
-0.24726214 -1.2913501 2.0036924 82
-0.25237387 -1.3180318 1.6827651 76
-0.025066979 -0.12251393 1.9960728 89
-0.045044769 -0.21454255 1.9983203 93
-0.097320698 -0.50222367 2.0057559 96
-0.1352071 -0.69894403 1.9901476 93
-0.17661618 -0.91465712 1.9891212 95
-0.22333036 -1.1565447 1.9968767 89
-0.25423139 -1.3165467 1.8496493 79
-0.25476536 -1.3192981 1.5349344 85
-0.27155897 -1.4263083 1.506602 67
-0.1825942 -0.95903862 0.86930102 31
-0.19688819 -1.0331314 0.77415359 33
-0.21092913 -1.1067927 0.67609471 31
-0.22600952 -1.1847974 0.57563943 32
-0.24209315 -1.2679085 0.46911597 28
-0.25243413 -1.3220664 0.34701005 23
-0.27200681 -1.4232243 0.22277844 13
-0.18429607 -0.9606747 0.95208085 35
-0.1895231 -0.9869898 0.81534433 34
-0.20440412 -1.0644705 0.72231174 32
-0.21951221 -1.1420714 0.62507725 32
-0.23385631 -1.215555 0.51972532 31
-0.24726923 -1.2840648 0.40610641 28
-0.26428774 -1.3711518 0.28672859 15
-0.27724999 -1.4370511 0.15271395 11
-0.0064290361 -0.030639827 1.9941976 75
-0.061107114 -0.30786923 1.9958843 97
-0.079643317 -0.40613243 2.0131991 107
-0.11683626 -0.59784877 1.9934158 86
-0.15707833 -0.80444378 1.99051 95
-0.20099832 -1.0302737 1.9901714 24
-0.25122944 -1.2877173 1.9995594 82
-0.25758705 -1.3202896 1.6866022 74
-0.025494481 -0.12242569 1.9960728 89
-0.045793392 -0.21438402 1.9983203 93
-0.099073194 -0.50188094 2.0057559 96
-0.13764605 -0.69846779 1.9901476 93
-0.17980786 -0.91403508 1.9891212 95
-0.2273661 -1.1557581 1.9968767 89
-0.25882545 -1.3156513 1.8496493 77
-0.25936899 -1.3184009 1.5349344 85
-0.27653608 -1.4253517 1.506602 73
-0.18445787 -0.95075232 0.86302549 30
-0.19810186 -1.0201234 0.76592922 33
-0.21225758 -1.0930027 0.66914064 31
-0.22837469 -1.1748997 0.57189339 32
-0.24102035 -1.2388015 0.46066082 26
-0.25423303 -1.3067114 0.34421217 20
-0.27126148 -1.3929369 0.22010118 12
-0.20985629 -1.0736402 1.0551512 99
-0.19063887 -0.97442174 0.8065148 34
-0.20480739 -1.0468265 0.71218204 30
-0.22088084 -1.1279366 0.61878312 32
-0.23537286 -1.2008284 0.51479733 31
-0.24987839 -1.2736545 0.4037618 27
-0.26334682 -1.3410648 0.2825897 14
-0.27744687 -1.4115639 0.15170631 11
-0.0065359501 -0.0306172 1.9941976 75
-0.062181406 -0.30765402 1.9958843 96
-0.081060499 -0.40585193 2.0131991 107
-0.11892244 -0.59743726 1.9934158 86
-0.15988539 -0.80389059 1.99051 95
-0.20459342 -1.0295658 1.9901714 27
-0.25572288 -1.2868325 1.9995594 84
-0.26219416 -1.3193824 1.6866022 74
-0.025921671 -0.12233596 1.9960728 89
-0.046541449 -0.21422286 1.9983203 93
-0.10082448 -0.50153202 2.0057559 96
-0.14008333 -0.69798309 1.9901476 93
-0.18299733 -0.91340184 1.9891212 93
-0.23139906 -1.1549574 1.9968767 89
-0.26400846 -1.3176949 1.8536386 77
-0.26396951 -1.3174875 1.5349344 83
-0.28220126 -1.4278762 1.5101067 73
-0.18626586 -0.94246447 0.85674983 31
-0.19922718 -1.0071199 0.75770473 33
-0.2143521 -1.0835632 0.66450459 32
-0.22887264 -1.1559048 0.56440127 31
-0.24254525 -1.2238353 0.45643324 26
-0.25592783 -1.2913605 0.34141433 18
-0.27224606 -1.3724421 0.21831635 12
-0.23474878 -1.1791128 1.1515718 102
-0.19087932 -0.95789409 0.79474217 30
-0.20424746 -1.0249647 0.69951987 30
-0.22215346 -1.1138061 0.61248899 32
-0.23678948 -1.1861062 0.50986928 30
-0.25051308 -1.2537088 0.39907253 25
-0.26317036 -1.3158571 0.27914062 12
-0.27844986 -1.3909918 0.15090019 10
-0.006642784 -0.030594196 1.9941976 75
-0.063254938 -0.30743513 1.9958843 96
-0.08247669 -0.40556651 2.0131991 107
-0.12100716 -0.59701848 1.9934158 88
-0.16307837 -0.80524242 1.9951125 95
-0.20818603 -1.0288453 1.9901714 36
-0.2602132 -1.2859319 1.9995594 84
-0.26679808 -1.318459 1.6866022 73
-0.026410034 -0.12252768 2.0010643 89
-0.047288943 -0.21405911 1.9983203 95
-0.10257454 -0.50117707 2.0057559 96
-0.14251889 -0.69748986 1.9901476 93
-0.18661986 -0.91489118 1.9936218 81
-0.23542921 -1.1541426 1.9968767 89
-0.26860645 -1.3167653 1.8536386 79
-0.26856679 -1.316558 1.5349344 83
-0.28718379 -1.4268825 1.5101067 73
-0.18878642 -0.93799227 0.85361207 33
-0.19861259 -0.98592293 0.74399745 26
-0.21025899 -1.0437217 0.64364231 27
-0.22924083 -1.136921 0.55690914 28
-0.24301957 -1.2041712 0.45079646 22
-0.25849035 -1.2808288 0.33954909 17
-0.27111882 -1.3421947 0.21563908 12
-0.30786505 -1.5186573 1.4607828 85
-0.19020297 -0.9374156 0.78002638 21
-0.20353743 -1.0031197 0.68685776 21
-0.21339406 -1.0507556 0.58311623 19
-0.23998761 -1.1806446 0.50822657 17
-0.25488779 -1.2528268 0.39907253 15
-0.2628212 -1.2906677 0.27569154 8
-0.28130814 -1.3802207 0.15049712 8
-0.0067495373 -0.030570822 1.9941976 77
-0.064327709 -0.30721244 1.9958843 96
-0.083891876 -0.40527615 2.0131991 107
-0.12309041 -0.59659249 1.9934158 84
-0.16588818 -0.80466819 1.9951125 95
-0.21177611 -1.0281124 1.9901714 44
-0.26470035 -1.2850158 1.9995594 82
-0.27139875 -1.3175198 1.6866022 73
-0.026837572 -0.12243475 2.0010643 89
-0.048035864 -0.21389273 1.9983203 93
-0.10406678 -0.49958456 2.0009167 96
-0.1449527 -0.69698817 1.9901476 93
-0.18981229 -0.91423422 1.9936218 64
-0.23945649 -1.1533139 1.9968767 89
-0.27320123 -1.3158196 1.8536386 77
-0.27316079 -1.3156124 1.5349344 81
-0.29216278 -1.4258714 1.5101067 73
-0.1928409 -0.94114113 0.85674983 34
-0.19785251 -0.96474278 0.73029011 18
-0.20144014 -0.98222309 0.61118996 16
-0.20897132 -1.018042 0.5082103 9
nan nan nan 0
nan nan nan 0
nan nan nan 0
-0.32448515 -1.5724326 1.5106553 75
-0.18856846 -0.91299522 0.76236743 10
-0.20006132 -0.96862626 0.66659838 14
-0.20695373 -1.0011144 0.56003767 7
nan nan nan 0
nan nan nan 0
nan nan nan 0
nan nan nan 0
-0.0068562082 -0.030547077 1.9941976 77
-0.065399684 -0.30698603 1.9958843 95
-0.085306048 -0.40498081 2.0131991 107
-0.12517215 -0.59615916 1.9934158 84
-0.16869599 -0.8040843 1.9951125 95
-0.21536361 -1.0273669 1.9901714 64
-0.26918432 -1.2840841 1.9995594 82
-0.27665386 -1.319702 1.6904391 73
-0.027264789 -0.12234033 2.0010643 89
-0.048782192 -0.21372375 1.9983203 93
-0.10581003 -0.49921829 2.0009167 95
-0.14738476 -0.69647789 1.9901476 93
-0.1930024 -0.91356605 1.9936218 35
-0.24348083 -1.1524709 1.9968767 91
-0.27841562 -1.3178068 1.8576282 77
-0.27775148 -1.314651 1.5349344 83
-0.29713818 -1.4248428 1.5101067 73
-0.21043035 -1.0090581 0.91322988 37
-0.19609265 -0.93948698 0.71384132 18
-0.18495305 -0.8861056 0.56019336 7
-0.18597892 -0.89024365 0.45576534 4
nan nan nan 0
nan nan nan 0
nan nan nan 0
-0.329972 -1.5712904 1.5106553 79
-0.1875972 -0.89255363 0.74765164 6
-0.1981205 -0.94260764 0.65140384 14
-0.19923528 -0.94709009 0.53486103 7
nan nan nan 0
nan nan nan 0
nan nan nan 0
nan nan nan 0
-0.0069627957 -0.030522957 1.9941976 78
-0.066470869 -0.3067559 1.9958843 95
-0.086719178 -0.40468061 2.0131991 106
-0.12725239 -0.59571862 1.9934158 89
-0.17150174 -0.80349052 1.9951125 93
-0.21894845 -1.0266089 1.9901714 81
-0.27366495 -1.2831366 1.9995594 82
-0.28125876 -1.3187282 1.6904391 73
-0.02769167 -0.12224441 2.0010643 89
-0.049527932 -0.21355216 1.9983203 93
-0.10755198 -0.49884588 2.0009167 95
-0.14981504 -0.69595915 1.9901476 93
-0.19664779 -0.91501594 1.9981228 27
-0.24750222 -1.1516141 1.9968767 91
-0.28301394 -1.3168271 1.8576282 79
-0.28233877 -1.3136734 1.5349344 83
-0.30211002 -1.4237969 1.5101067 75
-0.24546494 -1.1568322 1.0356033 103
-0.1950276 -0.91834575 0.70013404 21
-0.18804501 -0.8854546 0.56019336 7
-0.18908532 -0.88958901 0.45576534 4
nan nan nan 0
nan nan nan 0
nan nan nan 0
-0.33545482 -1.570129 1.5106553 79
-0.18733083 -0.87608272 0.735879 6
-0.18968999 -0.88710314 0.61848223 21
-0.19019251 -0.88869458 0.5075863 9
nan nan nan 0
nan nan nan 0
nan nan nan 0
nan nan nan 0
-0.0070797433 -0.03054083 1.9991974 77
-0.067541242 -0.30652198 1.9958843 96
-0.088131249 -0.4043754 2.0131991 107
-0.12933104 -0.59527081 1.9934158 89
-0.17430539 -0.8028869 1.9951125 93
-0.22253066 -1.0258384 1.9901714 81
-0.27873886 -1.2849236 2.0036924 82
-0.28653997 -1.3208715 1.6942761 73
-0.028118214 -0.122147 2.0010643 89
-0.050273065 -0.21337797 1.9983203 93
-0.10956207 -0.49969605 2.0057559 96
-0.15224347 -0.69543201 1.9901476 93
-0.19984059 -0.91432393 1.9981228 27
-0.2515206 -1.150743 1.9968767 91
-0.28825235 -1.3187754 1.8616177 77
-0.28764656 -1.3159919 1.5386096 83
-0.30707815 -1.4227337 1.5101067 75
-0.34231177 -1.5859593 1.3901721 95
-0.19381739 -0.89722359 0.68642664 29
-0.19019921 -0.88046241 0.55787534 24
-0.1931691 -0.89345479 0.45763835 13
nan nan nan 0
nan nan nan 0
nan nan nan 0
-0.34093353 -1.5689485 1.5106553 79
-0.18781075 -0.86357445 0.72704947 6
-0.19370162 -0.89064837 0.62101465 28
-0.19522406 -0.89689463 0.51178247 21
-0.19110925 -0.87725395 0.40145203 7
nan nan nan 0
nan nan nan 0
nan nan nan 0
-0.0071863076 -0.030515932 1.9991974 77
-0.068610787 -0.30628434 1.9958843 96
-0.08954224 -0.40406531 2.0131991 108
-0.13140814 -0.59481567 1.9934158 89
-0.17710695 -0.80227363 1.9951125 95
-0.22611015 -1.0250553 1.9901714 83
-0.28322235 -1.2839427 2.0036924 82
-0.29114896 -1.3198632 1.6942761 73
-0.028477997 -0.12176626 1.9960728 88
-0.05101759 -0.21320118 1.9983203 93
-0.11130567 -0.49931055 2.0057559 96
-0.15467004 -0.69489628 1.9901476 93
-0.20303094 -0.91362077 1.9981228 28
-0.2555359 -1.1498581 1.9968767 89
-0.29350793 -1.3207035 1.8656073 77
-0.29223847 -1.3149798 1.5386096 81
-0.31204253 -1.4216532 1.5101067 73
-0.37371853 -1.7026272 1.4874432 56
-0.19605093 -0.89245749 0.68368518 31
-0.19422202 -0.88412023 0.56019336 27
-0.19628665 -0.89277512 0.45763835 15
-0.19079944 -0.86709607 0.35074356 5
-0.19318387 -0.87793207 0.26214162 5
nan nan nan 0
-0.3464081 -1.5677488 1.5106553 79
-0.18907849 -0.85502023 0.72116315 6
-0.1968094 -0.88996685 0.62101465 29
-0.19737285 -0.89177644 0.50968438 21
-0.19417028 -0.87658155 0.40145203 8
-0.19044726 -0.8590641 0.30294251 8
-0.19305483 -0.87010735 0.21636739 5
-0.19705141 -0.88738751 0.13034403 5
-0.0072927838 -0.030490661 1.9991974 77
-0.069679499 -0.30604297 1.9958843 96
-0.090952143 -0.4037503 2.0131991 107
-0.13348363 -0.59435338 1.9934158 89
-0.17990632 -0.80165052 1.9951125 95
-0.22968687 -1.0242598 1.9901714 85
-0.28770241 -1.2829461 2.0036924 82
-0.29645586 -1.3219671 1.698113 73
-0.028902866 -0.12166611 1.9960728 88
-0.051761489 -0.2130218 1.9983203 93
-0.1130479 -0.49891895 2.0057559 96
-0.15709475 -0.69435221 1.9901476 93
-0.20621885 -0.91290653 1.9981228 30
-0.2595481 -1.1489592 1.9968767 87
-0.29811624 -1.3196709 1.8656073 74
-0.29757386 -1.3172584 1.5422847 81
-0.31700316 -1.4205552 1.5101067 73
-0.38389888 -1.7203093 1.503132 75
-0.19825356 -0.88768685 0.68094373 31
-0.19730699 -0.88343692 0.56019336 27
-0.20041311 -0.89660865 0.4595114 17
-0.19382501 -0.8664248 0.35074356 9
-0.19303003 -0.86287117 0.25934377 9
-0.19797857 -0.88426715 0.17414156 9
-0.35187843 -1.5665302 1.5106553 79
-0.19206192 -0.8543551 0.72116315 5
-0.20086037 -0.8934806 0.62354708 30
-0.20048453 -0.89108205 0.50968438 21
-0.1961915 -0.87129128 0.39980936 8
-0.19665055 -0.87261921 0.30645946 9
-0.1928222 -0.85493565 0.21429795 9
-0.1979477 -0.87694758 0.12994097 11
-0.0073991716 -0.03046502 1.9991974 77
-0.070747368 -0.3057979 1.9958843 97
-0.092360944 -0.40343034 2.0131991 106
-0.1355575 -0.59388381 1.9934158 88
-0.1827035 -0.80101764 1.9951125 95
-0.23272842 -1.021116 1.9857829 83
-0.29217899 -1.2819341 2.0036924 76
-0.30106857 -1.3209243 1.698113 73
-0.029327385 -0.12156448 1.9960728 89
-0.052504756 -0.21283984 1.9983203 93
-0.11478876 -0.4985213 2.0057559 95
-0.15951753 -0.69379961 1.9901476 93
-0.20940423 -0.91218114 1.9981228 32
-0.26355714 -1.1480461 1.9968767 87
-0.30339533 -1.3215597 1.8695967 77
-0.30217013 -1.3162117 1.5422847 81
-0.32195988 -1.41944 1.5101067 73
-0.38990152 -1.7189587 1.503132 75
-0.20135096 -0.88698941 0.68094373 31
-0.20038955 -0.88274276 0.56019336 27
-0.20354164 -0.89590365 0.4595114 17
-0.20003916 -0.87977666 0.35497114 9
-0.19604082 -0.86219209 0.25934377 9
-0.20106404 -0.88357073 0.17414156 10
-0.35734454 -1.5652922 1.5106553 79
-0.19414268 -0.8497389 0.71822 5
-0.20397797 -0.89277405 0.62354708 30
-0.20359376 -0.89037687 0.50968438 21
-0.20239215 -0.88441151 0.40473741 8
-0.19969536 -0.87192744 0.30645946 10
-0.19912457 -0.86873841 0.21636739 8
-0.20212464 -0.8811208 0.13014251 11
-0.00750547 -0.030439004 1.9991974 78
-0.071814373 -0.30554909 1.9958843 97
-0.093768612 -0.4031055 2.0131991 106
-0.13762972 -0.59340703 1.9934158 88
-0.18549846 -0.80037498 1.9951125 95
-0.23629138 -1.0202974 1.9857829 81
-0.29665199 -1.2809063 2.0036924 76
-0.30567765 -1.3198651 1.698113 73
-0.029751545 -0.12146137 1.9960728 89
-0.053247385 -0.21265526 1.9983203 93
-0.11652823 -0.49811757 2.0057559 95
-0.16193838 -0.69323856 1.9901476 93
-0.21258707 -0.91144454 1.9981228 38
-0.26756299 -1.147119 1.9968767 89
-0.30800658 -1.3204925 1.8695967 79
-0.30753288 -1.3184505 1.5459599 81
-0.32691267 -1.4183075 1.5101067 73
-0.39677384 -1.7213808 1.5062698 76
-0.2053858 -0.89035565 0.68368518 31
-0.20346968 -0.88203794 0.56019336 27
-0.20666769 -0.89518768 0.4595114 17
-0.20310892 -0.87907302 0.35497114 8
-0.20015508 -0.86628866 0.26027638 8
-0.20526899 -0.88771552 0.17458777 9
-0.36280626 -1.5640354 1.5106553 79
-0.19710764 -0.84905607 0.71822 5
-0.20709309 -0.89205658 0.62354708 30
-0.20670052 -0.88966072 0.50968438 22
-0.20440854 -0.87909991 0.40309474 8
-0.20273773 -0.871225 0.30645946 11
-0.1999093 -0.85839176 0.21498775 8
-0.20406507 -0.87554431 0.12994097 11
-0.0076116757 -0.030412622 1.9991974 78
-0.072880499 -0.30529654 1.9958843 97
-0.095175147 -0.40277573 2.0131991 107
-0.13970026 -0.59292293 1.9934158 88
-0.18829116 -0.79972267 1.9951125 91
-0.23985144 -1.0194664 1.9857829 81
-0.30112138 -1.2798631 2.0036924 82
-0.31101722 -1.3219109 1.70195 71
-0.030175343 -0.12135677 1.9960728 89
-0.05412152 -0.21298541 2.0032918 95
-0.11826628 -0.49770781 2.0057559 96
-0.16435724 -0.69266909 1.9901476 93
-0.2152652 -0.90857786 1.9936218 59
-0.27156553 -1.1461781 1.9968767 89
-0.31330901 -1.3223423 1.8735863 79
-0.31213322 -1.3173689 1.5459599 80
-0.3318615 -1.4171578 1.5101067 73
-0.40189251 -1.7161947 1.503132 75
-0.20849247 -0.8896333 0.68368518 30
-0.20654732 -0.88132232 0.56019336 27
-0.20979123 -0.89446086 0.4595114 17
-0.20617624 -0.87835866 0.35497114 9
-0.20317778 -0.86558473 0.26027638 8
-0.21064425 -0.89668965 0.17548019 9
-0.36826354 -1.5627595 1.5106553 79
-0.20099801 -0.85229701 0.72116315 5
-0.21020569 -0.89132828 0.62354708 29
-0.20980476 -0.88893384 0.50968438 22
-0.20856151 -0.88297701 0.40473741 8
-0.20689583 -0.87524229 0.30763176 28
-0.20404451 -0.86250788 0.21567759 8
-0.20827106 -0.8796882 0.13014251 11
-0.0077124857 -0.030387212 1.9991974 75
-0.073892497 -0.30505317 1.9958843 96
-0.096510269 -0.40245789 2.0131991 107
-0.1416657 -0.5924564 1.9934158 88
-0.19094209 -0.79909384 1.9951125 79
-0.24323079 -1.0186654 1.9857829 83
-0.30536389 -1.2788575 2.0036924 82
-0.31539911 -1.3208722 1.70195 71
-0.030556448 -0.12126137 1.9960728 89
-0.054790359 -0.21281433 2.0032918 95
-0.11982928 -0.49733379 2.0057559 96
-0.16653252 -0.69214928 1.9901476 93
-0.21827698 -0.90785903 1.9936218 80
-0.27536491 -1.1452713 1.9968767 89
-0.31769234 -1.321296 1.8735863 79
-0.31627032 -1.3163818 1.5459599 80
-0.33655915 -1.4160495 1.5101067 73
-0.40758142 -1.7148527 1.503132 75
-0.21144146 -0.88893694 0.68368518 31
-0.21049392 -0.88494241 0.56251138 27
-0.2126002 -0.89379728 0.4595114 17
-0.20893465 -0.87770671 0.35497114 10
-0.20718543 -0.8696847 0.26120901 22
-0.21130669 -0.8862977 0.17458777 9
-0.37344381 -1.5615296 1.5106553 79
-0.20382321 -0.8516258 0.72116315 5
-0.21400762 -0.89485657 0.6260795 29
-0.21365279 -0.89268416 0.51178247 22
-0.21133445 -0.88231742 0.40473741 8
-0.20964447 -0.87458795 0.30763176 27
-0.20675313 -0.86186266 0.21567759 9
-0.21219993 -0.88388747 0.13034403 10
-0.0078238091 -0.030358741 1.9991974 75
-0.075010076 -0.3047803 1.9958843 96
-0.097984709 -0.40210146 2.0131991 106
-0.1438362 -0.59193325 1.9934158 88
-0.19433068 -0.80028707 1.999715 56
-0.24752769 -1.0200952 1.9901714 81
-0.31004912 -1.2777297 2.0036924 80
-0.32023823 -1.3197074 1.70195 73
-0.031000685 -0.12114857 1.9960728 89
-0.055569995 -0.21261208 2.0032918 93
-0.1216513 -0.49689129 2.0057559 96
-0.16906823 -0.69153428 1.9901476 93
-0.22160298 -0.90705293 1.9936218 90
-0.27956069 -1.1442543 1.9968767 89
-0.32324833 -1.3230505 1.8775756 79
-0.32189706 -1.3185073 1.5496351 83
-0.34174699 -1.4148065 1.5101067 73
-0.41294992 -1.7095634 1.4999943 75
-0.21469815 -0.88815606 0.68368518 31
-0.213736 -0.88416493 0.56251138 27
-0.21587472 -0.89301211 0.4595114 17
-0.2121502 -0.87693495 0.35497114 9
-0.2103716 -0.86891949 0.26120901 22
-0.21455371 -0.8855173 0.17458777 9
-0.37916461 -1.5601504 1.5106553 79
-0.20789847 -0.85480046 0.72410631 6
-0.21728599 -0.89406615 0.6260795 29
-0.21692322 -0.89189506 0.51178247 22
-0.21456687 -0.88153696 0.40473741 8
-0.21284859 -0.87381375 0.30763176 24
-0.20991063 -0.86109912 0.21567759 8
-0.21662219 -0.88795733 0.13054556 10
-0.0079244394 -0.030332629 1.9991974 77
-0.076020353 -0.30452988 1.9958843 97
-0.09931758 -0.40177429 2.0131991 106
-0.14579833 -0.59145302 1.9934158 88
-0.19698346 -0.79963827 1.999715 33
-0.25090909 -1.0192688 1.9901714 81
-0.3142845 -1.2766945 2.0036924 80
-0.32537913 -1.321751 1.7057868 73
-0.03140226 -0.1210451 1.9960728 89
-0.056274742 -0.21242663 2.0032918 93
-0.12329838 -0.49648511 2.0057559 96
-0.17136052 -0.69096982 1.9901476 91
-0.22460966 -0.90631306 1.9936218 90
-0.28335363 -1.1433209 1.9968767 89
-0.32763395 -1.3219713 1.8775756 79
-0.32626763 -1.3174325 1.5496351 83
-0.34643677 -1.4136653 1.5101067 71
-0.41861677 -1.7081845 1.4999943 77
-0.2176422 -0.88743919 0.68368518 31
-0.21666683 -0.8834514 0.56251138 27
-0.21883488 -0.89229137 0.4595114 17
-0.21505706 -0.8762266 0.35497114 8
-0.21442363 -0.87298757 0.26214162 21
-0.21748902 -0.88480091 0.17458777 9
-0.38433617 -1.5588845 1.5106553 79
-0.21073194 -0.85410637 0.72410631 6
-0.22024964 -0.89334065 0.6260795 29
-0.21987966 -0.8911708 0.51178247 22
-0.21748899 -0.88082051 0.40473741 8
-0.21691109 -0.87782186 0.30880409 22
-0.21395381 -0.86520559 0.21636739 8
-0.21956554 -0.88723409 0.13054556 10
-0.0080302712 -0.030304782 1.9991974 77
-0.077082902 -0.30426267 1.9958843 93
-0.10096731 -0.40241274 2.0180943 105
-0.147862 -0.59094048 1.9934158 88
-0.19977352 -0.79894578 1.999715 33
-0.25446546 -1.0183867 1.9901714 81
-0.31873909 -1.2755897 2.0036924 80
-0.32999092 -1.3206073 1.7057868 73
-0.0318457 -0.12092919 1.9960728 89
-0.05691367 -0.21170349 1.9983203 89
-0.12511726 -0.49602985 2.0057559 96
-0.1738919 -0.69033712 1.9901476 91
-0.22777189 -0.90552354 1.9936218 92
-0.28734282 -1.1423249 1.9968767 89
-0.33224648 -1.3208196 1.8775756 80
-0.33192113 -1.3195157 1.5533104 83
-0.35136926 -1.4124475 1.5101067 71
-0.42457688 -1.7067128 1.4999943 79
-0.2207386 -0.88667405 0.68368518 29
-0.21974932 -0.88268965 0.56251138 27
-0.2221038 -0.89148325 0.4595114 17
-0.21826716 -0.87543249 0.35497114 6
-0.21746962 -0.87223375 0.26214162 21
-0.22057621 -0.88403636 0.17458777 9
-0.38977537 -1.5575334 1.5106553 79
-0.21469401 -0.85728651 0.72704947 6
-0.22352241 -0.8925274 0.6260795 30
-0.22314447 -0.89035892 0.51178247 22
-0.2207159 -0.88001746 0.40473741 8
-0.22012702 -0.87702096 0.30880409 18
-0.21712351 -0.86441559 0.21636739 8
-0.22403389 -0.89126861 0.13074709 10
-0.0081360061 -0.030276567 1.9991974 75
-0.078144506 -0.30399173 1.9958843 93
-0.10237138 -0.40205786 2.0180943 105
-0.14992388 -0.59042072 1.9934158 88
-0.20304173 -0.80013722 2.0043178 33
-0.25801879 -1.0174922 1.9901714 81
-0.32318977 -1.2744693 2.0036924 80
-0.33459869 -1.3194474 1.7057868 73
-0.032267626 -0.1208173 1.9960728 91
-0.05765231 -0.21150355 1.9983203 91
-0.12684797 -0.49559012 2.0057559 96
-0.17630057 -0.68972594 1.9901476 93
-0.23093137 -0.90472293 1.9936218 92
-0.29132855 -1.141315 1.9968767 87
-0.33760044 -1.3225721 1.8815652 79
-0.33736357 -1.3216338 1.5569855 83
-0.35629749 -1.4112123 1.5101067 73
-0.43053186 -1.7052205 1.4999943 81
-0.22383235 -0.88589817 0.68368518 26
-0.22282915 -0.88191724 0.56251138 27
-0.2252143 -0.89070261 0.4595114 17
-0.22132164 -0.87466526 0.35497114 5
-0.22051294 -0.87146932 0.26214162 16
-0.22488323 -0.88808864 0.17503399 9
-0.39520976 -1.5561633 1.5106553 79
-0.21768518 -0.8565318 0.72704947 6
-0.22663654 -0.89174169 0.6260795 29
-0.22625105 -0.88957459 0.51178247 22
-0.22378637 -0.87924165 0.40473741 8
-0.22318704 -0.87624717 0.30880409 14
-0.22013958 -0.86365247 0.21636739 7
-0.22714363 -0.89048111 0.13074709 10
-0.0082416413 -0.030247983 1.9991974 77
-0.079205148 -0.30371711 1.9958843 95
-0.1037742 -0.40169808 2.0180943 105
-0.1519839 -0.58989382 1.9934158 89
-0.20583348 -0.79942364 2.0043178 33
-0.2615689 -1.0165854 1.9901714 83
-0.32763654 -1.2733334 2.0036924 80
-0.34000131 -1.3213762 1.7096238 73
-0.032689165 -0.12070392 1.9960728 89
-0.058390249 -0.21130103 1.9983203 91
-0.12857713 -0.49514428 2.0057559 96
-0.17870709 -0.68910635 1.9901476 93
-0.23408806 -0.90391129 1.9936218 93
-0.29531071 -1.1402912 1.9968767 89
-0.34221503 -1.3213856 1.8815652 77
-0.34197488 -1.3204482 1.5569855 85
-0.36122137 -1.4099599 1.5101067 73
-0.43648157 -1.7037072 1.4999943 77
-0.22692335 -0.88511145 0.68368518 26
-0.22590625 -0.88113409 0.56251138 27
-0.22832206 -0.889911 0.4595114 17
-0.22437344 -0.87388736 0.35497114 5
-0.2235536 -0.87069428 0.26214162 14
-0.22798185 -0.88729823 0.17503399 8
-0.40063936 -1.5547743 1.5106553 81
-0.22067371 -0.85576671 0.72704947 6
-0.22974792 -0.8909452 0.6260795 29
-0.22935487 -0.8887794 0.51178247 22
-0.22803493 -0.88302761 0.40638009 7
-0.22624438 -0.87546277 0.30880409 6
-0.22439285 -0.86767322 0.21705721 8
-0.22899887 -0.88484627 0.13054556 9
-0.008347176 -0.03021903 1.9991974 77
-0.080264844 -0.30343878 1.9958843 93
-0.10491756 -0.40034845 2.0131991 105
-0.15404209 -0.5893597 1.9934158 89
-0.20862275 -0.79870027 2.0043178 33
-0.26511583 -1.0156661 1.9901714 83
-0.33207926 -1.272182 2.0036924 80
-0.34461167 -1.3201813 1.7096238 73
-0.033110298 -0.12058908 1.9960728 89
-0.059127469 -0.21109593 1.9983203 91
-0.13030474 -0.49469247 2.0057559 96
-0.18111144 -0.68847829 1.9901476 93
-0.23724186 -0.90308869 1.9936218 92
-0.29928926 -1.1392534 1.9968767 89
-0.34759125 -1.3230979 1.8855547 80
-0.3474434 -1.3225251 1.5606607 83
-0.36614084 -1.4086906 1.5101067 73
-0.44144663 -1.6984055 1.4968565 71
-0.23001158 -0.88431394 0.68368518 32
-0.23009583 -0.88462764 0.56482941 28
-0.23259483 -0.89359504 0.46138442 17
-0.22863179 -0.87774128 0.35638034 5
-0.22782977 -0.87466228 0.26307425 6
-0.23233388 -0.89131612 0.17548019 8
-0.40606412 -1.5533663 1.5106553 81
-0.22365956 -0.85499126 0.72704947 6
-0.23285651 -0.89013779 0.6260795 29
-0.23245589 -0.88797337 0.51178247 23
-0.23231268 -0.88679451 0.40802279 8
-0.23176412 -0.88407117 0.31114873 6
-0.22742023 -0.86688465 0.21705721 8
-0.23208617 -0.88404149 0.13054556 9
-0.0084578777 -0.030188233 1.9991974 77
-0.081376463 -0.30314255 1.9958843 95
-0.1063842 -0.39996123 2.0131991 105
-0.15620117 -0.58879119 1.9934158 86
-0.21154873 -0.7979303 2.0043178 33
-0.26883665 -1.0146877 1.9901714 83
-0.33673984 -1.2709563 2.0036924 82
-0.35026914 -1.3220083 1.7134607 71
-0.033552054 -0.12046691 1.9960728 89
-0.059900776 -0.21087778 1.9983203 91
-0.13211697 -0.49421158 2.0057559 95
-0.18363361 -0.68780988 1.9901476 93
-0.24070771 -0.90217108 1.9936218 92
-0.30366144 -1.1380957 1.9968767 89
-0.352669 -1.3217535 1.8855547 77
-0.35251898 -1.3211814 1.5606607 81
-0.3713015 -1.4073391 1.5101067 73
-0.44468933 -1.6854842 1.4874432 56
-0.23538604 -0.89155072 0.6891681 28
-0.23333661 -0.88377839 0.56482941 28
-0.23705269 -0.89721864 0.46325746 17
-0.23429987 -0.88617331 0.35919875 5
-0.23369949 -0.88327873 0.26493949 6
-0.23575456 -0.8904174 0.17548019 8
-0.4120256 -1.5517957 1.5106553 79
-0.22694081 -0.85412616 0.72704947 6
-0.24180819 -0.91007042 0.63874161 28
-0.23702998 -0.89146042 0.51388049 22
-0.23693027 -0.8904596 0.40966547 8
-0.23765829 -0.89256871 0.31349337 6
-0.2318702 -0.87083077 0.21774703 8
-0.2353248 -0.88318497 0.13054556 9
-0.0085632028 -0.030158525 1.9991974 77
-0.082434125 -0.30285665 1.9958843 96
-0.10777967 -0.39958745 2.0131991 105
-0.15825549 -0.58824229 1.9934158 84
-0.21382542 -0.79530025 1.999715 36
-0.27237698 -1.013743 1.9901714 83
-0.34117427 -1.2697731 2.0036924 82
-0.35488167 -1.3207775 1.7134607 71
-0.03397236 -0.12034906 1.9960728 89
-0.060636509 -0.2106674 1.9983203 91
-0.13384131 -0.49374735 2.0057559 95
-0.1860334 -0.68716466 1.9901476 91
-0.24369809 -0.90136784 1.9936218 92
-0.30743387 -1.1370825 1.9968767 87
-0.35783687 -1.3234863 1.8895442 77
-0.35689825 -1.3200051 1.5606607 83
-0.37621176 -1.4060345 1.5101067 73
-0.44755137 -1.6726397 1.4780298 38
nan nan nan 0
nan nan nan 0
-0.241383 -0.90086365 0.46513048 16
-0.23987663 -0.89461726 0.36201712 5
-0.23917165 -0.89198816 0.26680472 5
-0.23999663 -0.89444065 0.1759264 8
-0.41716927 -1.5504208 1.5106553 79
-0.2266192 -0.8416599 0.71822 7
nan nan nan 0
-0.25769648 -0.9564029 0.54535127 20
-0.2423407 -0.89878827 0.41295084 8
-0.24441548 -0.90585411 0.31701031 6
-0.23878126 -0.884359 0.21981648 8
-0.23840624 -0.88235807 0.13054556 9
-0.0086631654 -0.030129962 1.9991974 77
-0.083437987 -0.30258161 1.9958843 96
-0.10910416 -0.39922786 2.0131991 105
-0.1602053 -0.58771431 1.9934158 88
-0.21646155 -0.79458678 1.999715 44
-0.27573714 -1.0128342 1.9901714 83
-0.34538314 -1.2686347 2.0036924 80
-0.35925961 -1.3195934 1.7134607 71
-0.03435028 -0.12024175 1.9960728 89
-0.061298039 -0.21047588 1.9983203 93
-0.13539179 -0.49332446 2.0057559 96
-0.18819126 -0.68657684 1.9901476 91
-0.24668579 -0.90055484 1.9936218 93
-0.31120285 -1.1360568 1.9968767 91
-0.36302003 -1.3251992 1.8935336 77
-0.36193857 -1.3221471 1.5643358 85
-0.38087228 -1.4047791 1.5101067 73
-0.44902074 -1.6561176 1.4654787 38
-0.41554099 -1.5315776 1.1250613 24
-0.40639552 -1.4978603 0.89862525 20
-0.24906763 -0.91799754 0.47262263 16
-0.24519996 -0.90311873 0.36483553 6
-0.24728008 -0.91015178 0.2705352 5
-0.24949415 -0.91766793 0.17815745 8
-0.42230836 -1.5490291 1.5106553 79
-0.23260057 -0.85260224 0.72704947 7
-0.43592268 -1.5989559 1.0591245 30
nan nan nan 0
-0.24889433 -0.91168964 0.41787887 6
-0.25110295 -0.91914821 0.32052726 7
-0.25069979 -0.91704273 0.2246452 8
-0.24513197 -0.89606142 0.13115016 9
-0.0087555004 -0.030057821 1.9941976 75
-0.084493682 -0.30228853 1.9958843 96
-0.11049706 -0.39884457 2.0131991 105
-0.16225581 -0.58715147 1.9934158 88
-0.21923389 -0.7938264 1.999715 68
-0.27927092 -1.0118656 1.9901714 83
-0.34980935 -1.2674214 2.0036924 82
-0.36471662 -1.3214219 1.7172977 71
-0.034790754 -0.12011503 1.9960728 89
-0.062069062 -0.2102498 1.9983203 93
-0.137199 -0.49282491 2.0057559 96
-0.19070645 -0.68588245 1.9901476 93
-0.24982783 -0.89968824 1.9936218 92
-0.31516656 -1.1349635 1.9968767 91
-0.36764362 -1.3239239 1.8935336 77
-0.36678201 -1.3208117 1.5643358 81
-0.38577357 -1.4034412 1.5101067 73
-0.45067176 -1.6395257 1.4529276 38
-0.43973762 -1.5986563 1.1716661 32
-0.44217098 -1.607493 0.95889395 32
-0.25735188 -0.93495715 0.48011476 24
-0.25233024 -0.91608906 0.36906311 18
-0.2556735 -0.92822659 0.27426568 7
-0.26725242 -0.96960253 0.18306577 8
-0.42771289 -1.5475453 1.5106553 79
-0.23449782 -0.84788936 0.72410631 7
-0.45212325 -1.6347445 1.0819163 35
-0.44094467 -1.5932441 0.85166693 33
-0.25601548 -0.92442477 0.42280695 6
-0.25966263 -0.9369579 0.32521653 9
-0.26067629 -0.93997806 0.22809425 9
-0.28181317 -1.015507 0.13618843 8
-0.0088603683 -0.030027077 1.9941976 75
-0.085548356 -0.30199176 1.9958843 96
-0.11188862 -0.39845642 2.0131991 104
-0.16430438 -0.58658153 1.9934158 86
-0.2220035 -0.79305631 1.999715 86
-0.28280127 -1.0108846 1.9901714 85
-0.35423136 -1.2661926 2.0036924 82
-0.36932704 -1.3201406 1.7172977 71
-0.035209827 -0.11999286 1.9960728 89
-0.06280259 -0.21003184 1.9983203 93
-0.13891846 -0.49234301 2.0057559 96
-0.19309945 -0.68521261 1.9901476 79
-0.25296679 -0.89881068 1.9936218 93
-0.3191264 -1.1338565 1.9968767 91
-0.37307936 -1.325534 1.8975232 77
-0.37139028 -1.3195235 1.5643358 80
-0.39067012 -1.402086 1.5101067 73
-0.45116746 -1.6191925 1.4372387 38
-0.45429978 -1.629334 1.1935979 37
-0.4549188 -1.6315445 0.9728021 37
-0.26435164 -0.94744933 0.48573384 23
-0.25681657 -0.91982323 0.37047231 15
-0.26287505 -0.94152236 0.27706355 9
-0.29073635 -1.0406091 0.1897589 11
-0.43311226 -1.5460429 1.5106553 81
-0.23854712 -0.85095763 0.72704947 6
-0.45899054 -1.6373075 1.0844487 39
-0.45753601 -1.6310238 0.87054938 40
-0.26306972 -0.93716556 0.427735 11
-0.26687506 -0.95008445 0.3287335 10
-0.28137666 -1.001039 0.23706186 9
-0.30835289 -1.0962754 0.13961446 6
-0.0089651281 -0.029995965 1.9941976 75
-0.086601987 -0.30169129 1.9958843 97
-0.1132788 -0.39806345 2.0131991 104
-0.16635095 -0.58600444 1.9934158 88
-0.22477044 -0.7922765 1.999715 93
-0.28632823 -1.0098912 1.9901714 83
-0.35864905 -1.2649485 2.0036924 84
-0.37480742 -1.3219277 1.7211345 71
-0.035628464 -0.11986922 1.9960728 89
-0.063535355 -0.20981134 1.9983203 93
-0.14063621 -0.49185508 2.0057559 96
-0.19596404 -0.6861937 1.9948403 62
-0.25610268 -0.89792216 1.9936218 93
-0.32308236 -1.1327355 1.9968767 89
-0.37770405 -1.3242236 1.8975232 75
-0.37692389 -1.3214791 1.5680109 81
-0.39556193 -1.4007138 1.5101067 73
-0.4525848 -1.6026224 1.4246875 38
-0.4565731 -1.6156666 1.1853735 38
-0.45458731 -1.6086303 0.96121198 39
nan nan nan 0
-0.26133201 -0.92353725 0.37188148 8
-0.27151 -0.95950562 0.28079402 8
-0.29436702 -1.039588 0.1897589 9
-0.43850631 -1.5445217 1.5106553 83
nan nan nan 0
-0.45763373 -1.6108127 1.0692542 39
-0.45950329 -1.61632 0.86425525 40
-0.2728003 -0.95895278 0.4359484 16
-0.26885903 -0.94447213 0.32756117 10
-0.28079915 -0.9857626 0.23499241 8
-0.31354725 -1.099997 0.13981599 6
-0.0090750083 -0.029962905 1.9941976 77
-0.087707154 -0.30137187 1.9958843 96
-0.11473702 -0.39764559 2.0131991 105
-0.16849762 -0.58539081 1.9934158 88
-0.22767276 -0.7914474 1.999715 95
-0.29002774 -1.008835 1.9901714 81
-0.36328289 -1.2636255 2.0036924 78
-0.37965003 -1.3205451 1.7211345 71
-0.035983585 -0.11946072 1.9910811 89
-0.064303927 -0.20957707 1.9983203 93
-0.14243799 -0.49133632 2.0057559 96
-0.19847773 -0.68547082 1.9948403 37
-0.25939202 -0.89697748 1.9936218 93
-0.32723185 -1.1315439 1.9968767 89
-0.38339233 -1.3257256 1.9015126 75
-0.38176483 -1.3200886 1.5680109 83
-0.40069315 -1.3992546 1.5101067 73
-0.45309716 -1.5822408 1.4089987 39
-0.45903614 -1.6019233 1.1771491 38
-0.45559862 -1.589918 0.95193982 39
-0.44107637 -1.5382254 0.73484719 32
-0.2660383 -0.92718446 0.37329069 5
-0.27367014 -0.95378238 0.27986142 8
-0.29405224 -1.0241421 0.18842027 8
-0.44313121 -1.5393156 1.5073305 79
nan nan nan 0
-0.45995441 -1.5966963 1.061657 39
-0.45788184 -1.5884594 0.85166693 39
-0.27500442 -0.95340896 0.43430573 17
-0.2723189 -0.94348043 0.32756117 9
-0.28303614 -0.97996908 0.23430261 7
-0.33422229 -1.1564345 0.14223436 7
-0.0091795437 -0.029931044 1.9941976 75
-0.088758603 -0.30106387 1.9958843 96
-0.11612436 -0.39724267 2.0131991 104
-0.17053999 -0.58479905 1.9934158 88
-0.23043403 -0.7906478 1.999715 95
-0.29354745 -1.0078164 1.9901714 83
-0.36769158 -1.2623496 2.0036924 81
-0.38515386 -1.3222898 1.7249717 73
-0.036400363 -0.11933438 1.9910811 89
-0.065035097 -0.20935133 1.9983203 93
-0.14415219 -0.49083614 2.0057559 96
-0.20086926 -0.6847738 1.9948403 37
-0.26252148 -0.89606655 1.9936218 92
-0.33117968 -1.1303947 1.9968767 89
-0.38801765 -1.3243792 1.9015126 75
-0.38732365 -1.3220015 1.5716861 83
-0.40557504 -1.3978473 1.5101067 73
-0.4531936 -1.5619562 1.3933098 38
-0.45996162 -1.5842489 1.1661832 39
-0.45620474 -1.5712999 0.94266772 38
-0.45679009 -1.5722913 0.7498315 39
-0.26793393 -0.92164361 0.37188148 4
-0.27699777 -0.95282131 0.27986142 7
-0.29762536 -1.0231094 0.18842027 8
-0.44745618 -1.5341743 1.5040057 75
-0.44803229 -1.535153 1.2479888 32
-0.4594858 -1.574388 1.0489948 39
-0.45960698 -1.5737818 0.8453728 39
nan nan nan 0
-0.27424639 -0.93785876 0.32638884 7
-0.28367361 -0.96946937 0.23292297 7
nan nan nan 0
-0.0092839664 -0.02989882 1.9941976 75
-0.089808963 -0.30075222 1.9958843 96
-0.11751028 -0.39683488 2.0131991 103
-0.17300348 -0.58563256 1.9981875 88
-0.23319252 -0.78983861 1.999715 95
-0.29706359 -1.0067856 1.9901714 81
-0.37209573 -1.2610584 2.0036924 82
-0.38976717 -1.3209374 1.7249717 69
-0.036816698 -0.1192066 1.9910811 88
-0.06576547 -0.20912305 1.9983203 93
-0.14586467 -0.49032995 2.0057559 96
-0.20325835 -0.6840685 1.9948403 36
-0.26564771 -0.89514476 1.9936218 93
-0.33512348 -1.1292318 1.9968767 89
-0.39263824 -1.3230166 1.9015126 77
-0.39193594 -1.3206414 1.5716861 81
-0.41045192 -1.396423 1.5101067 73
-0.4542518 -1.5454252 1.3807588 38
-0.45958942 -1.5625761 1.152476 39
-0.45668647 -1.5526972 0.93339562 39
-0.45442212 -1.5440032 0.73859328 38
-0.27250472 -0.92530459 0.37329069 8
-0.2789343 -0.94713634 0.27892879 6
-0.29837939 -1.0125104 0.18752787 8
-0.45069245 -1.5254405 1.4973559 56
-0.45453423 -1.5374559 1.250932 34
-0.4600895 -1.5562372 1.0388651 39
-0.45994774 -1.5547596 0.83698058 39
-0.44518971 -1.5039084 0.63471329 31
-0.27337697 -0.92291439 0.32287189 3
-0.28564864 -0.96372527 0.23223317 7
-0.42042017 -1.4175068 0.15331855 11
-0.0093830638 -0.029867869 1.9941976 75
-0.090805806 -0.30045274 1.9958843 96
-0.11882559 -0.39644301 2.0131991 103
-0.17494455 -0.58505565 1.9981875 89
-0.23581043 -0.78906101 1.999715 95
-0.30040058 -1.005795 1.9901714 83
-0.37627551 -1.2598176 2.0036924 82
-0.3941454 -1.3196375 1.7249717 68
-0.037191015 -0.11909035 1.9910811 88
-0.066422127 -0.2089154 1.9983203 93
-0.14704187 -0.48866487 2.0009167 95
-0.20540638 -0.68342656 1.9948403 36
-0.26861468 -0.89425892 1.9936218 93
-0.33886632 -1.1281142 1.9968767 89
-0.39789048 -1.3245939 1.9055022 75
-0.39705771 -1.3226504 1.5753613 83
-0.41508037 -1.3950542 1.5101067 73
-0.45493338 -1.5289856 1.3682076 38
-0.45999581 -1.5450132 1.14151 39
-0.45677611 -1.5341903 0.92412353 38
-0.45794758 -1.5381249 0.73672026 37
-0.27678007 -0.92904156 0.37469989 9
-0.27926686 -0.93679112 0.27706355 7
-0.30031177 -1.0067431 0.18708165 8
-0.45360854 -1.5167819 1.4907062 39
-0.45731252 -1.5281955 1.2450457 37
-0.46003515 -1.5382621 1.0287353 39
-0.45962527 -1.5359149 0.82858837 39
-0.46345893 -1.5477421 0.65114009 14
-0.27906528 -0.93136317 0.32521653 3
-0.28583041 -0.95333588 0.23085353 7
-0.42630696 -1.4209642 0.15352008 11
-0.0094924718 -0.02983328 1.9941976 71
-0.091906421 -0.30011788 1.9958843 96
-0.12027784 -0.39600483 2.0131991 102
-0.17708772 -0.58441049 1.9981875 89
-0.2387009 -0.78819138 1.999715 95
-0.30408499 -1.0046873 1.9901714 83
-0.38007528 -1.2557367 1.9995594 82
-0.39897949 -1.318184 1.7249717 71
-0.037648011 -0.11894666 1.9910811 88
-0.067223817 -0.20865883 1.9983203 93
-0.14891712 -0.48809665 2.0009167 95
-0.20802905 -0.6826328 1.9948403 35
-0.27204639 -0.89322096 1.9936218 93
-0.34319544 -1.1268048 1.9968767 89
-0.40297359 -1.3230565 1.9055022 75
-0.40236393 -1.321046 1.5753613 83
-0.42019072 -1.3935236 1.5101067 73
-0.45491505 -1.5086724 1.3525187 38
-0.45961615 -1.523301 1.1278027 39
-0.45855698 -1.5197817 0.91716945 38
-0.45715055 -1.5141649 0.72735506 38
-0.31364229 -1.0381875 0.40852058 4
-0.28144035 -0.93100983 0.27613091 5
-0.3027333 -1.000816 0.18663543 8
-0.4561781 -1.5043081 1.4807318 38
-0.45730862 -1.507089 1.2303299 38
-0.46119902 -1.519901 1.0186056 39
-0.4605127 -1.5166864 0.82019615 39
-0.45868567 -1.5097213 0.63799864 7
-0.2842156 -0.93488592 0.32638884 10
-0.28660798 -0.94275528 0.22947389 7
-0.45502391 -1.4957918 0.15674458 16
-0.0095965508 -0.029799961 1.9941976 71
-0.092953466 -0.29979524 1.9958843 96
-0.12165942 -0.39558259 2.0131991 102
-0.17912662 -0.58378881 1.9981875 89
-0.24087794 -0.78548563 1.9951125 95
-0.30759016 -1.0036197 1.9901714 81
-0.38445631 -1.2544024 1.9995594 84
-0.4045178 -1.3198484 1.7288085 71
-0.038062982 -0.11881452 1.9910811 89
-0.068117902 -0.20893031 2.0032918 91
-0.15062 -0.48757386 2.0009167 95
-0.21041061 -0.68190253 1.9948403 35
-0.27500692 -0.8923139 1.9936218 95
-0.34693018 -1.1256605 1.9968767 89
-0.40824649 -1.3245929 1.9094917 75
-0.40774104 -1.3229443 1.5790365 83
-0.42505249 -1.3920484 1.5101067 69
-0.45563111 -1.4921826 1.3399676 38
-0.46004337 -1.5056918 1.1168369 39
-0.45868114 -1.5012244 0.90789735 38
-0.45836696 -1.4992598 0.72173601 38
-0.3804172 -1.2435213 0.47193438 4
-0.28165209 -0.92067671 0.27426568 4
-0.30313504 -0.99028254 0.18574302 8
-0.45678189 -1.4885072 1.4674324 38
-0.45874435 -1.4939724 1.2215004 39
-0.46117461 -1.501878 1.0084759 39
-0.46154064 -1.5021359 0.81390196 40
-0.45813832 -1.4901361 0.63142788 7
-0.28731421 -0.93393826 0.32638884 9
-0.28844005 -0.93701607 0.22878408 7
-0.47053713 -1.5276161 0.15815529 17
-0.0097005134 -0.029766282 1.9941976 75
-0.093999378 -0.29946896 1.9958843 95
-0.12303952 -0.39515549 2.0131991 101
-0.18116334 -0.58315998 1.9981875 88
-0.24361834 -0.78464001 1.9951125 95
-0.31109157 -1.0025399 1.9901714 83
-0.38883263 -1.2530527 1.9995594 84
-0.40912247 -1.3184283 1.7288085 71
-0.038567256 -0.11895623 1.9960728 89
-0.068846792 -0.20869125 2.0032918 89
-0.15269652 -0.48824558 2.0057559 95
-0.21278962 -0.68116385 1.9948403 36
-0.27812001 -0.89134848 1.9936218 93
-0.35085738 -1.1244427 1.9968767 89
-0.41376552 -1.3260372 1.9134812 77
-0.41235653 -1.3215129 1.5790365 83
-0.43096244 -1.3939632 1.5136111 69
-0.45623758 -1.4757065 1.3274164 38
-0.46158901 -1.4920925 1.1086124 39
-0.45868134 -1.4826849 0.89862525 39
-0.45811406 -1.4799365 0.71424389 38
-0.45572573 -1.4713117 0.54239416 8
-0.28341076 -0.91499555 0.27333307 4
-0.30511567 -0.98446172 0.1852968 7
-0.45754281 -1.4726387 1.4541329 38
-0.45915663 -1.4769229 1.2097278 39
-0.46129471 -1.4837916 0.99834621 39
-0.4627369 -1.4875146 0.80760783 40
-0.45912641 -1.4750007 0.62649989 7
nan nan nan 0
-0.28876215 -0.92654765 0.22740445 5
-0.47586662 -1.5259644 0.15815529 17
-0.0097991694 -0.029733948 1.9941976 73
-0.094991937 -0.29915559 1.9958843 96
-0.12434923 -0.39474532 2.0131991 101
-0.18309616 -0.58255595 1.9981875 88
-0.24621895 -0.7838279 1.9951125 95
-0.31441438 -1.0015028 1.9901714 83
-0.39298576 -1.2517563 1.9995594 82
-0.41445258 -1.3201232 1.7326455 71
-0.038940776 -0.11883448 1.9960728 89
-0.069502071 -0.20847395 2.0032918 89
-0.15422964 -0.48776343 2.0057559 95
-0.21492849 -0.68049198 1.9948403 36
-0.28107432 -0.89042127 1.9936218 95
-0.35458422 -1.123273 1.9968767 91
-0.4190678 -1.3275317 1.9174706 74
-0.4175261 -1.323444 1.5827116 83
-0.43558261 -1.3925265 1.5136111 73
-0.45647994 -1.459324 1.3148654 37
-0.46153831 -1.4745916 1.0976466 39
-0.45962551 -1.4684718 0.89167112 39
-0.45860681 -1.4652171 0.70862478 38
-0.4589119 -1.4652947 0.54098499 7
-0.28644344 -0.91405076 0.27333307 10
-0.30688852 -0.97869253 0.1848506 8
-0.45794442 -1.4568633 1.4408334 38
-0.45920068 -1.4599692 1.1979551 39
-0.46078262 -1.4658837 0.98821652 39
-0.46196082 -1.4687361 0.79921561 40
-0.45808715 -1.4555324 0.61992908 7
-0.4278219 -1.3585399 0.43424204 20
-0.28869492 -0.91618949 0.22602481 4
-0.47464901 -1.505403 0.15734917 20
-0.0099029001 -0.029699564 1.9941976 73
-0.096035607 -0.29882219 1.9958843 97
-0.12572639 -0.39430884 2.0131991 100
-0.18512854 -0.58191335 1.9981875 88
-0.24954551 -0.78482533 1.999715 96
-0.31790838 -1.0003991 1.9901714 81
-0.39820507 -1.2530589 2.0036924 84
-0.42002913 -1.3217237 1.7364824 69
-0.039376069 -0.11869096 1.9960728 89
-0.070265703 -0.2082178 2.0032918 91
-0.15601635 -0.48719487 2.0057559 95
-0.21742117 -0.67969972 1.9948403 37
-0.28418076 -0.88943475 1.9936218 95
-0.35850301 -1.1220284 1.9968767 91
-0.42369923 -1.3260608 1.9174706 77
-0.42237395 -1.3219047 1.5827116 83
-0.4404408 -1.3909975 1.5136111 75
-0.45687065 -1.4428768 1.3023143 37
-0.46163103 -1.457027 1.0866808 38
-0.45939633 -1.4499652 0.88239902 39
-0.45837009 -1.4458498 0.70113266 38
-0.46282884 -1.4590302 0.53957576 7
-0.29260296 -0.92241001 0.27519831 8
-0.30879626 -0.97286856 0.18440439 7
-0.45849797 -1.4410217 1.4275341 38
-0.45938924 -1.4429511 1.1861825 38
-0.46222854 -1.4518609 0.98061925 39
-0.46320817 -1.4540597 0.79292148 40
-0.45911619 -1.4403455 0.61500102 6
-0.46233797 -1.4495785 0.45768839 39
-0.29054534 -0.91040748 0.225335 4
-0.47560412 -1.4893758 0.15674458 24
-0.01000651 -0.029664814 1.9941976 77
-0.0970781 -0.29848513 1.9958843 97
-0.127102 -0.39386758 2.0131991 100
-0.18715867 -0.58126354 1.9981875 89
-0.25228357 -0.78394949 1.999715 95
-0.3213985 -0.99928337 1.9901714 81
-0.40257666 -1.2516612 2.0036924 84
-0.4256219 -1.3233014 1.7403194 69
-0.039790135 -0.11855279 1.9960728 89
-0.070818968 -0.20746619 1.9983203 93
-0.15771602 -0.48664731 2.0057559 96
-0.21926092 -0.67729491 1.9901476 44
-0.28728372 -0.88843733 1.9936218 95
-0.36241746 -1.1207702 1.9968767 89
-0.42925286 -1.3274416 1.9214602 74
-0.42802885 -1.3236481 1.5863868 81
-0.44420519 -1.3860556 1.5101067 75
-0.4571521 -1.4264446 1.2897632 38
-0.46160674 -1.4394799 1.0757149 38
-0.45904353 -1.4314784 0.87312692 39
-0.45916504 -1.4309982 0.69551355 38
-0.46058646 -1.4345675 0.53252977 7
nan nan nan 0
-0.30914393 -0.96230203 0.18351197 5
-0.45894662 -1.4251941 1.4142349 38
-0.46070433 -1.4297972 1.177353 39
-0.46200478 -1.4338245 0.97048956 39
-0.46271023 -1.4351557 0.78452927 40
-0.45979142 -1.425251 0.61007297 6
-0.46291569 -1.4340789 0.45417145 40
-0.29372147 -0.90938771 0.225335 10
-0.47619101 -1.4734451 0.15613998 28
-0.010109999 -0.029629704 1.9941976 77
-0.098119415 -0.29814449 1.9958843 97
-0.12847608 -0.3934215 2.0131991 100
-0.18918651 -0.5806067 1.9981875 84
-0.25501853 -0.78306413 1.999715 95
-0.32488468 -0.99815536 1.9901714 83
-0.40694329 -1.2502483 2.0036924 82
-0.43123075 -1.3248562 1.7441562 74
-0.04020372 -0.11841317 1.9960728 91
-0.071542725 -0.20721772 1.9983203 93
-0.1598058 -0.48728901 2.0105951 96
-0.22162379 -0.67652541 1.9901476 67
-0.29038319 -0.88742918 1.9936218 95
-0.36632743 -1.1194984 1.9968767 89
-0.43388388 -1.3259352 1.9214602 77
-0.4326466 -1.3221459 1.5863868 83
-0.44794044 -1.3811041 1.506602 73
-0.45732445 -1.4100285 1.277212 38
-0.46275645 -1.4259282 1.0674905 38
-0.45993492 -1.4172258 0.86617285 38
-0.45843008 -1.4117496 0.68802136 38
-0.46114385 -1.4192634 0.52830219 6
nan nan nan 0
-0.31096137 -0.9564811 0.18306577 4
-0.45929033 -1.409381 1.4009354 38
-0.46068019 -1.4128089 1.1655804 39
-0.46299732 -1.4199066 0.96289223 39
-0.46349379 -1.4205878 0.77823508 39
-0.46036693 -1.4101696 0.60514492 6
-0.46037239 -1.4093524 0.44830987 38
-0.29843259 -0.91306406 0.22602481 7
-0.47511959 -1.4527801 0.15533386 28
-0.010213364 -0.029594233 1.9941976 73
-0.099159531 -0.29780015 1.9958843 97
-0.12984861 -0.39297065 2.0131991 100
-0.19121206 -0.57994282 1.9981875 84
-0.25775036 -0.7821691 1.999715 96
-0.32836691 -0.99701524 1.9901714 81
-0.41130498 -1.2488202 2.0036924 78
-0.43585274 -1.3233429 1.7441562 74
-0.040616814 -0.11827211 1.9960728 89
-0.07226561 -0.20696673 1.9983203 91
-0.16150579 -0.48672819 2.0105951 96
-0.22398394 -0.67574769 1.9901476 89
-0.29347911 -0.88641012 1.9936218 95
-0.370233 -1.1182127 1.9968767 89
-0.43850961 -1.3244126 1.9214602 79
-0.43725914 -1.3206277 1.5863868 85
-0.45164663 -1.3761439 1.5030975 67
-0.45860177 -1.3973272 1.2677988 38
-0.46251255 -1.4084133 1.0565246 38
-0.4593502 -1.3987755 0.85690075 37
-0.45901364 -1.3969281 0.68240231 38
-0.46010172 -1.3994159 0.52266544 6
-0.46180999 -1.4046116 0.3721908 40
-0.30807313 -0.93646723 0.18128091 5
-0.45952931 -1.3935832 1.3876359 38
-0.46180958 -1.3996768 1.1567509 38
-0.46254754 -1.4019053 0.95276248 39
-0.4641813 -1.4060322 0.77194095 39
-0.46084279 -1.3951015 0.60021687 6
-0.460713 -1.3938919 0.44479293 8
-0.33893672 -1.0248584 0.24258038 6
-0.4754793 -1.4368837 0.15472928 32
-0.010321764 -0.0295566 1.9941976 73
-0.10025036 -0.29743469 1.9958843 97
-0.13128804 -0.39249209 2.0131991 98
-0.19333638 -0.57923806 1.9981875 88
-0.26061544 -0.78121918 1.999715 96
-0.33201894 -0.99580503 1.9901714 81
-0.4158794 -1.2473042 2.0036924 80
-0.44171417 -1.3247777 1.7479932 75
-0.041050028 -0.11812244 1.9960728 89
-0.073023707 -0.20670047 1.9983203 91
-0.16328864 -0.48613298 2.0105951 96
-0.22645921 -0.67492223 1.9901476 93
-0.29672602 -0.88532847 1.9936218 93
-0.37432894 -1.1168483 1.9968767 89
-0.44336087 -1.3227965 1.9214602 81
-0.44209653 -1.3190161 1.5863868 88
-0.45443836 -1.3677106 1.4960885 46
-0.45881012 -1.3808597 1.2552476 38
-0.46371406 -1.3948051 1.0483003 39
-0.46028095 -1.3844706 0.84994668 37
-0.45974064 -1.3820397 0.6767832 38
-0.46219766 -1.3886164 0.51984704 35
-0.46074963 -1.3842661 0.3684603 7
-0.31465057 -0.9447816 0.18217334 13
-0.45990422 -1.377721 1.3743366 38
-0.46181437 -1.3826395 1.1449783 38
-0.4635852 -1.387933 0.94516522 39
-0.46501577 -1.3914077 0.76564676 39
-0.46145993 -1.3799672 0.59528887 6
-0.45964953 -1.3737561 0.44010365 6
-0.38513935 -1.1504011 0.2612054 5
-0.47598195 -1.4209199 0.15412468 31
-0.010424873 -0.029520391 1.9941976 73
-0.101288 -0.29708296 1.9958843 96
-0.13233083 -0.39106697 2.0083039 98
-0.19535711 -0.5785597 1.9981875 88
-0.2633408 -0.78030473 1.999715 96
-0.33549291 -0.99463993 1.9901714 81
-0.42023075 -1.245845 2.0036924 82
-0.44531113 -1.32019 1.7441562 75
-0.041462105 -0.11797844 1.9960728 89
-0.073744774 -0.20644431 1.9983203 93
-0.16457984 -0.48436913 2.0057559 95
-0.22881372 -0.67412764 1.9901476 93
-0.29981458 -0.88428736 1.9936218 93
-0.37822524 -1.1155348 1.9968767 89
-0.44797561 -1.3212408 1.9214602 74
-0.44669807 -1.3174648 1.5863868 85
-0.45580089 -1.3559749 1.4855748 38
-0.45990634 -1.36818 1.2458342 38
-0.4632479 -1.3773248 1.0373343 39
-0.45946151 -1.3660593 0.84067458 38
-0.46012601 -1.3672451 0.6711641 38
-0.46244916 -1.3733552 0.51561946 37
-0.46557879 -1.3826493 0.3684603 7
-0.32430691 -0.96255511 0.18395817 8
-0.46112612 -1.3654931 1.3643621 38
-0.46275613 -1.3695312 1.1361488 38
-0.4642868 -1.3740532 0.93756795 39
-0.46550903 -1.3768778 0.75935262 39
-0.46173427 -1.3649276 0.59036082 6
-0.46132526 -1.3629351 0.43775898 6
-0.46222612 -1.3648121 0.29293695 9
-0.47612867 -1.4050546 0.15352008 31
-0.010527855 -0.029483821 1.9941976 73
-0.10232439 -0.2967276 1.9958843 96
-0.13369513 -0.39060268 2.0083039 98
-0.19689268 -0.57646084 1.9934158 77
-0.26606297 -0.77938074 1.999715 95
-0.33896282 -0.99346286 1.9901714 81
-0.424577 -1.2443706 2.0036924 84
-0.44991675 -1.3186276 1.7441562 68
-0.041873671 -0.11783299 1.9960728 89
-0.074464954 -0.20618562 1.9983203 93
-0.16626962 -0.48379168 2.0057559 96
-0.2311655 -0.67332476 1.9901476 91
-0.30289948 -0.88323539 1.9936218 93
-0.38211685 -1.1142077 1.9968767 91
-0.45160705 -1.3168179 1.9174706 68
-0.45129412 -1.3158976 1.5863868 78
-0.45708704 -1.3442464 1.4750612 37
-0.46091962 -1.3555095 1.236421 38
-0.46401235 -1.3638237 1.02911 39
-0.45994624 -1.3518647 0.83372045 38
-0.46041378 -1.3524648 0.66554499 38
-0.4641467 -1.3626504 0.51280105 37
-0.4704023 -1.3810157 0.3684603 16
-0.33248451 -0.97555852 0.1852968 8
-0.46106118 -1.3497397 1.3510627 38
-0.46230477 -1.3526084 1.1243762 39
-0.46489727 -1.3601855 0.92997068 39
-0.46443796 -1.358067 0.75096041 39
-0.4619092 -1.3499032 0.58543277 9
-0.46293116 -1.3521193 0.43541437 7
-0.46859229 -1.3678751 0.29362676 17
-0.47455063 -1.38448 0.15271395 30
-0.010625569 -0.029448748 1.9941976 73
-0.10330781 -0.29638663 1.9958843 96
-0.13498968 -0.39015716 2.0083039 97
