# .PCD v0.7 - Point Cloud Data file format
VERSION 0.7
FIELDS x y z intensity
SIZE 4 4 4 4
TYPE F F F F
COUNT 1 1 1 1
WIDTH 1314
HEIGHT 1
VIEWPOINT 0 0 0 1 0 0 0
POINTS 1314
DATA ascii
-0.32693401 -0.75373995 1.9951125 95
-0.41849869 -0.96527642 1.9945602 85
-0.46144029 -1.0643125 1.7763801 37
-0.4662261 -1.0753442 1.4794071 37
-0.051168956 -0.11410414 1.9960728 88
-0.09094771 -0.2000511 2.0032918 93
-0.20394902 -0.46778139 2.0009167 64
-0.28430688 -0.65266633 1.9901476 91
-0.37275833 -0.85609818 1.9936218 93
-0.46191469 -1.0608441 1.9627492 39
-0.46310896 -1.0635804 1.6102793 39
-0.46856537 -1.0766181 1.3511763 39
-0.4671891 -1.0806646 1.236752 38
-0.47082338 -1.0890646 1.038741 38
-0.4722963 -1.0919483 0.864622 39
-0.47015217 -1.0869846 0.70622903 37
-0.4714672 -1.0900249 0.5681473 36
-0.47644213 -1.1009994 0.4423413 31
-0.47815582 -1.1044307 0.31996405 15
-0.47299337 -1.0919839 0.19957551 28
-0.46970293 -1.0823215 1.1316227 39
-0.46948546 -1.0813036 0.94190019 39
-0.47270715 -1.0892376 0.78309 39
-0.47582746 -1.0959036 0.63976359 37
-0.47625718 -1.0963696 0.50494123 36
-0.47665492 -1.0967613 0.37914312 27
-0.46597156 -1.0716678 0.25499707 10
-0.47221789 -1.0855153 0.14142823 35
-0.012963049 -0.028497208 1.9941976 77
-0.12684515 -0.28710252 1.9958843 97
-0.165977 -0.37801647 2.0083039 95
-0.24453652 -0.55792087 1.9934158 88
-0.32969442 -0.75253671 1.9951125 95
-0.42203379 -0.96373606 1.9945602 85
-0.46195161 -1.054881 1.7639813 36
-0.46759224 -1.0677549 1.4717332 37
-0.051606707 -0.11390683 1.9960728 88
-0.091715187 -0.19970039 2.0032918 95
-0.20574366 -0.46699485 2.0009167 60
-0.28681082 -0.65156984 1.9901476 93
-0.37604275 -0.85466063 1.9936218 92
-0.46283343 -1.0519011 1.9499513 38
-0.4635478 -1.0535182 1.5983108 39
-0.46878725 -1.0654194 1.3401507 39
-0.46829244 -1.0724086 1.229743 38
-0.47169605 -1.0801965 1.0324655 38
-0.47294724 -1.0825465 0.85913903 39
-0.47058576 -1.0771348 0.70159298 37
-0.4719356 -1.0797108 0.56440127 36
-0.47682181 -1.0903709 0.43952289 31
-0.47648609 -1.0890853 0.31716621 14
-0.47318894 -1.0810355 0.19868311 28
-0.47085562 -1.0736701 1.1249729 39
-0.46876183 -1.0683888 0.93307072 39
-0.47361141 -1.0794353 0.77802515 38
-0.47657436 -1.0856732 0.63556755 37
-0.47685653 -1.0858011 0.50165582 35
-0.4771432 -1.0859389 0.37679848 26
-0.46809092 -1.0653368 0.25430727 10
-0.47437194 -1.0791205 0.14122671 33
-0.013057478 -0.028454065 1.9941976 75
-0.12779653 -0.28668028 1.9958843 97
-0.16722962 -0.377464 2.0083039 95
-0.24638529 -0.55710691 1.9934158 88
-0.3321881 -0.75143921 1.9951125 95
-0.42522734 -0.9623313 1.9945602 85
-0.462035 -1.0456215 1.7515824 36
-0.46724316 -1.0574014 1.4602224 38
-0.051964302 -0.11374414 1.9960728 88
-0.092342101 -0.19941127 2.0032918 93
-0.20720974 -0.4663462 2.0009167 60
-0.28885639 -0.65066558 1.9901476 93
-0.37872589 -0.85347497 1.9936218 92
-0.46296215 -1.0432903 1.9371535 38
-0.46441025 -1.0465471 1.5903319 39
-0.46919724 -1.0578259 1.3328004 39
-0.46897006 -1.0643228 1.2227339 38
-0.47056642 -1.0679393 1.0230522 38
-0.47316107 -1.0733199 0.85365611 39
-0.46879381 -1.0634071 0.69463891 37
-0.47158518 -1.069739 0.56065518 36
-0.47637308 -1.0800889 0.43670449 30
-0.47593898 -1.0785947 0.31530097 13
-0.47256026 -1.0704319 0.19779068 27
-0.47120523 -1.0653552 1.1183233 39
-0.46884465 -1.0595183 0.9271844 39
-0.47332421 -1.0701396 0.77296025 38
-0.47612041 -1.0759538 0.63137144 37
-0.47625259 -1.0757451 0.49837047 35
-0.47445777 -1.0711861 0.37328154 24
-0.46742278 -1.054806 0.25292763 10
-0.47371006 -1.0684905 0.14082363 31
-0.013156721 -0.028408311 1.9941976 75
-0.12879644 -0.28623244 1.9958843 97
-0.16854621 -0.37687796 2.0083039 96
-0.24832846 -0.55624348 1.9934158 88
-0.33480909 -0.75027514 1.9951125 95
-0.42858395 -0.96084112 1.9945602 85
-0.46224305 -1.0362927 1.7391837 37
-0.46831936 -1.0499083 1.4525485 37
-0.052380845 -0.11355291 1.9960728 88
-0.093072355 -0.19907148 2.0032918 93
-0.20891759 -0.46558356 2.0009167 60
-0.29123926 -0.64960253 1.9901476 91
-0.38170278 -0.85214776 1.9936218 93
-0.46340263 -1.0345275 1.9243557 38
-0.46436414 -1.0366677 1.5783634 39
-0.47029933 -1.0499111 1.3254501 39
-0.46978363 -1.0561624 1.2157247 38
-0.47112709 -1.0591764 1.0167766 39
-0.4735046 -1.0640213 0.8481732 39
-0.46890053 -1.0536692 0.69000286 37
-0.47361726 -1.0637681 0.55878216 36
-0.47642463 -1.0695713 0.43388608 30
-0.47370481 -1.0634654 0.3125031 12
-0.47223952 -1.0596782 0.19689827 27
-0.4718762 -1.0568841 1.1116736 39
-0.46924314 -1.0504942 0.92129809 39
-0.47372663 -1.0605249 0.7678954 38
-0.47635725 -1.0659144 0.62717533 37
-0.47826463 -1.0696812 0.49672776 35
-0.47441116 -1.0605658 0.3709369 23
-0.46723992 -1.0440454 0.25154799 10
-0.4755815 -1.0621873 0.14062211 31
-0.013255805 -0.028362213 1.9941976 75
-0.12979481 -0.28578112 1.9958843 97
-0.16986074 -0.37628734 2.0083039 96
-0.25026861 -0.55537325 1.9934158 88
-0.33742598 -0.74910182 1.9951125 95
-0.43193528 -0.95933914 1.9945602 85
-0.46239156 -1.0269749 1.7267847 37
-0.46803269 -1.0394974 1.4410377 37
-0.052776899 -0.11336938 1.9960728 88
-0.093766682 -0.19874538 2.0032918 91
-0.2105415 -0.4648515 2.0009167 60
-0.29421651 -0.65015405 1.9948403 91
-0.384675 -0.85081023 1.9936218 93
-0.46378747 -1.0257745 1.9115579 38
-0.46549651 -1.0295479 1.5703843 39
-0.46977121 -1.038996 1.3144246 39
-0.47054595 -1.0480094 1.2087157 38
-0.47163236 -1.0504228 1.010501 39
-0.47378904 -1.0547335 0.84269023 39
-0.46894497 -1.0439435 0.68536681 37
-0.47352684 -1.0536513 0.55503613 36
-0.47622061 -1.0591508 0.43106771 29
-0.47137082 -1.0483645 0.30970526 12
-0.47184962 -1.0489401 0.19600585 25
-0.47249383 -1.0484214 1.1050239 39
-0.46958438 -1.0414803 0.91541177 39
-0.47388148 -1.0510044 0.76283056 38
-0.47634259 -1.0559709 0.62297922 37
-0.47811028 -1.0593964 0.49344236 35
-0.47410992 -1.0500435 0.36859226 21
-0.46680409 -1.0333819 0.25016838 10
-0.47517139 -1.0514157 0.14021905 31
-0.013354726 -0.028315768 1.9941976 73
-0.13079157 -0.28532633 1.9958843 96
-0.1711732 -0.37569213 2.0083039 95
-0.25220567 -0.55449629 1.9934158 88
-0.3408474 -0.7496978 1.999715 95
-0.43528134 -0.95782566 1.9945602 85
-0.46364498 -1.0202309 1.7185189 38
-0.46900553 -1.03202 1.4333638 38
-0.053172313 -0.11318447 1.9960728 88
-0.094459862 -0.19841689 2.0032918 91
-0.21216287 -0.46411377 2.0009167 58
-0.29648417 -0.64912313 1.9948403 91
-0.38764253 -0.84946227 1.9936218 95
-0.46411699 -1.0170314 1.8987602 38
-0.46533352 -1.019691 1.5584158 39
-0.47058016 -1.0311815 1.3070743 39
-0.47125715 -1.0398641 1.2017065 38
-0.47208235 -1.0416788 1.0042255 39
-0.47401446 -1.0454566 0.83720732 39
-0.47075677 -1.0382655 0.68304878 37
-0.47337162 -1.0435483 0.55129004 36
-0.47594976 -1.0487452 0.4282493 29
-0.47096729 -1.0377666 0.30784002 10
-0.47344932 -1.0427519 0.19555964 26
-0.47305813 -1.0399673 1.0983742 39
-0.46986842 -1.0324769 0.90952545 39
-0.47397572 -1.0414958 0.75776571 38
-0.47626445 -1.0460408 0.61878312 37
-0.47984782 -1.0534235 0.49179968 35
-0.47575673 -1.0439593 0.36741996 21
-0.46835402 -1.0272403 0.24947855 11
-0.47676525 -1.0452052 0.14001751 30
-0.013453485 -0.028268978 1.9941976 75
-0.13178676 -0.28486806 1.9958843 97
-0.17248356 -0.37509233 2.0083039 95
-0.25413969 -0.55361253 1.9934158 88
-0.34346226 -0.74850351 1.999715 95
-0.43862212 -0.95630038 1.9945602 85
-0.46368381 -1.0109328 1.70612 37
-0.46859533 -1.0216346 1.4218529 38
-0.053567074 -0.11299817 1.9960728 88
-0.095151894 -0.19808595 2.0032918 91
-0.21378163 -0.46337032 2.0009167 58
-0.29874822 -0.64808422 1.9948403 91
-0.39060533 -0.84810394 1.9936218 95
-0.46439111 -1.0082985 1.8859622 38
-0.46636841 -1.0125854 1.5504369 39
-0.46992207 -1.0202948 1.2960488 40
-0.47191721 -1.0317266 1.1946975 38
-0.47085777 -1.0294042 0.99481207 39
-0.47418094 -1.0361913 0.83172441 39
-0.47069106 -1.028559 0.67841274 37
-0.47315171 -1.0334593 0.54754394 36
-0.47561213 -1.0383544 0.42543092 28
-0.46844995 -1.0227181 0.30504215 10
-0.47293699 -1.0320383 0.19466722 26
-0.47356921 -1.0315222 1.0917245 39
-0.47009537 -1.0234843 0.90363914 39
-0.47400936 -1.0319996 0.75270081 38
-0.4761228 -1.036124 0.61458701 37
-0.4795768 -1.0431606 0.4885143 35
-0.47533575 -1.0334603 0.36507532 19
-0.46779659 -1.0166016 0.24809891 11
-0.47832158 -1.0389965 0.13981599 30
-0.013552081 -0.028221846 1.9941976 75
-0.13278033 -0.28440627 1.9958843 93
-0.17379181 -0.37448797 2.0083039 96
-0.25607064 -0.55272204 1.9934158 88
-0.34607291 -0.74730003 1.999715 95
-0.44296396 -0.95693749 1.9989488 87
-0.46366343 -1.0016471 1.6937212 37
-0.46946508 -1.014174 1.414179 38
-0.053961188 -0.1128105 1.9960728 88
-0.095842764 -0.19775258 2.0032918 89
-0.21539778 -0.46262127 2.0009167 60
-0.30100864 -0.64703745 1.9948403 93
-0.39356339 -0.84673536 1.9936218 93
-0.46460995 -0.99957633 1.8731647 38
-0.46608889 -1.0027519 1.5384684 39
-0.47062272 -1.0124998 1.2886984 39
-0.47103149 -1.0203593 1.1841838 38
-0.47118494 -1.0206856 0.98853654 39
-0.47428852 -1.0269374 0.82624143 39
-0.47242099 -1.0228878 0.67609471 37
-0.47481173 -1.027593 0.54567093 35
-0.47722071 -1.0323334 0.42402172 27
-0.46789461 -1.012159 0.30317691 9
-0.47444612 -1.0258611 0.19422102 25
-0.47402719 -1.0230862 1.0850749 39
-0.47196522 -1.0181701 0.90069598 39
-0.47398254 -1.0225158 0.74763596 38
-0.47591773 -1.026221 0.6103909 36
-0.47924 -1.0329124 0.48522896 34
-0.47689381 -1.027386 0.36390302 18
-0.46925652 -1.0104711 0.24740911 11
-0.47773534 -1.0282589 0.13941292 29
-0.01365051 -0.028174369 1.9941976 75
-0.13377228 -0.28394103 1.9958843 95
-0.17509796 -0.37387902 2.0083039 95
-0.25799844 -0.55182481 1.9934158 88
-0.34867936 -0.74608749 1.999715 93
-0.44630158 -0.95538545 1.9989488 87
-0.46477494 -0.99492347 1.6854552 38
-0.46893167 -1.0038153 1.4026681 38
-0.054354638 -0.11262145 1.9960728 88
-0.096532464 -0.19741683 2.0032918 91
-0.21701133 -0.46186656 2.0009167 62
-0.30326539 -0.6459828 1.9948403 93
-0.39651665 -0.8453564 1.9936218 93
-0.4647736 -0.99086493 1.8603667 38
-0.46702635 -0.9956615 1.5304893 39
-0.47127467 -1.0047122 1.2813481 40
-0.4715783 -1.0122436 1.1771748 38
-0.47145694 -1.0119771 0.982261 38
-0.47433731 -1.0176958 0.82075846 39
-0.47224551 -1.0132016 0.67145866 37
-0.47447735 -1.0175261 0.54192483 35
-0.47676495 -1.0219661 0.42120335 26
-0.4672713 -1.0016162 0.30131167 9
-0.47381169 -1.0151733 0.19332859 24
-0.47443205 -1.0146596 1.0784252 39
-0.47209105 -1.0091939 0.89480966 39
-0.47572213 -1.01695 0.74510354 38
-0.47564948 -1.0163324 0.60619479 36
-0.47883764 -1.0226797 0.48194358 33
-0.47841522 -1.0213134 0.36273068 18
-0.46857783 -0.9998585 0.24602947 11
-0.47920087 -1.0220616 0.13921139 27
-0.013748774 -0.028126545 1.9941976 75
-0.1347626 -0.28347236 1.9958843 96
-0.17640199 -0.37326556 2.0083039 95
-0.25992307 -0.5509209 1.9934158 88
-0.35128155 -0.74486578 1.999715 93
-0.44963375 -0.95382166 1.9989488 87
-0.46464518 -0.98565882 1.6730564 37
-0.4696987 -0.99637264 1.3949943 38
-0.054747432 -0.11243103 1.9960728 88
-0.097220987 -0.19707868 2.0032918 91
-0.21862222 -0.46110624 2.0009167 62
-0.30477965 -0.64336079 1.9901476 93
-0.39946508 -0.84396714 1.9936218 93
-0.46599796 -0.98452187 1.8518349 38
-0.4666307 -0.98585266 1.5185208 39
-0.47187811 -0.99693263 1.2739978 39
-0.47055689 -1.0009092 1.1666611 38
-0.471674 -1.0032793 0.97598541 38
-0.47432747 -1.0084662 0.81527555 39
-0.47389373 -1.0075381 0.66914064 37
-0.4760524 -1.0116689 0.54005182 35
-0.47624266 -1.011615 0.41838494 25
-0.46867242 -0.99553466 0.30037907 8
-0.47523046 -1.009008 0.19288239 24
-0.47319025 -1.0028653 1.0684506 39
-0.47215992 -1.0002295 0.88892335 39
-0.47558823 -1.0074859 0.74003869 38
-0.4753179 -1.0064579 0.60199869 36
-0.47836965 -1.0124623 0.47865823 33
-0.4819774 -1.0196371 0.36273068 17
-0.46994799 -0.9937399 0.24533966 11
-0.48062894 -1.0158666 0.13900986 25
-0.013846871 -0.028078385 1.9941976 75
-0.13575129 -0.28300023 1.9958843 96
-0.17770386 -0.37264752 2.0083039 95
-0.26184458 -0.5500102 1.9934158 88
-0.35387948 -0.74363506 1.999715 95
-0.45193142 -0.95008302 1.9945602 87
-0.46566537 -0.97894871 1.6647905 38
-0.46904236 -0.98604178 1.3834835 38
-0.055139557 -0.11223924 1.9960728 88
-0.097908333 -0.19673811 2.0032918 89
-0.22023045 -0.46034029 2.0009167 64
-0.30776778 -0.64384985 1.9948403 93
-0.40240866 -0.84256762 1.9936218 95
-0.46605968 -0.97582918 1.8390369 38
-0.46747118 -0.97877848 1.5105419 39
-0.47243294 -0.98916107 1.2666475 40
-0.47099069 -0.99281645 1.159652 38
-0.47183612 -0.99459261 0.96970987 38
-0.47425896 -0.99924916 0.80979264 37
-0.4736087 -0.99787313 0.66450459 37
-0.47560385 -1.0016255 0.53630573 35
-0.47771245 -1.0056132 0.41697577 24
-0.46792898 -0.98501855 0.29851383 8
-0.47661197 -1.002845 0.19243617 21
-0.47347739 -0.99446416 1.0618008 39
-0.47391036 -0.99492604 0.88598019 39
-0.47539416 -0.99803519 0.73497385 38
-0.47492322 -0.99659854 0.59780258 36
-0.47986859 -1.0065236 0.47701553 33
-0.48344108 -1.0135615 0.36155838 16
-0.47128123 -0.98762405 0.24464986 14
-0.48201972 -1.0096742 0.13880834 27
-0.013944799 -0.028029878 1.9941976 75
-0.13673832 -0.28252465 1.9958843 96
-0.17900355 -0.37202495 2.0083039 95
-0.26376286 -0.54909283 1.9934158 84
-0.35647312 -0.74239528 1.999715 95
-0.45524508 -0.94849974 1.9945602 87
-0.46542668 -0.96970648 1.6523917 38
-0.46970695 -0.97861814 1.3758096 38
-0.055531006 -0.11204609 1.9960728 89
-0.098594479 -0.19639514 2.0032918 89
-0.221836 -0.45956874 2.0009167 69
-0.31001335 -0.64277166 1.9948403 91
-0.40534732 -0.84115779 1.9936218 95
-0.46606645 -0.96714807 1.8262392 38
-0.46695957 -0.96899545 1.4985734 39
-0.47293937 -0.98139799 1.2592971 40
-0.47137377 -0.98473293 1.152643 38
-0.47194341 -0.98591697 0.96343434 38
-0.47413194 -0.99004501 0.80430973 37
-0.47517553 -0.99221826 0.66218656 37
-0.47709417 -0.99577838 0.53443271 35
-0.47707263 -0.9952876 0.41415736 24
-0.46711788 -0.97451973 0.29664856 7
-0.47795627 -0.99668479 0.19198996 17
-0.47371164 -0.98607326 1.0551512 39
-0.47387844 -0.9859795 0.88009381 39
-0.47700745 -0.99248385 0.73244143 38
-0.4744657 -0.9867543 0.59360647 36
-0.4792847 -0.99633104 0.47373018 33
-0.48276046 -1.0031081 0.35921374 15
-0.47257745 -0.981511 0.24396002 14
-0.48120499 -0.99898362 0.13840526 27
-0.014042556 -0.02798103 1.9941976 75
-0.13772368 -0.2820456 1.9958843 96
-0.18030107 -0.37139782 2.0083039 95
-0.26567796 -0.54816884 1.9934158 86
-0.3590624 -0.74114645 1.999715 95
-0.45750892 -0.94474846 1.9901714 83
-0.46635571 -0.96301049 1.6441258 38
-0.46892816 -0.9683165 1.3642988 38
-0.055921782 -0.11185156 1.9960728 89
-0.099279426 -0.19604979 2.0032918 89
-0.22343884 -0.45879158 2.0009167 67
-0.31225514 -0.64168561 1.9948403 91
-0.40828103 -0.83973771 1.9936218 93
-0.46601835 -0.95847887 1.8134414 38
-0.46770331 -0.96193844 1.4905944 39
-0.47339731 -0.97364324 1.2519468 40
-0.47170624 -0.976659 1.1456339 38
-0.47199586 -0.97725266 0.9571588 38
-0.47394651 -0.98085427 0.79882675 38
-0.47478113 -0.98257554 0.65755045 36
-0.4765318 -0.98575944 0.53068668 35
-0.47636649 -0.98497868 0.41133898 22
-0.46837801 -0.96846104 0.29571593 7
-0.47926342 -0.99052751 0.19154376 13
-0.47389317 -0.97769284 1.0485015 39
-0.47378999 -0.97704554 0.8742075 39
-0.47670674 -0.98305446 0.72737658 38
-0.47394517 -0.97692537 0.58941036 36
-0.48069757 -0.99040347 0.47208747 32
-0.48413593 -0.99704444 0.35804144 15
-0.47167286 -0.97094661 0.24258038 14
-0.48250535 -0.99280441 0.13820374 28
-0.014140142 -0.027931843 1.9941976 75
-0.13870735 -0.28156316 1.9958843 95
-0.18159638 -0.37076619 2.0083039 95
-0.26758981 -0.54723805 1.9934158 88
-0.36164728 -0.73988849 1.999715 95
-0.45870045 -0.93884063 1.9813942 69
-0.46600837 -0.95379174 1.631727 38
-0.46949059 -0.96091288 1.3566248 38
-0.056311876 -0.11165568 1.9960728 88
-0.099963158 -0.19570205 2.0032918 91
-0.2255937 -0.45913771 2.0057559 55
-0.31449315 -0.64059168 1.9948403 93
-0.41120976 -0.83830744 1.9936218 93
-0.46591541 -0.94982189 1.8006437 38
-0.46707615 -0.95218229 1.4786259 39
-0.47380698 -0.96589756 1.2445965 40
-0.47198808 -0.96859473 1.1386248 38
-0.47199365 -0.96860021 0.95088327 38
-0.47553506 -0.97543526 0.7960853 38
-0.47432533 -0.97294796 0.6529144 36
-0.47793758 -0.97992325 0.5288136 34
-0.47769812 -0.97899854 0.40992978 21
-0.4674474 -0.95799077 0.29385069 7
-0.48053333 -0.98437315 0.19109753 12
-0.47402197 -0.96932334 1.0418518 39
-0.47364491 -0.96812415 0.86832118 39
-0.47634602 -0.97363919 0.72231174 38
-0.47535712 -0.97118855 0.58731234 36
-0.47999811 -0.98023701 0.46880212 32
-0.48333651 -0.98661852 0.3556968 14
-0.4728798 -0.96484739 0.24189058 13
-0.48156896 -0.98214269 0.13780068 27
-0.014237557 -0.027882315 1.9941976 75
-0.13968934 -0.28107724 1.9958843 95
-0.18288951 -0.37013006 2.0083039 95
-0.26949841 -0.54630071 1.9934158 88
-0.36422774 -0.73862165 1.999715 95
-0.4609156 -0.93508488 1.9770056 44
-0.4668465 -0.94711107 1.623461 38
-0.47000709 -0.95351714 1.348951 38
-0.056701284 -0.11145843 1.9960728 88
-0.10040054 -0.19487759 1.9983203 93
-0.22719502 -0.45834744 2.0057559 40
-0.31672734 -0.63949001 1.9948403 91
-0.41413352 -0.83686703 1.9936218 95
-0.46575779 -0.94117743 1.7878458 38
-0.46772337 -0.94514346 1.4706469 39
-0.47416839 -0.958161 1.2372462 40
-0.47221944 -0.96054047 1.1316158 38
-0.47365433 -0.96345323 0.94774544 38
-0.47524616 -0.96626514 0.79060239 38
-0.47380808 -0.96333545 0.64827836 36
-0.47726169 -0.96992975 0.52506757 34
-0.47687492 -0.96871692 0.40711141 20
-0.46861899 -0.95194602 0.29291809 7
-0.47956598 -0.97375453 0.19020511 16
-0.47409818 -0.96096492 1.0352021 39
-0.47344345 -0.95921594 0.86243486 39
-0.4778336 -0.96810454 0.71977931 38
-0.47673488 -0.96545392 0.58521426 36
-0.48132518 -0.97432154 0.46715942 31
-0.48031673 -0.97185296 0.35217986 13
-0.47185498 -0.9543125 0.24051094 16
-0.48277923 -0.97597766 0.13759914 25
-0.014334798 -0.027832445 1.9941976 75
-0.14066964 -0.28058794 1.9958843 96
-0.18418039 -0.3694894 2.0083039 95
-0.2714037 -0.54535663 1.9934158 88
-0.36680382 -0.7373457 1.999715 95
-0.46204337 -0.92917997 1.9682282 38
-0.46639079 -0.9379167 1.6110622 38
-0.47047761 -0.94612944 1.3412771 38
-0.057090003 -0.11125983 1.9960728 88
-0.10108019 -0.19452593 1.9983203 93
-0.22879356 -0.4575516 2.0057559 39
-0.31895763 -0.63838047 1.9948403 93
-0.41705221 -0.83541626 1.9936218 93
-0.46671042 -0.93487906 1.7793139 38
-0.46832725 -0.93811196 1.4626678 39
-0.47448152 -0.95043361 1.2298958 40
-0.47240034 -0.95249647 1.1246065 38
-0.47355515 -0.95481902 0.94146991 38
-0.47675759 -0.96085459 0.78786093 38
-0.47519875 -0.95770723 0.64596033 36
-0.47652188 -0.95995295 0.52132148 34
-0.4781197 -0.9627499 0.4057022 19
-0.46756926 -0.94150543 0.29105285 7
-0.48074621 -0.96761465 0.1897589 16
-0.47578576 -0.95596093 1.0318773 39
-0.47318557 -0.95032084 0.85654855 38
-0.47736669 -0.9587121 0.71471447 38
-0.47807842 -0.95972162 0.58311623 36
-0.48051047 -0.96418214 0.46387407 31
-0.4793686 -0.96147048 0.34983522 13
-0.47297284 -0.94822818 0.23982114 18
-0.48172161 -0.96534592 0.13719608 24
-0.014431863 -0.027782239 1.9941976 75
-0.14164822 -0.28009522 1.9958843 96
-0.18546902 -0.36884424 2.0083039 95
-0.27330571 -0.54440594 1.9934158 88
-0.36937541 -0.73606092 1.999715 95
-0.46313557 -0.92327863 1.959451 38
-0.46713835 -0.93125236 1.6027962 38
-0.47090244 -0.93875033 1.3336033 38
-0.057478022 -0.11105987 1.9960728 88
-0.10175859 -0.19417192 1.9983203 93
-0.23038931 -0.45675018 2.0057559 39
-0.32118407 -0.6372633 1.9948403 93
-0.4199658 -0.83395541 1.9936218 93
-0.46645176 -0.92625624 1.7665161 38
-0.46888775 -0.93108767 1.4546889 39
-0.47474661 -0.94271582 1.2225455 39
-0.47412658 -0.94765222 1.121102 38
-0.47340149 -0.94619727 0.93519431 38
-0.47636551 -0.95170629 0.78237802 38
-0.47457293 -0.94811934 0.64132428 36
-0.47779408 -0.95413852 0.51944846 34
-0.47717983 -0.95249671 0.40288383 20
-0.46645233 -0.93108368 0.28918761 7
-0.4796581 -0.95702642 0.1888665 17
-0.4757686 -0.94761968 1.0252275 39
-0.47287148 -0.94143945 0.85066223 38
-0.47877523 -0.95318741 0.71218204 38
-0.47734991 -0.94993639 0.57892013 36
-0.47963089 -0.95406049 0.46058869 31
-0.4783538 -0.95110655 0.34749055 14
-0.4718281 -0.93772382 0.2384415 21
-0.48284203 -0.95919615 0.13699456 23
-0.014528753 -0.027731692 1.9941976 77
-0.14262506 -0.27959904 1.9958843 97
-0.18675539 -0.36819458 2.0083039 95
-0.27520436 -0.54344863 1.9934158 88
-0.37194249 -0.73476702 1.999715 95
-0.46419221 -0.91738111 1.9506736 37
-0.46657458 -0.9220835 1.5903974 37
-0.4712815 -0.9313798 1.3259294 38
-0.057865344 -0.11085856 1.9960728 89
-0.10243576 -0.19381553 1.9983203 93
-0.23198228 -0.45594317 2.0057559 56
-0.32340655 -0.6361382 1.9948403 95
-0.42287427 -0.83248436 1.9936218 93
-0.46731979 -0.91997206 1.7579843 38
-0.46940494 -0.92407101 1.4467099 39
-0.47496361 -0.93500787 1.2151952 39
-0.47421792 -0.93962395 1.1140929 38
-0.47319347 -0.93758845 0.92891872 39
-0.47779995 -0.94630498 0.7796365 38
-0.47388601 -0.93854761 0.63668823 36
-0.47694126 -0.94418907 0.51570243 33
-0.478338 -0.94654363 0.40147462 21
-0.46748394 -0.92506552 0.28825498 7
-0.48074883 -0.95090187 0.18842027 19
-0.47569907 -0.93929017 1.0185778 39
-0.47250107 -0.93257189 0.84477592 38
-0.47820243 -0.94381881 0.70711714 38
-0.47861087 -0.94421613 0.57682204 35
-0.48082235 -0.94816864 0.45894602 31
-0.47507355 -0.93642694 0.34397361 14
-0.47285721 -0.93165517 0.23775169 20
-0.48166355 -0.9485957 0.13659149 26
-0.014625466 -0.027680807 1.9941976 73
-0.14360018 -0.27909949 1.9958843 97
-0.1880395 -0.36754045 2.0083039 95
-0.27709967 -0.54248464 1.9934158 88
-0.37450501 -0.73346424 1.999715 95
-0.46521336 -0.91148746 1.9418963 37
-0.46723184 -0.91543639 1.5821315 37
-0.47161481 -0.92401791 1.3182554 38
-0.058251958 -0.11065589 1.9960728 89
-0.10311167 -0.19345678 1.9983203 93
-0.23357241 -0.45513064 2.0057559 80
-0.32562512 -0.63500547 1.9948403 93
-0.42577761 -0.83100319 1.9936218 93
-0.46696034 -0.91137183 1.7451864 38
-0.46987891 -0.91706228 1.4387308 39
-0.47513255 -0.92730987 1.2078449 40
-0.47425911 -0.93160677 1.1070838 38
-0.47293112 -0.92899251 0.92264318 39
-0.47730494 -0.93717945 0.77415359 38
-0.47514871 -0.93294007 0.63437021 36
-0.47812954 -0.93838781 0.51382935 33
-0.47946045 -0.94059402 0.40006539 18
-0.46624845 -0.91467518 0.28638974 7
-0.47954032 -0.94034505 0.18752787 18
-0.47557721 -0.93097293 1.0119282 39
-0.47207466 -0.92371851 0.8388896 38
-0.47757015 -0.93446583 0.7020523 38
-0.47777173 -0.93445778 0.57262599 35
-0.47982806 -0.93807566 0.45566064 31
-0.47391093 -0.92610896 0.34162897 13
-0.47384965 -0.92559081 0.23706186 20
-0.48269439 -0.94246191 0.13638996 25
-0.014717178 -0.027632158 1.9941976 73
-0.14452493 -0.27862176 1.9958843 96
-0.18925728 -0.36691484 2.0083039 95
-0.27889711 -0.5415628 1.9934158 88
-0.37693524 -0.73221827 1.999715 95
-0.46494475 -0.9035489 1.9287302 37
-0.46768975 -0.90887767 1.5738657 38
-0.47320947 -0.9195984 1.3144184 38
-0.058599308 -0.11047234 1.9960728 89
-0.10371892 -0.19313189 1.9983203 93
-0.23500107 -0.45439461 2.0057559 89
-0.32761845 -0.63397932 1.9948403 91
-0.42853099 -0.82958674 1.9936218 93
-0.46758607 -0.90518415 1.7366546 38
-0.47015083 -0.91014349 1.4307519 39
-0.47493264 -0.91978812 1.2004945 40
-0.47408888 -0.9236834 1.1000748 38
-0.47423163 -0.92395592 0.91950542 39
-0.47850007 -0.93187177 0.77141213 38
-0.4741925 -0.92347723 0.62973416 36
-0.47683996 -0.92863309 0.51008332 33
-0.48241302 -0.93908304 0.40006539 19
-0.46703365 -0.90875494 0.28545713 7
-0.48037881 -0.93432063 0.18708165 19
-0.47524211 -0.92275089 1.0052785 39
-0.47328386 -0.91855484 0.83594644 38
-0.47655547 -0.92529529 0.69698745 37
-0.47862631 -0.92891777 0.57052791 35
-0.47844526 -0.92816854 0.45237529 31
-0.47236249 -0.91597557 0.33928433 13
-0.4722141 -0.91529566 0.23568225 23
-0.48107007 -0.93206191 0.13598689 26
-0.014818356 -0.02757803 1.9941976 75
-0.14554515 -0.27809018 1.9958843 96
-0.19060081 -0.36621872 2.0083039 95
-0.28156888 -0.54186219 1.9981875 89
-0.37961644 -0.7308318 1.999715 95
-0.46604532 -0.89758629 1.919953 37
-0.46842435 -0.90216249 1.5655998 38
-0.47362211 -0.91216737 1.3067446 38
-0.05902306 -0.11024652 1.9960728 89
-0.10445974 -0.19273221 1.9983203 93
-0.23674408 -0.45348892 2.0057559 95
-0.33005032 -0.63271672 1.9948403 91
-0.43171319 -0.8279351 1.9936218 92
-0.46744069 -0.89644456 1.7238568 38
-0.46946144 -0.90031433 1.4187834 39
-0.4754861 -0.91186225 1.1931442 39
-0.47419098 -0.91560614 1.0930656 39
-0.47403431 -0.9152981 0.91322988 38
-0.47806501 -0.92268628 0.76592922 38
-0.47349784 -0.91386598 0.62509811 37
-0.47826865 -0.92267948 0.5082103 33
-0.48380679 -0.93296504 0.39865619 20
-0.46825743 -0.90259463 0.2845245 8
-0.48166871 -0.92804921 0.18663543 21
-0.4770591 -0.917606 1.0019536 39
-0.47307703 -0.90955883 0.83006012 38
-0.47628728 -0.91572529 0.69192261 37
-0.47816142 -0.91893679 0.5663318 35
-0.47998664 -0.92205143 0.45073256 30
-0.47379044 -0.90976095 0.33811203 13
-0.47343764 -0.90908355 0.23499241 25
-0.48233694 -0.92577726 0.13578537 29
-0.014909727 -0.02752874 1.9941976 71
-0.14646654 -0.27760601 1.9958843 96
-0.19181418 -0.36558467 2.0083039 95
-0.28336421 -0.54092556 1.9981875 89
-0.38203788 -0.72956896 1.999715 95
-0.46679711 -0.89179075 1.9111756 38
-0.46749836 -0.89312482 1.553201 38
-0.47367084 -0.9049111 1.2990707 38
-0.059388321 -0.11005019 1.9960728 88
-0.10509828 -0.19238475 1.9983203 93
-0.23766077 -0.4515883 2.0009167 95
-0.33134347 -0.63009143 1.9901476 91
-0.43445638 -0.82649899 1.9936218 92
-0.46798378 -0.89027256 1.715325 38
-0.4696396 -0.89341688 1.4108044 39
-0.47535238 -0.90427881 1.1857939 39
-0.47392347 -0.90770602 1.0860566 39
-0.4752652 -0.91027021 0.91009212 38
-0.47918618 -0.91738969 0.76318777 38
-0.47447458 -0.90836394 0.62278008 37
-0.47917864 -0.91697967 0.50633723 33
-0.48467544 -0.92710423 0.39724702 17
-0.46897143 -0.89668399 0.2835919 9
-0.48243481 -0.9220342 0.18618923 20
-0.47663227 -0.90940386 0.99530393 39
-0.47421366 -0.90440536 0.82711697 38
-0.4773193 -0.91032267 0.68939018 37
-0.47909778 -0.91332698 0.56423378 35
-0.47865269 -0.91209137 0.44744721 30
-0.47228587 -0.89957762 0.33576739 12
-0.47184572 -0.89873928 0.23361278 26
-0.48308122 -0.91974974 0.13558383 30
-0.015010526 -0.027473908 1.9941976 71
-0.14748302 -0.2770673 1.9958843 96
-0.19315283 -0.36487916 2.0083039 95
-0.2853449 -0.53988326 1.9981875 89
-0.3847093 -0.72816378 1.999715 95
-0.4667061 -0.88371855 1.8980098 38
-0.46814033 -0.88642871 1.544935 38
-0.47548714 -0.90033412 1.2952337 38
-0.059791278 -0.10983178 1.9960728 86
-0.10606098 -0.19246556 2.0032918 91
-0.23931433 -0.45071423 2.0009167 93
-0.33365065 -0.62887281 1.9901476 91
-0.43748274 -0.82490104 1.9936218 92
-0.4675777 -0.88163924 1.7025272 38
-0.4700866 -0.88636428 1.4028255 39
-0.47548667 -0.89654052 1.1784436 40
-0.47392294 -0.8996526 1.0790476 38
-0.4749696 -0.90163386 0.90381652 38
-0.47864634 -0.90822887 0.75770473 37
-0.47366971 -0.89878035 0.61814404 37
-0.47821209 -0.90701556 0.50259119 33
-0.48359388 -0.91683513 0.39442861 17
-0.46996224 -0.89061463 0.28265926 8
-0.48348603 -0.91585577 0.18574302 20
-0.47821653 -0.90434963 0.99197906 39
-0.47374502 -0.8955155 0.82123065 38
-0.47662053 -0.90094543 0.68432534 37
-0.48031908 -0.90755349 0.5621357 35
-0.4797827 -0.90615743 0.44580451 29
-0.4733046 -0.89354539 0.33459508 12
-0.47281852 -0.89262772 0.23292297 25
-0.48177049 -0.9091441 0.13518077 31
-0.015106335 -0.027421344 1.9941976 73
-0.14844927 -0.2765508 1.9958843 95
-0.19442533 -0.36420274 2.0083039 95
-0.28722772 -0.53888398 1.9981875 88
-0.38724872 -0.72681653 1.999715 93
-0.46753553 -0.87785494 1.8892323 37
-0.46858603 -0.87982178 1.5366691 38
-0.47561288 -0.89300966 1.2875599 38
-0.060174298 -0.1096224 1.9960728 88
-0.10673217 -0.19209415 2.0032918 91
-0.24088615 -0.44987613 2.0009167 91
-0.33584377 -0.62770432 1.9901476 93
-0.44021577 -0.8234458 1.9936218 93
-0.46803951 -0.87548393 1.6939954 38
-0.47018135 -0.87948471 1.3948464 39
-0.47526032 -0.88897938 1.1710931 39
-0.47371414 -0.89169395 1.0720384 38
-0.4762876 -0.89653254 0.90067875 39
-0.47788888 -0.89916784 0.75222182 37
-0.47472498 -0.89320946 0.61582601 37
-0.47919878 -0.90124744 0.50071812 33
-0.48453832 -0.91090602 0.39301944 19
-0.47060612 -0.88471442 0.28172666 9
-0.48418096 -0.90985119 0.1852968 20
-0.47769952 -0.89616793 0.98532933 39
-0.47481009 -0.89037305 0.81828749 38
-0.47757685 -0.89555585 0.68179291 37
-0.4811897 -0.90195143 0.56003767 35
-0.48056138 -0.90039521 0.44416183 29
-0.47397575 -0.88768321 0.33342275 13
-0.47359824 -0.88660377 0.23223317 27
-0.48258635 -0.90305066 0.13497925 30
-0.015201963 -0.027368445 1.9941976 73
-0.1494137 -0.27603096 1.9958843 95
-0.19569543 -0.36352181 2.0083039 96
-0.28910699 -0.53787804 1.9981875 88
-0.38978341 -0.72546035 1.999715 93
-0.46719623 -0.8698858 1.8760663 37
-0.46899134 -0.87322265 1.5284033 38
-0.47569329 -0.8856954 1.279886 38
-0.060556591 -0.10941169 1.9960728 88
-0.10740205 -0.19172043 2.0032918 91
-0.24245505 -0.44903252 2.0009167 91
-0.33803284 -0.62652814 1.9901476 91
-0.44308746 -0.82190406 1.9936218 95
-0.46861738 -0.86925346 1.6854634 38
-0.47038788 -0.87253213 1.3868674 39
-0.4751429 -0.8813467 1.1637428 40
-0.47345552 -0.88374782 1.0650294 38
-0.47573739 -0.88800168 0.89440322 38
-0.47707406 -0.89012331 0.74673891 38
-0.47574717 -0.8876422 0.61350799 36
-0.47796038 -0.89139789 0.49697202 33
-0.48317963 -0.90075421 0.39020103 18
-0.47136942 -0.87873751 0.28079402 10
-0.48499912 -0.90376741 0.1848506 21
-0.47728857 -0.88791651 0.9786796 39
-0.47408637 -0.88159043 0.81240118 38
-0.47865811 -0.89008629 0.67926049 37
-0.48003462 -0.89227259 0.55584157 35
-0.48146328 -0.8945539 0.44251916 29
-0.47246268 -0.87746394 0.33107814 13
-0.4743416 -0.88058531 0.23154333 27
-0.4833656 -0.8969627 0.13477771 33
-0.015297404 -0.027315214 1.9941976 75
-0.15037633 -0.27550772 1.9958843 97
-0.19696318 -0.36283651 2.0083039 95
-0.29098278 -0.53686565 1.9981875 88
-0.39231336 -0.72409528 1.999715 93
-0.46794796 -0.86403644 1.8672891 37
-0.46935627 -0.86663133 1.5201373 38
-0.47572848 -0.8783915 1.272212 38
-0.060938135 -0.10919964 1.9960728 88
-0.10807063 -0.19134435 2.0032918 91
-0.24402097 -0.44818345 2.0009167 95
-0.34021777 -0.62534434 1.9901476 91
-0.44595376 -0.82035238 1.9936218 95
-0.46791184 -0.8607384 1.6726656 38
-0.4705517 -0.8655889 1.3788885 39
-0.47497812 -0.87372583 1.1563925 40
-0.47484243 -0.87895221 1.0615247 39
-0.47698388 -0.88291061 0.89126545 38
-0.47819012 -0.88477415 0.74399745 38
-0.47462985 -0.87818134 0.60887194 36
-0.47886407 -0.88564605 0.49509901 33
-0.48175597 -0.89062303 0.38738266 20
-0.47209677 -0.87276614 0.27986142 12
-0.48578072 -0.89768904 0.18440439 22
-0.47860548 -0.88296199 0.97535479 39
-0.47523397 -0.87637681 0.80945796 38
-0.47970703 -0.88462013 0.67672807 37
-0.48098215 -0.88660222 0.55374354 35
-0.48233026 -0.88871723 0.44087645 29
-0.47320348 -0.87153786 0.32990581 13
-0.47268507 -0.87022084 0.23016369 29
-0.48410824 -0.89088023 0.13457619 34
-0.015392657 -0.027261648 1.9941976 75
-0.15133712 -0.27498111 1.9958843 97
-0.19822851 -0.36214676 2.0083039 95
-0.29285502 -0.53584659 1.9981875 88
-0.39483854 -0.72272146 1.999715 93
-0.46751624 -0.85608977 1.854123 37
-0.46968099 -0.86004829 1.5118713 38
-0.47571856 -0.87109828 1.2645382 39
-0.061318941 -0.10898626 1.9960728 88
-0.10873789 -0.19096597 2.0032918 91
-0.24558394 -0.44732893 2.0009167 95
-0.34239858 -0.62415302 1.9901476 93
-0.4488146 -0.81879073 1.9936218 95
-0.46840626 -0.85452586 1.6641337 38
-0.47067279 -0.85865521 1.3709093 40
-0.47639552 -0.86908972 1.1527174 40
-0.47449553 -0.87102592 1.0545157 39
-0.47633836 -0.8744033 0.88498992 38
-0.47727367 -0.87575632 0.73851454 36
-0.47557235 -0.87262923 0.60655391 36
-0.47973347 -0.87989891 0.49322596 33
-0.47797045 -0.87630129 0.38315508 20
-0.47278821 -0.86680037 0.27892879 12
-0.48652586 -0.8916164 0.18395817 21
-0.47810265 -0.87473232 0.96870506 39
-0.47441173 -0.86761981 0.80357164 38
-0.47865522 -0.87537497 0.67166322 37
-0.48189595 -0.88093621 0.55164546 35
-0.48316243 -0.88288552 0.43923378 28
-0.47157443 -0.86135375 0.32756117 14
-0.47334093 -0.86422223 0.22947389 29
-0.48481435 -0.88480365 0.13437465 33
-0.015487725 -0.027207753 1.9941976 75
-0.15229605 -0.27445117 1.9958843 97
-0.19949144 -0.36145264 2.0083039 95
-0.29400277 -0.53351307 1.9934158 84
-0.39735892 -0.72133881 1.999715 93
-0.46703482 -0.84815693 1.8409572 37
-0.46996546 -0.85347354 1.5036055 38
-0.47566354 -0.86381584 1.2568643 39
-0.061699003 -0.10877156 1.9960728 88
-0.10913742 -0.1901225 1.9983203 91
-0.24714392 -0.44646895 2.0009167 95
-0.34457517 -0.62295401 1.9901476 91
-0.45166996 -0.81721914 1.9936218 95
-0.46886307 -0.84832054 1.6556019 39
-0.47075123 -0.85173136 1.3629304 39
-0.47614637 -0.86148721 1.145367 39
-0.47409919 -0.86311281 1.0475066 39
-0.47751349 -0.86932313 0.88185215 38
-0.47831398 -0.87042052 0.73577303 36
-0.47648191 -0.86708128 0.60423589 36
-0.47833523 -0.870094 0.4894799 33
-0.47640267 -0.86622053 0.38033667 22
-0.47344381 -0.86084056 0.27799615 12
-0.48483387 -0.88118619 0.18306577 23
-0.47754815 -0.86651701 0.96205539 39
-0.47548586 -0.86241883 0.80062848 38
-0.47962636 -0.86992335 0.6691308 37
-0.48058397 -0.87130052 0.54744929 35
-0.48395979 -0.87705886 0.43759111 27
-0.47222921 -0.85544711 0.32638884 16
-0.47396067 -0.85822958 0.22878408 29
-0.48548394 -0.87873292 0.13417313 33
-0.015582602 -0.027153526 1.9941976 73
-0.15363267 -0.27459589 2.0008237 97
-0.20075192 -0.36075407 2.0083039 95
-0.29586333 -0.53248352 1.9934158 84
-0.39987445 -0.71994734 1.999715 93
-0.46650374 -0.84023774 1.8277911 37
-0.46884379 -0.84444708 1.4912066 38
-0.47556347 -0.85654444 1.2491904 39
-0.062078308 -0.10855552 1.9960728 89
-0.1098004 -0.18974039 1.9983203 91
-0.24870089 -0.44560355 2.0009167 95
-0.34758812 -0.62325448 1.9948403 93
-0.45451984 -0.81563753 1.9936218 95
-0.46928227 -0.84212238 1.6470701 38
-0.47078711 -0.84481746 1.3549514 38
-0.47585005 -0.85389727 1.1380167 39
-0.47365338 -0.85521322 1.0404975 39
-0.47677287 -0.8608402 0.87557656 38
-0.47729629 -0.86143053 0.73029011 37
-0.47735858 -0.86153764 0.60191786 35
-0.47912195 -0.86436427 0.48760688 32
-0.47709695 -0.86035687 0.37892747 21
-0.47406355 -0.85488671 0.27706355 14
-0.48549089 -0.87513351 0.18261954 22
-0.47694224 -0.8583163 0.95540571 39
-0.47456554 -0.85368824 0.79474217 38
-0.48056531 -0.86447573 0.66659838 37
-0.48141658 -0.86565125 0.54535127 35
-0.4824264 -0.86711067 0.43430573 27
-0.47048458 -0.84529936 0.32404423 16
-0.47454438 -0.85224324 0.22809425 28
-0.48611712 -0.8726685 0.13397159 32
-0.015672563 -0.027101703 1.9941976 73
-0.15454242 -0.2740849 2.0008237 97
-0.20194712 -0.36008638 2.0083039 95
-0.29762748 -0.53149951 1.9934158 88
-0.40225968 -0.71861738 1.999715 93
-0.46694773 -0.83450472 1.8190137 37
-0.46889332 -0.83797634 1.4829408 37
-0.4752703 -0.84936738 1.2415166 37
-0.062419042 -0.10835996 1.9960728 88
-0.11039595 -0.1893945 1.9983203 93
-0.25009957 -0.44482002 2.0009167 96
-0.34954441 -0.62215942 1.9948403 93
-0.4572221 -0.81412578 1.9936218 95
-0.46951801 -0.83601367 1.6385381 38
-0.47063425 -0.83799595 1.3469725 36
-0.47687066 -0.84944195 1.1343416 38
-0.47474861 -0.85052389 1.036993 38
-0.47772747 -0.85585529 0.87243879 38
-0.47811157 -0.85619223 0.72754866 37
-0.47805294 -0.85608196 0.59959984 35
-0.47957483 -0.85880733 0.48573384 33
-0.4751181 -0.85047764 0.37610909 23
-0.47210288 -0.84473401 0.27519831 14
-0.48595995 -0.8691721 0.18217334 22
-0.47796121 -0.85347176 0.95208085 39
-0.47541821 -0.84858352 0.79179901 38
-0.4811722 -0.85920012 0.66406596 37
-0.48191541 -0.86017507 0.54325324 35
-0.4828392 -0.86147124 0.43266305 27
-0.47076064 -0.8395775 0.32287189 16
-0.47479665 -0.84642917 0.22740445 28
-0.48641136 -0.86678022 0.13377005 31
-0.015771789 -0.027044076 1.9941976 73
-0.15516169 -0.27284133 1.9958843 97
-0.20326556 -0.3593438 2.0083039 95
-0.29957351 -0.53040504 1.9934158 86
-0.40489084 -0.71713823 1.999715 95
-0.46647057 -0.82652849 1.8058478 37
-0.46919522 -0.8313508 1.4746748 35
-0.4752287 -0.84203577 1.2338426 34
-0.06283465 -0.10811949 1.9960728 88
-0.11112236 -0.18896921 1.9983203 91
-0.25180569 -0.44385645 2.0009167 96
-0.35193077 -0.62081265 1.9948403 91
-0.45927107 -0.81046963 1.9891212 93
-0.47015294 -0.82966673 1.6300063 38
-0.47236249 -0.83356053 1.3429829 33
-0.47693381 -0.84162194 1.1269913 36
-0.47611308 -0.84567046 1.0334884 38
-0.47704148 -0.84731424 0.86616325 38
-0.47919443 -0.85079086 0.7248072 37
-0.4768391 -0.84660387 0.59496373 36
-0.48059306 -0.85292065 0.48386082 32
-0.47602445 -0.84446806 0.37469989 20
-0.47293001 -0.83863628 0.27426568 15
-0.48684675 -0.86296225 0.18172713 21
-0.4775604 -0.84512794 0.94543117 38
-0.47668388 -0.84323317 0.78885585 38
-0.48037407 -0.84975559 0.65900111 37
-0.48313031 -0.85428315 0.54115516 34
-0.48396805 -0.85541588 0.43102038 25
-0.46933866 -0.82922089 0.32052726 18
-0.47316459 -0.83598047 0.22602481 28
-0.48727435 -0.86055875 0.13356853 31
-0.015866095 -0.02698886 1.9941976 73
-0.15611315 -0.27229804 1.9958843 96
-0.20451866 -0.35863206 2.0083039 95
-0.30142313 -0.52935612 1.9934158 86
-0.40739164 -0.71572047 1.999715 95
-0.46698326 -0.82073063 1.7970704 38
-0.46931097 -0.82481635 1.466409 33
-0.47499409 -0.83479905 1.2261688 30
-0.063211672 -0.1078995 1.9960728 89
-0.1117813 -0.18858017 1.9983203 91
-0.25335354 -0.44297478 2.0009167 93
-0.35409567 -0.61958045 1.9948403 91
-0.4619562 -0.8089422 1.9891212 83
-0.47031492 -0.82357359 1.6214744 38
-0.47213477 -0.82675511 1.335004 28
-0.47804087 -0.8370918 1.123316 32
-0.47554123 -0.83780044 1.0264792 35
-0.47807461 -0.84225839 0.86302549 37
-0.47803181 -0.8418408 0.71932429 37
-0.47760382 -0.8410818 0.5926457 35
-0.4812775 -0.84720695 0.48198777 32
-0.47422862 -0.83445954 0.37188148 20
-0.47085416 -0.82852179 0.27240044 16
-0.48724443 -0.85701388 0.18128091 20
-0.47851238 -0.8402946 0.94210631 36
-0.47747675 -0.83813566 0.78591269 37
-0.48105529 -0.84441197 0.65646869 37
-0.4837133 -0.84873325 0.53905714 34
-0.47978485 -0.84149879 0.42609233 25
-0.47208586 -0.8276599 0.32052726 18
-0.47362548 -0.83002251 0.225335 28
-0.4853217 -0.85017502 0.13316546 30
-0.015982972 -0.026970534 1.9991974 73
-0.15706271 -0.27175146 1.9958843 95
-0.20576927 -0.35791594 2.0083039 95
-0.30401272 -0.52959603 1.9981875 88
-0.40988749 -0.71429408 1.999715 95
-0.46746111 -0.81493932 1.7882931 37
-0.46938685 -0.81829119 1.4581431 31
-0.47471476 -0.82757407 1.2184948 20
-0.063587926 -0.10767819 1.9960728 89
-0.11271332 -0.18864682 2.0032918 89
-0.25489825 -0.44208771 2.0009167 93
-0.35625628 -0.61834061 1.9948403 91
-0.46369052 -0.80543733 1.9846202 68
-0.47058436 -0.81740648 1.6129426 38
-0.47351402 -0.82248992 1.3310144 17
-0.47757697 -0.82954198 1.1159657 25
-0.47669154 -0.83304012 1.0229747 32
-0.47714472 -0.83382684 0.85674983 34
-0.47889006 -0.8365382 0.71658283 35
-0.47833577 -0.83556473 0.59032768 35
-0.47962406 -0.83747607 0.47824171 32
-0.47713855 -0.83279902 0.37188148 19
-0.47130141 -0.82261091 0.27146783 17
-0.48528004 -0.84666651 0.18038851 19
-0.47958338 -0.83538049 0.9387815 33
-0.47637337 -0.82945371 0.78002638 32
-0.4797056 -0.83525056 0.65140384 33
-0.48441195 -0.84310436 0.53695905 34
-0.48507264 -0.84391332 0.427735 24
-0.47497207 -0.82600695 0.32052726 17
-0.47158119 -0.81977898 0.22395536 27
-0.48579445 -0.84414566 0.13296393 29
-0.016077019 -0.026914578 1.9991974 73
-0.15801033 -0.27120152 1.9958843 95
-0.20701736 -0.35719553 2.0083039 95
-0.30585951 -0.52853161 1.9981875 88
-0.41237837 -0.71285897 1.999715 95
-0.4679043 -0.80915469 1.7795159 38
-0.46942294 -0.81177568 1.4498771 31
-0.47439086 -0.82036144 1.2108209 12
-0.063963406 -0.10745557 1.9960728 89
-0.11337113 -0.18825224 2.0032918 89
-0.25643983 -0.44119525 2.0009167 93
-0.3584125 -0.61709332 1.9948403 91
-0.46649918 -0.80381387 1.9846202 40
-0.47081652 -0.81124753 1.6044106 38
-0.47335637 -0.81561863 1.3230355 17
-0.47876796 -0.8249377 1.1122906 15
-0.47781447 -0.828282 1.0194702 26
-0.4761619 -0.82541227 0.8504743 29
-0.47762704 -0.82761824 0.71109986 28
-0.47903514 -0.83005297 0.58800966 29
-0.48022652 -0.83178192 0.4763687 29
-0.4752439 -0.82282007 0.36906311 18
-0.47416997 -0.82096076 0.27146783 16
-0.48574099 -0.84065551 0.17994229 18
-0.48062593 -0.83046925 0.93545663 25
-0.47724053 -0.82428789 0.77708322 24
-0.47829783 -0.82610893 0.64633894 22
-0.48280248 -0.83355373 0.53276294 17
-0.48801553 -0.84221494 0.427735 14
-0.47297716 -0.81593364 0.31818265 18
-0.47443983 -0.81812781 0.22395536 25
-0.48372409 -0.83380216 0.13256088 27
-0.016170871 -0.026858296 1.9991974 73
-0.15895602 -0.27064836 1.9958843 95
-0.20826295 -0.3564707 2.0083039 93
-0.30770254 -0.52746075 1.9981875 88
-0.41486418 -0.71141511 1.999715 95
-0.4683128 -0.80337697 1.7707385 38
-0.47083652 -0.80770105 1.4457443 34
-0.47563705 -0.81593084 1.206984 12
-0.06433811 -0.10723165 1.9960728 88
-0.11402757 -0.18785535 2.0032918 89
-0.25797835 -0.44029742 2.0009167 95
-0.36143637 -0.61732769 1.9995331 95
-0.46820253 -0.80030102 1.9801195 39
-0.47101143 -0.80509698 1.5958788 38
-0.47467858 -0.81135988 1.3190459 23
-0.47993267 -0.82033539 1.1086154 14
-0.47891 -0.8235262 1.0159657 16
-0.47708327 -0.82037997 0.84733653 15
-0.47630766 -0.81871742 0.70561695 17
-0.47970182 -0.8245464 0.58569163 15
-0.4737992 -0.81407374 0.46887657 8
-0.47569934 -0.81701046 0.36765391 10
-0.48197615 -0.8277908 0.27333307 11
-0.49117905 -0.84325802 0.18038851 14
-0.48164001 -0.82556099 0.93213177 15
-0.47604001 -0.81563514 0.7711969 7
-0.47683218 -0.8169874 0.64127403 13
-0.48342076 -0.82794398 0.53066492 17
-0.476661 -0.81603962 0.41787887 5
nan nan nan 0
-0.47979203 -0.82074201 0.2246452 20
-0.48410958 -0.82779592 0.13235934 25
-0.016264526 -0.026801687 1.9991974 73
-0.15989982 -0.27009183 1.9958843 96
-0.20950601 -0.35574159 2.0083039 89
-0.30954185 -0.5263834 1.9981875 88
-0.41734496 -0.70996267 1.999715 95
-0.46868667 -0.79760629 1.7619612 38
-0.47080168 -0.80120039 1.4374783 37
-0.47685799 -0.81150162 1.2031471 12
-0.064712033 -0.10700641 1.9960728 88
-0.1144034 -0.18700109 1.9983203 89
-0.26015344 -0.44047719 2.0057559 95
-0.36358902 -0.61606228 1.9995331 93
-0.46878073 -0.79491019 1.9711179 39
-0.47116917 -0.79895502 1.587347 39
-0.47597679 -0.80710191 1.3150564 28
-0.48107108 -0.81573492 1.1049403 14
-0.47997811 -0.81877297 1.0124611 16
-0.47600648 -0.81199294 0.841061 10
-0.47493193 -0.80983597 0.70013404 9
-0.48033592 -0.81904542 0.58337361 4
-0.47663796 -0.81241488 0.46887657 8
nan nan nan 0
nan nan nan 0
-0.49664113 -0.84583282 0.18083471 7
-0.48073268 -0.81743681 0.92548209 15
-0.47683454 -0.81048465 0.76825374 6
-0.47749496 -0.81160212 0.63874161 6
-0.4817037 -0.81842887 0.52646881 4
nan nan nan 0
nan nan nan 0
nan nan nan 0
-0.49968186 -0.84761983 0.133367 12
-0.016353313 -0.026747603 1.9991974 73
-0.16079457 -0.2695601 1.9958843 95
-0.21068454 -0.35504484 2.0083039 87
-0.31128573 -0.52535409 1.9981875 88
-0.41969699 -0.70857483 1.999715 95
-0.46888787 -0.79192477 1.7531838 38
-0.47345597 -0.79963475 1.4374783 39
-0.47954643 -0.80991584 1.2031471 12
-0.065047875 -0.10680258 1.9960728 89
-0.11499031 -0.18664075 1.9983203 93
-0.26153594 -0.43965772 2.0057559 96
-0.36552262 -0.61491698 1.9995331 93
-0.47030166 -0.79147911 1.9666169 40
-0.47115141 -0.79290408 1.5788151 39
-0.4786506 -0.8055191 1.3150564 29
-0.48363143 -0.81421959 1.1049403 15
-0.48269063 -0.81717676 1.0124611 16
-0.4767167 -0.80705822 0.83792323 10
-0.47548762 -0.8046568 0.69739258 5
-0.4807955 -0.81363404 0.58105558 3
nan nan nan 0
nan nan nan 0
nan nan nan 0
nan nan nan 0
-0.48153704 -0.81262553 0.92215723 15
-0.47745836 -0.80542201 0.76531059 6
-0.47564664 -0.80268013 0.63367677 5
-0.48195806 -0.81300741 0.52437073 3
nan nan nan 0
nan nan nan 0
nan nan nan 0
-0.49979156 -0.84175009 0.13316546 5
-0.016446579 -0.026690356 1.9991974 73
-0.16173455 -0.26899719 1.9958843 95
-0.21192259 -0.35430726 2.0083039 87
-0.31311765 -0.52426428 1.9981875 88
-0.42216781 -0.70710546 1.999715 95
-0.4691937 -0.78616881 1.7444066 37
-0.47480214 -0.79556078 1.4333454 40
-0.48237064 -0.80823696 1.2031471 14
-0.065438896 -0.10656346 1.9960728 89
-0.11567362 -0.18621804 1.9983203 93
-0.2631456 -0.43869621 2.0057559 95
-0.36688671 -0.61209297 1.9948403 91
-0.47082353 -0.7860961 1.9576153 40
-0.47123608 -0.78677988 1.5702833 39
-0.48145947 -0.80384332 1.3150564 29
-0.48661241 -0.81244147 1.1049403 16
-0.48371568 -0.81242263 1.0089566 17
-0.47753936 -0.80204445 0.83478546 15
-0.47615367 -0.79939967 0.69465107 5
-0.47909841 -0.80433846 0.57641953 3
nan nan nan 0
nan nan nan 0
nan nan nan 0
nan nan nan 0
-0.48245576 -0.80773365 0.91883242 18
-0.48026687 -0.80375046 0.76531059 11
-0.47637394 -0.79723054 0.63114434 5
-0.48260599 -0.80733997 0.52227271 4
nan nan nan 0
nan nan nan 0
nan nan nan 0
nan nan nan 0
-0.016539648 -0.026632782 1.9991974 73
-0.16267252 -0.26843098 1.9958843 95
-0.21315806 -0.35356539 2.0083039 89
-0.31494576 -0.52316809 1.9981875 88
-0.4246335 -0.7056275 1.999715 96
-0.46946511 -0.78042036 1.7356292 37
-0.47757629 -0.79389858 1.4333454 40
-0.48684159 -0.80929536 1.206984 14
-0.065810464 -0.10633438 1.9960728 88
-0.11632293 -0.18581313 1.9983203 93
-0.26467535 -0.43777496 2.0057559 95
-0.36902109 -0.61080855 1.9948403 91
-0.47018817 -0.77885491 1.9441129 40
-0.47128373 -0.78066468 1.5617512 39
-0.48582017 -0.80473799 1.3190459 28
-0.48944545 -0.81073797 1.1049403 16
-0.48654863 -0.81072927 1.0089566 16
-0.4803361 -0.8003726 0.83478546 17
-0.47678885 -0.79414773 0.69190961 9
-0.47962281 -0.79886299 0.57410151 5
nan nan nan 0
nan nan nan 0
nan nan nan 0
nan nan nan 0
-0.48527232 -0.8060447 0.91883242 18
-0.48306957 -0.80206913 0.76531059 14
-0.47915393 -0.7955628 0.63114434 8
-0.48307893 -0.80176306 0.52017468 4
nan nan nan 0
nan nan nan 0
nan nan nan 0
nan nan nan 0
-0.01663715 -0.026571983 1.9991974 73
-0.1636553 -0.26783296 1.9958843 95
-0.21445252 -0.35278174 2.0083039 87
-0.31686118 -0.52201027 1.9981875 86
-0.42721689 -0.7040664 1.999715 95
-0.4698374 -0.77459764 1.7268519 37
-0.48048285 -0.79214281 1.4333454 39
-0.48980454 -0.80750555 1.206984 14
-0.066199765 -0.10609246 1.9960728 89
-0.11700319 -0.18538554 1.9983203 89
-0.26627809 -0.43680194 2.0057559 95
-0.37125731 -0.60945189 1.9948403 91
-0.47090989 -0.77332377 1.9351109 40
-0.47156486 -0.77439427 1.5532194 39
-0.49047419 -0.8054409 1.3230355 27
-0.49255484 -0.80885267 1.1049403 16
-0.48951685 -0.80894047 1.0089566 16
-0.48326644 -0.79860669 0.83478546 18
-0.47969636 -0.79239494 0.69190961 10
-0.48025328 -0.79330981 0.57178348 10
-0.4831315 -0.79774994 0.46513048 6
nan nan nan 0
nan nan nan 0
nan nan nan 0
-0.48836368 -0.80417544 0.91883242 18
-0.48824444 -0.80366284 0.76825374 15
-0.47996664 -0.79003251 0.62861192 9
-0.48615393 -0.79990226 0.52017468 8
-0.47870418 -0.7873351 0.40966547 6
-0.47242033 -0.77669448 0.3099764 4
nan nan nan 0
nan nan nan 0
-0.016725175 -0.026516668 1.9991974 73
-0.16454256 -0.26728877 1.9958843 95
-0.2156212 -0.35206863 2.0083039 85
-0.31859046 -0.52095658 1.9981875 88
-0.42954934 -0.70264584 1.999715 95
-0.46865556 -0.76690263 1.7136859 38
-0.48310703 -0.79054517 1.4333454 39
-0.49415135 -0.80861247 1.2108209 14
-0.066532739 -0.10588396 1.9960728 89
-0.11758502 -0.18501705 1.9983203 89
-0.26764902 -0.43596324 2.0057559 96
-0.37317011 -0.60828257 1.9948403 93
-0.47105995 -0.76812768 1.9261093 40
-0.47126839 -0.7684626 1.5446875 39
-0.49457777 -0.80646539 1.3270249 26
-0.4967244 -0.81027794 1.1086154 16
-0.49219671 -0.80731273 1.0089566 16
-0.48591202 -0.79699975 0.83478546 18
-0.48232138 -0.7907998 0.69190961 11
-0.48288131 -0.79171288 0.57178348 10
-0.48322135 -0.79227042 0.46325746 7
-0.4749324 -0.77837467 0.35778955 6
nan nan nan 0
nan nan nan 0
-0.4908877 -0.80263722 0.91883242 17
-0.49076682 -0.80212504 0.76825374 15
-0.48455802 -0.79228294 0.63114434 9
-0.49089384 -0.80232763 0.52227271 8
-0.47857279 -0.78188354 0.40802279 6
-0.47218454 -0.77114421 0.30880409 8
nan nan nan 0
-0.50366443 -0.82191068 0.13256088 4
-0.016817633 -0.026458122 1.9991974 73
-0.16547456 -0.26671278 1.9958843 96
-0.21631393 -0.35044745 2.0034087 85
-0.32040703 -0.51984131 1.9981875 88
-0.43199939 -0.70114213 1.999715 95
-0.46881691 -0.76118225 1.7049085 37
