# .PCD v0.7 - Point Cloud Data file format
VERSION 0.7
FIELDS x y z intensity
SIZE 4 4 4 4
TYPE F F F F
COUNT 1 1 1 1
WIDTH 1416
HEIGHT 1
VIEWPOINT 0 0 0 1 0 0 0
POINTS 1416
DATA ascii
0.010123475 0.12464162 1.9960728 89
0.018914435 0.21893872 2.0032918 91
0.036368623 0.51405478 2.0202737 96
0.050617367 0.71874964 2.0136113 93
0.066346861 0.94665259 2.0251279 92
0.083818033 1.1958405 2.0310042 85
0.10366337 1.4788957 2.0371556 87
0.12714642 1.8138424 2.0494576 71
0.13494593 2.0001516 2.0498068 30
0.17158885 2.5431991 2.1369631 9
0.21208693 3.1352754 2.1448867 7
0.25365266 3.7496872 2.0530026 10
0.33163232 4.8897562 2.0684466 8
0.46444386 6.8303246 2.1009643 28
0.18295252 2.6906066 0.60348058 38
0.66184002 9.7082739 0.96482545 74
0.15650271 2.2723644 2.109128 13
0.19452311 2.8172159 2.1397665 9
0.24216267 3.5071087 2.1506002 8
0.29657906 4.2843022 2.0727334 63
0.39924797 5.7528429 2.0950599 39
nan nan nan 0
0.6822657 9.7814388 1.4580358 3
0.24392831 3.4883797 0.23473704 19
0.0026851674 0.031191688 1.9941976 75
0.023630986 0.31454262 2.0057628 97
0.030132908 0.41379035 2.0180943 95
0.044278506 0.61353672 2.0125027 88
0.059992112 0.83310813 2.0273302 95
0.076594144 1.0661155 2.025281 83
0.095635809 1.3310764 2.0326231 79
0.11777224 1.6391062 2.0434382 76
0.010514997 0.1246092 1.9960728 88
0.019602155 0.21887822 2.0032918 91
0.037983391 0.51393795 2.0202737 96
0.052875128 0.7185871 2.0136113 93
0.069485717 0.94642746 2.0251279 93
0.087783121 1.1955559 2.0310042 85
0.10856699 1.4785438 2.0371556 87
0.13284414 1.8134341 2.0494576 55
0.14132604 1.9961357 2.0463023 27
0.18002145 2.5426161 2.1369631 10
0.22248271 3.1345549 2.1448867 6
0.26608568 3.7488256 2.0530026 11
0.34699225 4.88869 2.0684466 8
0.48589969 6.8288321 2.1009643 28
0.19257289 2.6997848 0.60534585 14
0.69403023 9.7060251 0.96482545 74
0.16726463 2.3165286 2.1490262 10
0.20386428 2.8165553 2.1397665 9
0.25224787 3.4934304 2.143003 9
0.30970949 4.2788234 2.0706356 59
0.41697735 5.74685 2.0934174 38
nan nan nan 0
nan nan nan 0
0.25197291 3.4477351 0.23312479 16
0.0027940301 0.031182125 1.9941976 75
0.024728799 0.31445822 2.0057628 97
0.031577125 0.41368261 2.0180943 95
0.046419878 0.61337847 2.0125027 84
0.062899835 0.83289361 2.0273302 95
0.080315106 1.0658417 2.025281 83
0.10028154 1.3307345 2.0326231 79
0.12349306 1.6386851 2.0434382 76
0.010971643 0.12456982 1.9960728 89
0.020404255 0.2188049 2.0032918 93
0.039866813 0.51379532 2.0202737 96
0.055508528 0.7183885 2.0136113 91
0.072788939 0.94617909 2.0251279 93
0.091955855 1.1952423 2.0310042 87
0.11372741 1.4781559 2.0371556 87
0.13948981 1.8129351 2.0494576 30
0.14935015 2.009856 2.0603204 22
0.18918425 2.5458546 2.140101 10
0.23342299 3.133759 2.1448867 6
0.28015715 3.7611275 2.0599566 38
0.36490786 4.8873854 2.0684466 7
0.51056725 6.8222213 2.0995553 31
nan nan nan 0
0.72790629 9.7035427 0.96482545 79
0.17478591 2.3084831 2.1423767 10
0.21338876 2.8117962 2.1368234 9
0.26276645 3.4623899 2.1252759 9
0.32504582 4.2731328 2.0685375 55
0.43803778 5.7452836 2.0934174 38
0.19704255 2.5784826 0.71442592 2
0.21329419 2.7847502 0.48125663 6
0.26269576 3.4218819 0.23211715 10
0.0029028591 0.031172181 1.9941976 75
0.025826314 0.31436998 2.0057628 97
0.032939829 0.41255492 2.0131991 95
0.048560686 0.6132127 2.0125027 84
0.065806799 0.83266896 2.0273302 95
0.084035106 1.0655549 2.025281 81
0.10514733 1.3331815 2.0367558 79
0.12921239 1.6382442 2.0434382 68
0.011406405 0.12453077 1.9960728 89
0.021167902 0.21873234 2.0032918 93
0.041558299 0.51239926 2.0154345 96
0.058015835 0.71819031 2.0136113 93
0.076091275 0.94591922 2.0251279 93
0.096127465 1.1949141 2.0310042 87
0.11888644 1.4777497 2.0371556 84
0.14690484 1.825954 2.0641582 17
0.15940867 2.0484331 2.0988703 18
0.19806978 2.5451789 2.140101 10
0.24436043 3.132925 2.1448867 8
0.29328424 3.7601266 2.0599566 48
0.38196579 4.8860822 2.0684466 7
0.53437811 6.8203974 2.0995553 30
nan nan nan 0
0.76177359 9.700943 0.96482545 79
0.18313791 2.3115819 2.1457014 10
0.22320247 2.8110344 2.1368234 9
0.27007326 3.4012837 2.0898221 9
0.33995983 4.2719727 2.0685375 55
0.45808992 5.7437196 2.0934174 38
0.2064292 2.5826242 0.71559823 6
nan nan nan 0
0.2686418 3.3462455 0.22909418 9
0.0030116527 0.031161856 1.9941976 75
0.026923511 0.31427789 2.0057628 96
0.03437971 0.41243744 2.0131991 93
0.050700907 0.61303943 2.0125027 86
0.06871295 0.83243424 2.0273302 93
0.087754078 1.065255 2.025281 81
0.10956931 1.330002 2.0326231 79
0.13493015 1.6377831 2.0434382 59
0.01184103 0.12449019 1.9960728 89
0.021931291 0.21865712 2.0032918 93
0.043346651 0.51225114 2.0154345 97
0.060522437 0.71798342 2.0136113 93
0.079392686 0.94564784 2.0251279 93
0.10029792 1.1945711 2.0310042 85
0.12404404 1.4773257 2.0371556 84
0.15497981 1.8456998 2.0862093 16
0.17060563 2.0976272 2.147934 9
0.20695291 2.5444717 2.140101 10
0.25495517 3.1278853 2.1421452 8
0.30676767 3.7634957 2.0622747 49
0.39901909 4.8847189 2.0684466 34
0.55779105 6.8137088 2.098146 28
0.80639261 9.8504925 1.967904 2
0.79563153 9.698225 0.96482545 78
0.19089779 2.3072066 2.1423767 10
0.23301345 2.8102381 2.1368234 8
0.27660051 3.3358731 2.0518358 9
0.35449389 4.2662368 2.0664394 55
0.47813642 5.7420855 2.0934174 37
0.21503879 2.5770442 0.71442592 10
0.23314272 2.7881281 0.48194647 27
0.25195247 3.0067499 0.21539009 9
0.0031204096 0.031151155 1.9941976 75
0.028020382 0.31418201 2.0057628 96
0.035819177 0.41231492 2.0131991 93
0.052840501 0.61285871 2.0125027 86
0.071618266 0.83218932 2.0273302 93
0.09147197 1.0649422 2.025281 83
0.11421121 1.3296113 2.0326231 79
0.14064625 1.637302 2.0434382 38
0.01227551 0.1244481 1.9960728 89
0.022694413 0.21857923 2.0032918 93
0.045134477 0.5120967 2.0154345 97
0.063179299 0.71948683 2.0183041 93
0.08269313 0.94536495 2.0251279 93
0.10446713 1.1942137 2.0310042 87
0.1292001 1.4768838 2.0371556 84
0.1628989 1.8620338 2.1045849 15
0.17792666 2.0970192 2.147934 9
0.21550438 2.539855 2.1369631 10
0.26551774 3.1228101 2.1394038 8
0.31990284 3.7624018 2.0622747 59
0.41646105 4.8879151 2.0703199 39
0.58116394 6.806941 2.0967369 7
0.83826506 9.8182507 1.962308 3
0.82990432 9.7003508 0.96527165 78
0.1992712 2.3102467 2.1457014 11
0.2424735 2.8053803 2.1338801 8
0.28861442 3.3391824 2.054368 34
0.36938372 4.2649732 2.0664394 55
0.49858546 5.7450862 2.0950599 37
0.22361194 2.5714352 0.71325362 10
0.23599547 2.7083619 0.47090942 6
0.27982867 3.2049325 0.22345132 10
0.0032291282 0.031140074 1.9941976 75
0.029116912 0.31408229 2.0057628 97
0.037258208 0.41218734 2.0131991 95
0.054979458 0.61267054 2.0125027 88
0.074522719 0.83193427 2.0273302 95
0.095188752 1.0646164 2.025281 83
0.11885172 1.3292047 2.0326231 77
0.14607508 1.6336079 2.0396011 11
0.012709838 0.12440449 1.9960728 89
0.023457259 0.21849869 2.0032918 93
0.047036633 0.5131886 2.0202737 96
0.065690391 0.71926194 2.0183041 93
0.085992567 0.94507056 2.0251279 93
0.10863509 1.1938418 2.0310042 87
0.13435461 1.4764237 2.0371556 74
0.17154844 1.8850874 2.1303113 14
0.18398985 2.0821753 2.1339159 10
0.22436881 2.5390871 2.1369631 10
0.27531037 3.1093686 2.1311793 9
0.33303413 3.7612622 2.0622747 59
0.43352053 4.8864322 2.0703199 39
0.60492098 6.8048706 2.0967369 8
0.87601167 9.8544083 1.969769 3
0.86375976 9.6973944 0.96527165 82
0.20733427 2.3095372 2.1457014 12
0.25226462 2.804517 2.1338801 7
0.30104107 3.3467426 2.059433 56
0.38426897 4.263658 2.0664394 55
0.51863647 5.7433105 2.0950599 37
0.23302457 2.5754802 0.71442592 10
0.24321245 2.6828618 0.46746033 2
0.3249087 3.5770953 0.23856613 7
0.0033378077 0.031128611 1.9941976 77
0.030213084 0.31397873 2.0057628 97
0.038696781 0.41205481 2.0131991 95
0.057117742 0.61247492 2.0125027 88
0.077245124 0.82972389 2.0227277 95
0.098904386 1.0642776 2.025281 83
0.12349079 1.3287816 2.0326231 77
0.15236995 1.6394725 2.0472748 11
0.013144014 0.12435937 1.9960728 89
0.024219818 0.21841547 2.0032918 93
0.048827704 0.51302129 2.0202737 96
0.068200685 0.71902829 2.0183041 93
0.089290954 0.94476461 2.0251279 93
0.11280171 1.1934553 2.0310042 87
0.13950747 1.4759457 2.0371556 63
0.17972279 1.9013524 2.1486869 15
0.19190952 2.0886233 2.1409249 11
0.23323052 2.5382886 2.1369631 9
0.28079572 3.0500951 2.0927989 11
0.34575519 3.7556651 2.0599566 60
0.45057473 4.8848886 2.0703199 42
0.62867081 6.8027172 2.0967369 28
0.90904868 9.8366156 1.9669713 6
0.89806384 9.6992788 0.96571779 82
0.21539477 2.3087995 2.1457014 13
0.26167655 2.7995949 2.1309371 7
0.31272155 3.3456714 2.059433 69
0.3991496 4.262291 2.0664394 56
0.53868121 5.7414651 2.0950599 37
0.24201326 2.574651 0.71442592 12
0.2525759 2.6819963 0.46746033 2
0.34630966 3.6704426 0.24239522 7
0.0034464467 0.031116772 1.9941976 77
0.031308893 0.31387135 2.0057628 97
0.040134884 0.41191721 2.0131991 95
0.059255332 0.61227179 2.0125027 88
0.080140926 0.82944918 2.0227277 95
0.1026188 1.063926 2.025281 81
0.12812835 1.3283424 2.0326231 71
0.15870748 1.6453127 2.0549488 11
0.013578029 0.12431273 1.9960728 89
0.024982084 0.21832961 2.0032918 91
0.05061819 0.51284772 2.0202737 96
0.070710145 0.71878582 2.0183041 93
0.092588253 0.94444716 2.0251279 93
0.11696696 1.1930543 2.0310042 85
0.14465863 1.4754498 2.0371556 40
0.185697 1.8939656 2.1413364 14
0.19919902 2.0879405 2.1409249 13
0.24171966 2.5335839 2.1338253 9
0.28587067 2.9908221 2.0544183 14
0.35886279 3.7544355 2.0599566 60
0.4671815 4.8786716 2.0684466 42
0.65241283 6.8004813 2.0967369 30
0.95839083 9.9898567 1.9968151 12
0.9323917 9.7010431 0.96616405 51
0.22345267 2.3080335 2.1457014 14
0.272618 2.8107338 2.1397665 8
0.32439822 3.3445594 2.059433 68
0.41402534 4.2608719 2.0664394 54
0.55826187 5.7348499 2.0934174 37
0.2505272 2.5689526 0.71325362 15
0.26675153 2.7303853 0.47435847 3
0.39172527 4.002347 0.25589779 48
0.0035550431 0.03110455 1.9941976 75
0.032404315 0.31376013 2.0057628 97
0.0415725 0.41177461 2.0131991 95
0.061392196 0.6120612 2.0125027 86
0.08303576 0.82916439 2.0227277 93
0.10633197 1.0635612 2.025281 81
0.13276435 1.3278872 2.0326231 71
0.1666825 1.6670787 2.0818074 11
0.014011879 0.12426458 1.9960728 88
0.025744043 0.21824108 2.0032918 93
0.052408051 0.51266789 2.0202737 97
0.073218741 0.71853459 2.0183041 93
0.095664345 0.94195163 2.020627 93
0.12113078 1.1926388 2.0310042 85
0.14980802 1.4749359 2.0371556 24
0.19230703 1.8933059 2.1413364 14
0.20683718 2.0907812 2.1444294 13
0.25056207 2.5327246 2.1338253 8
0.29507169 2.9773228 2.0461938 28
0.37196603 3.75316 2.0599566 60
0.48420838 4.8770108 2.0684466 43
0.67567223 6.7933898 2.0953276 31
0.9908253 9.9620104 1.9921521 17
nan nan nan 0
0.23150785 2.3072395 2.1457014 14
0.2804063 2.7896559 2.1250505 9
0.33607095 3.3434064 2.059433 68
0.42844135 4.2548847 2.0643413 54
0.57922471 5.7422633 2.0967026 37
0.25949296 2.5680625 0.71325362 14
0.27578202 2.7245109 0.47366869 7
0.40871775 4.0307779 0.25710699 23
0.0036635967 0.031091955 1.9941976 75
0.033499345 0.31364512 2.0057628 96
0.043009605 0.41162696 2.0131991 95
0.063528307 0.61184323 2.0125027 86
0.085929573 0.8288694 2.0227277 95
0.11004384 1.0631835 2.025281 83
0.13739873 1.3274156 2.0326231 73
0.17382106 1.6792421 2.0971551 10
0.014445558 0.12421491 1.9960728 89
0.02650569 0.21814989 2.0032918 91
0.054197274 0.51248181 2.0202737 97
0.075726449 0.71827471 2.0183041 93
0.098951787 0.94161201 2.020627 92
0.12529312 1.1922088 2.0310042 85
0.1549556 1.474404 2.0371556 22
0.19891474 1.8926231 2.1413364 14
0.21413411 2.0900466 2.1444294 15
0.25940138 2.5318348 2.1338253 8
0.30674344 2.9887531 2.0544183 39
0.3846125 3.7474318 2.0576386 60
0.50122941 4.8752913 2.0684466 43
0.69938147 6.7909894 2.0953276 31
nan nan nan 0
nan nan nan 0
0.2391744 2.3027029 2.1423767 13
0.28554109 2.7444372 2.0926759 11
0.34773955 3.3422129 2.059433 68
0.44329104 4.2533631 2.0643413 55
0.59534264 5.7026315 2.0835612 35
0.26795009 2.5623071 0.71208131 13
nan nan nan 0
nan nan nan 0
0.0037721056 0.031078976 1.9941976 75
0.034593966 0.31352627 2.0057628 96
0.044446196 0.41147432 2.0131991 95
0.065663658 0.61161768 2.0125027 86
0.08882235 0.82856447 2.0227277 95
0.11375437 1.062793 2.025281 83
0.14203143 1.3269278 2.0326231 62
0.18172903 1.6977514 2.1201768 10
0.014879061 0.12416372 1.9960728 89
0.027267016 0.21805604 2.0032918 91
0.055985842 0.51228952 2.0202737 96
0.078233242 0.71800596 2.0183041 93
0.10223803 0.94126081 2.020627 92
0.12945396 1.1917641 2.0310042 83
0.16172883 1.4888358 2.0571032 21
0.20552002 1.8919172 2.1413364 14
0.22180431 2.0928328 2.147934 16
0.26864782 2.5347846 2.1369631 8
0.31673282 2.9835062 2.0516768 64
0.3976911 3.7460666 2.0576386 60
0.51824427 4.8735118 2.0684466 43
0.72308213 6.788507 2.0953276 30
0.99114978 9.3051958 1.8681136 71
0.42317191 3.9662993 0.45034546 51
0.24721088 2.3018539 2.1423767 11
0.29079598 2.7032356 2.0632446 14
0.35940394 3.3409789 2.059433 68
0.45764917 4.2472782 2.0622432 54
0.61169767 5.6676521 2.0720625 5
0.27584773 2.5516911 0.70973665 11
0.34117669 3.1508553 0.53368264 83
nan nan nan 0
0.0038805688 0.031065619 1.9941976 73
0.035688169 0.31340361 2.0057628 96
0.045882236 0.41131669 2.0131991 95
0.067798205 0.61138475 2.0125027 86
0.091714039 0.82824939 2.0227277 93
0.11746352 1.0623894 2.025281 83
0.14666241 1.326424 2.0326231 46
0.1883589 1.7034796 2.1278508 11
0.015312383 0.12411103 1.9960728 88
0.028028006 0.21795952 2.0032918 93
0.057773724 0.51209098 2.0202737 96
0.080739066 0.7177285 2.0183041 93
0.10552301 0.94089818 2.020627 93
0.13361318 1.1913049 2.0310042 83
0.16860464 1.503238 2.0770507 20
0.21212278 1.8911883 2.1413364 14
0.22910829 2.0920458 2.147934 16
0.27622285 2.5222225 2.1275499 9
0.32714528 2.9823825 2.0516768 64
0.4107649 3.7446556 2.0576386 60
0.53525287 4.8716731 2.0684466 42
0.74677408 6.7859411 2.0953276 30
1.0161023 9.2333202 1.8550568 100
0.4375599 3.9697478 0.45079166 68
0.25524434 2.300977 2.1423767 11
0.29799852 2.6821177 2.0485287 24
0.37106395 3.3397038 2.059433 68
0.47247216 4.2456546 2.0622432 54
0.62990832 5.651402 2.0671344 5
0.28421384 2.545882 0.70856434 9
0.35272348 3.1545668 0.53437245 81
nan nan nan 0
0.003988984 0.031051883 1.9941976 73
0.036781933 0.31327713 2.0057628 96
0.047434218 0.41216552 2.0180943 95
0.069931917 0.61114436 2.0125027 86
0.094604604 0.82792419 2.0227277 93
0.12117124 1.061973 2.025281 83
0.15097256 1.3231081 2.0284901 28
0.194304 1.7028118 2.1278508 11
0.015745517 0.12405682 1.9960728 88
0.028788656 0.21786034 2.0032918 91
0.059560906 0.51188618 2.0202737 96
0.083243914 0.71744227 2.0183041 93
0.10880672 0.9405241 2.020627 93
0.13807057 1.193422 2.03527 85
0.17558296 1.5176102 2.0969982 19
0.21872298 1.8904364 2.1413364 14
0.2364095 2.0912335 2.147934 15
0.28546265 2.525111 2.1306875 10
0.33755374 2.9812224 2.0516768 63
0.4238337 3.7431989 2.0576386 59
0.55225486 4.8697748 2.0684466 42
0.77045685 6.7832932 2.0953276 30
1.0444458 9.1955519 1.8485285 42
0.45141429 3.9681962 0.45079166 48
0.26285002 2.2963619 2.1390519 10
0.3078194 2.685077 2.0514717 38
0.38222837 3.334105 2.0569005 68
0.48728934 4.2439795 2.0622432 54
0.65125012 5.6632438 2.0720625 5
0.29254279 2.5400457 0.70739204 7
0.36316532 3.1483967 0.53368264 28
0.44890246 3.8857164 0.2514641 2
0.0040973513 0.03103777 1.9941976 75
0.03787525 0.31314683 2.0057628 93
0.048872653 0.41199744 2.0180943 95
0.072064787 0.61089659 2.0125027 88
0.097494021 0.82758892 2.0227277 93
0.12487748 1.0615435 2.025281 85
0.15559015 1.3225731 2.0284901 23
0.20062135 1.7053072 2.1316879 12
0.016178461 0.12400111 1.9960728 88
0.029621419 0.21828751 2.0082631 89
0.061347358 0.51167518 2.0202737 96
0.085747756 0.71714735 2.0183041 93
0.11234695 0.94230098 2.0251279 95
0.14223553 1.1929327 2.03527 79
0.18302053 1.5349444 2.1209352 18
0.22572191 1.8930277 2.1450119 14
0.24329485 2.086853 2.1444294 15
0.29066873 2.493166 2.1055853 11
0.34795809 2.980026 2.0516768 63
0.43638349 3.7372961 2.0553207 58
0.56925017 4.8678179 2.0684466 42
0.79413027 6.7805629 2.0953276 30
nan nan nan 0
0.46700358 3.9814346 0.45213029 4
0.27086422 2.2954304 2.1390519 10
0.31671584 2.6799719 2.0485287 52
0.39386424 3.3327503 2.0569005 68
0.50210065 4.2422528 2.0622432 55
0.67157054 5.6656256 2.0737052 4
0.30083439 2.5341825 0.70621967 5
nan nan nan 0
nan nan nan 0
0.0042121327 0.031066429 1.9991974 77
0.038871937 0.31224167 2.0008237 93
0.050310496 0.41182432 2.0180943 95
0.074196771 0.61064124 2.0125027 86
0.10038225 0.82724351 2.0227277 93
0.12858221 1.0611012 2.025281 83
0.16020584 1.3220218 2.0284901 23
0.20695844 1.707779 2.1355245 13
0.016611209 0.12394388 1.9960728 89
0.030383201 0.2181828 2.0082631 89
0.063133061 0.51145792 2.0202737 96
0.088250548 0.71684366 2.0183041 93
0.11563552 0.94190311 2.0251279 93
0.14639878 1.1924289 2.03527 69
0.18984661 1.5462623 2.136893 21
0.23232843 1.8922281 2.1450119 14
0.25057784 2.0859911 2.1444294 15
0.2961196 2.4650807 2.0836208 15
0.35835823 2.9787931 2.0516768 63
0.44942641 3.7357502 2.0553207 58
0.58623862 4.8658009 2.0684466 42
0.81779408 6.7777491 2.0953276 31
nan nan nan 0
0.47850886 3.9600039 0.45034546 2
0.27887511 2.2944708 2.1390519 10
0.32558033 2.6748374 2.0455854 71
0.40549532 3.3313553 2.0569005 68
0.51745492 4.2449789 2.0643413 54
0.69191533 5.6679344 2.0753479 5
0.30849883 2.5234675 0.70387506 3
nan nan nan 0
1.1879699 9.6892481 0.48745683 77
0.0043205488 0.031051537 1.9991974 77
0.039961621 0.31210411 2.0008237 95
0.051747724 0.41164622 2.0180943 95
0.07632786 0.61037856 2.0125027 86
0.10326926 0.82688814 2.0227277 93
0.13228536 1.0606458 2.025281 85
0.16656111 1.3354166 2.0491548 23
0.21331528 1.7102275 2.1393616 14
0.017043753 0.12388514 1.9960728 89
0.031144617 0.21807541 2.0082631 88
0.064917997 0.5112344 2.0202737 96
0.090752259 0.71653122 2.0183041 91
0.11892267 0.94149375 2.0251279 92
0.15056026 1.1919106 2.03527 56
0.19486515 1.5425999 2.1329036 29
0.23893213 1.8914057 2.1450119 15
0.25742006 2.0815644 2.1409249 14
0.30090022 2.4331245 2.0585186 16
0.36875397 2.977524 2.0516768 63
0.46246392 3.7341585 2.0553207 58
0.60321981 4.8637252 2.0684466 46
0.84144783 6.7748532 2.0953276 30
nan nan nan 0
0.49601704 3.9879615 0.45302272 2
0.28688261 2.2934835 2.1390519 11
0.33441287 2.6696742 2.0426424 71
0.41712147 3.3299196 2.0569005 66
0.53226954 4.2431474 2.0643413 55
0.71228451 5.6701703 2.0769906 6
0.31912553 2.5368431 0.70739204 2
nan nan nan 0
1.2236601 9.6999111 0.4880614 78
0.0044289129 0.031036265 1.9991974 78
0.041050825 0.31196269 2.0008237 96
0.053184323 0.41146308 2.0180943 95
0.078458004 0.61010844 2.0125027 86
0.10615501 0.82652259 2.0227277 93
0.13598688 1.0601777 2.025281 81
0.17265378 1.3459916 2.0656867 22
0.21928379 1.7094725 2.1393616 14
0.017517038 0.12411155 2.0010643 89
0.031827655 0.21743716 2.0032918 89
0.066539273 0.50975746 2.0154345 96
0.093252867 0.71621007 2.0183041 93
0.12220837 0.94107288 2.0251279 93
0.15471987 1.1913779 2.03527 34
0.20024864 1.5419103 2.1329036 30
0.24553291 1.8905602 2.1450119 15
0.2646845 2.0806532 2.1409249 14
0.3064439 2.4088888 2.0396919 27
0.37914521 2.9762189 2.0516768 61
0.47549573 3.7325215 2.0553207 59
0.62019372 4.8615894 2.0684466 53
0.86448342 6.7671165 2.0939183 30
1.1802034 9.2385435 1.85972 6
0.52257305 4.0850015 0.4619469 2
0.29345727 2.2813566 2.1290772 12
0.34372973 2.6684906 2.0426424 69
0.42819166 3.3241673 2.054368 66
0.5470776 4.2412629 2.0643413 55
0.73207277 5.6676493 2.0769906 8
0.33047283 2.5549955 0.71208131 2
nan nan nan 0
1.2575119 9.6955814 0.4880614 81
0.0045372229 0.031020617 1.9991974 78
0.042139526 0.3118175 2.0008237 97
0.05462027 0.41127491 2.0180943 95
0.080587216 0.60983086 2.0125027 86
0.10903947 0.82614696 2.0227277 95
0.13968678 1.0596964 2.025281 81
0.17919005 1.3593301 2.0863512 23
0.22566864 1.7118751 2.1431985 14
0.01795016 0.12404965 2.0010643 89
0.032586459 0.21732475 2.0032918 93
0.068318255 0.50952208 2.0154345 96
0.095752336 0.71588022 2.0183041 93
0.12549259 0.94064057 2.0251279 93
0.15887761 1.1908305 2.03527 34
0.20562969 1.5412018 2.1329036 33
0.25257906 1.8930517 2.1486869 16
0.27148336 2.0761807 2.1374204 13
0.31636491 2.4193845 2.0491054 36
0.38953182 2.9748774 2.0516768 61
0.48852175 3.7308393 2.0553207 59
0.63716012 4.8593955 2.0684466 14
0.88809979 6.7640572 2.0939183 32
1.2150028 9.253849 1.8634504 10
0.53682923 4.0831523 0.4619469 2
0.30092955 2.2766159 2.1257522 13
0.35304239 2.6672745 2.0426424 69
0.4397926 3.3226523 2.054368 67
0.56187904 4.2393274 2.0643413 55
0.75123078 5.6603775 2.0753479 9
0.34002972 2.5586445 0.71325362 2
1.3005902 9.7735205 1.4656237 3
1.2946473 9.7158928 0.48906907 96
0.0046400656 0.031005401 1.9991974 75
0.043173324 0.31167606 2.0008237 97
0.055983812 0.41109151 2.0180943 95
0.082609035 0.60956025 2.0125027 86
0.11177846 0.82578093 2.0227277 95
0.14320007 1.0592273 2.025281 81
0.185959 1.3754604 2.1111491 26
0.23134415 1.7111173 2.1431985 14
0.018339785 0.12399264 2.0010643 89
0.03326904 0.21722129 2.0032918 91
0.069918625 0.50930494 2.0154345 97
0.098000862 0.71557587 2.0183041 93
0.12861116 0.94021928 2.0251279 93
0.16317917 1.1928811 2.039536 35
0.21073936 1.5405115 2.1329036 24
0.25852498 1.8922491 2.1486869 16
0.27836674 2.075269 2.1374204 13
0.32335109 2.4106059 2.0428298 50
0.39939478 2.9735692 2.0516768 63
0.50089097 3.7291987 2.0553207 53
0.651806 4.8527746 2.0665736 12
0.90934533 6.7612343 2.0939183 34
nan nan nan 0
nan nan nan 0
0.30295935 2.2349002 2.089179 14
0.36188549 2.6660891 2.0426424 69
0.45022881 3.3212545 2.054368 67
0.57458413 4.2330446 2.0622432 55
0.76900965 5.65799 2.0753479 11
nan nan nan 0
1.3306196 9.7644787 1.4649339 4
1.3251642 9.7117777 0.48906907 100
0.0047482667 0.030989015 1.9991974 75
0.044261009 0.31152344 2.0008237 97
0.057418443 0.41089359 2.0180943 95
0.084736302 0.60926819 2.0125027 86
0.11466031 0.82538563 2.0227277 95
0.1468966 1.0587211 2.025281 73
0.19230621 1.385952 2.1276808 27
0.23731567 1.7102993 2.1431985 15
0.018794119 0.12392459 2.0010643 89
0.034064971 0.21709789 2.0032918 93
0.071784846 0.50904524 2.0154345 97
0.10062292 0.71521187 2.0183041 93
0.13189237 0.93976456 2.0251279 93
0.16734213 1.1923043 2.039536 35
0.21611547 1.5397666 2.1329036 23
0.2654587 1.8912889 2.1486869 16
0.2856091 2.0742846 2.1374204 13
0.33176368 2.4094625 2.0428298 69
0.40977204 2.9721568 2.0516768 63
0.51390529 3.7274272 2.0553207 53
0.66958791 4.8503528 2.0665736 12
0.93412036 6.7578559 2.0939183 37
0.32016078 2.3162026 0.53539932 25
1.3470505 9.7326498 0.97330338 78
0.30509862 2.1931429 2.0526056 14
0.37118968 2.6648095 2.0426424 69
0.46239886 3.319582 2.054368 68
0.59009516 4.2309103 2.0622432 55
0.7890889 5.6504569 2.0737052 12
1.1692051 8.3617048 2.1270685 3
1.3691458 9.7791548 1.4676932 3
1.3621379 9.7167501 0.48947209 85
0.0048490502 0.030929245 1.9941976 75
0.04534816 0.31136706 2.0008237 97
0.058852378 0.41069067 2.0180943 95
0.086862527 0.60896868 2.0125027 86
0.11754073 0.82498038 2.0227277 95
0.15059133 1.0582019 2.025281 62
0.19793591 1.3908445 2.1359468 29
0.24328427 1.7094606 2.1431985 15
0.019226581 0.12385824 2.0010643 89
0.034822579 0.21697769 2.0032918 93
0.073561311 0.50879157 2.0154345 97
0.10311886 0.71485627 2.0183041 93
0.13517195 0.93929845 2.0251279 93
0.17224607 1.1968756 2.0480678 34
0.22148894 1.5390027 2.1329036 23
0.2720589 1.8903506 2.1486869 15
0.2933467 2.0768058 2.1409249 14
0.33962774 2.4044347 2.0396919 69
0.42014429 2.9707084 2.0516768 63
0.52691329 3.725611 2.0553207 59
0.68651474 4.8479862 2.0665736 41
0.95770401 6.7545538 2.0939183 36
0.32686475 2.3053439 0.53353411 47
1.3810157 9.7278891 0.97330338 77
0.31222478 2.1883676 2.0492809 19
0.37991771 2.6594961 2.0396991 69
0.4739835 3.3179476 2.054368 67
0.60486025 4.2288251 2.0622432 56
0.80880785 5.6476679 2.0737052 12
1.1921767 8.31427 2.1165175 10
1.4053842 9.7890215 1.4697626 3
1.3960475 9.711937 0.48947209 83
0.0049623791 0.030911265 1.9941976 75
0.046489071 0.31119874 2.0008237 97
0.060357239 0.41047221 2.0180943 95
0.089093916 0.60864621 2.0125027 86
0.12056366 0.82454407 2.0227277 95
0.15481505 1.0600133 2.0296695 42
0.20221888 1.3845404 2.1276808 25
0.24954814 1.7085574 2.1431985 15
0.019634467 0.12350103 1.9960728 88
0.035617612 0.2168486 2.0032918 91
0.075425632 0.50851858 2.0154345 97
0.10548556 0.71276641 2.0136113 93
0.1387776 0.93877256 2.0251279 92
0.17989197 1.2168453 2.0821953 30
0.22739665 1.5381409 2.1329036 24
0.27931532 1.8892921 2.1486869 15
0.29942146 2.065129 2.1304114 14
0.34787959 2.3993213 2.0365543 69
0.43042892 2.9650104 2.0489354 61
0.54056478 3.7236545 2.0553207 59
0.70427889 4.8454375 2.0665736 40
0.98245424 6.7509985 2.0939183 36
0.33429763 2.2943499 0.53166884 78
1.4183577 9.7225142 0.97330338 80
0.32062519 2.1871526 2.0492809 35
0.39012659 2.6580176 2.0396991 69
0.48671997 3.3161032 2.054368 67
0.62109321 4.2264714 2.0622432 56
0.83048737 5.6445208 2.0737052 14
1.2233839 8.304822 2.1153452 9
1.4426968 9.7936029 1.4711423 3
1.4323632 9.7116976 0.48967364 82
0.0050702491 0.030893754 1.9941976 75
0.047575075 0.31103456 2.0008237 96
0.061789688 0.41025904 2.0180943 95
0.09121795 0.6083315 2.0125027 86
0.12344112 0.8241182 2.0227277 93
0.15851425 1.0594665 2.0296695 36
0.20663416 1.3810431 2.1235478 23
0.25551057 1.7076758 2.1431985 14
0.020065445 0.12343174 1.9960728 88
0.036374334 0.21672294 2.0032918 91
0.077200234 0.50825214 2.0154345 97
0.10797293 0.71239388 2.0136113 93
0.14188991 0.93830717 2.0251279 92
0.18704614 1.2368718 2.1163228 23
0.23249605 1.5373784 2.1329036 25
0.28557891 1.8883555 2.1486869 15
0.30243585 2.035851 2.102375 17
0.35625264 2.3980925 2.0365543 69
0.44077614 2.96349 2.0489354 63
0.55355948 3.7217448 2.0553207 58
0.72118831 4.8429494 2.0665736 52
1.0060136 6.7475276 2.0939183 35
0.34262854 2.2980871 0.53260148 93
1.4542671 9.7423859 0.9755345 76
0.32787627 2.1860774 2.0492809 42
0.39893872 2.6567094 2.0396991 67
0.49707371 3.3102078 2.0518358 66
0.63510525 4.2243886 2.0622432 56
0.84920067 5.6417356 2.0737052 14
1.2487439 8.2862997 2.1118283 8
1.4790906 9.8031979 1.4732118 3
1.4662546 9.7066383 0.48967364 82
0.0051780576 0.030875865 1.9941976 75
0.048660502 0.31086662 2.0008237 96
0.063221388 0.41004083 2.0180943 95
0.093340866 0.6080094 2.0125027 86
0.12631707 0.82368225 2.0227277 93
0.16221151 1.0589067 2.0296695 35
0.21145363 1.3803135 2.1235478 23
0.26098445 1.7036047 2.1393616 14
0.020496182 0.12336095 1.9960728 88
0.037221495 0.21712077 2.0082631 89
0.078973889 0.50797957 2.0154345 97
0.11045899 0.71201265 2.0136113 93
0.14483117 0.93565398 2.020627 90
0.19295841 1.2465205 2.1333864 22
0.23786107 1.5365574 2.1329036 25
0.29216871 1.8873471 2.1486869 16
0.30632234 2.013629 2.0813477 26
0.3646214 2.3968344 2.0365543 69
0.45111793 2.9619334 2.0489354 63
0.56654739 3.7197897 2.0553207 58
0.7373901 4.8358197 2.0647006 52
1.0288367 6.7392325 2.0925093 35
0.34990692 2.2920213 0.53166884 96
1.4875133 9.7323265 0.97508824 76
0.33493832 2.1812286 2.0459561 69
0.40820995 2.6553006 2.0396991 67
0.50862545 3.3084521 2.0518358 67
0.64984721 4.2221451 2.0622432 34
0.86888891 5.6387372 2.0737052 15
1.2784021 8.2866945 2.1130006 3
1.5201043 9.8420229 1.4794201 3
1.5008913 9.706398 0.48987517 77
0.0052858032 0.030857604 1.9941976 75
0.049745332 0.31069487 2.0008237 96
0.064652309 0.40981767 2.0180943 95
0.09546265 0.6076799 2.0125027 88
0.12919149 0.82323629 2.0227277 91
0.1659068 1.058334 2.0296695 31
0.21627055 1.3795669 2.1235478 23
0.26692957 1.7026832 2.1393616 14
0.020926667 0.12328865 1.9960728 88
0.037979163 0.21698952 2.0082631 89
0.080746584 0.5077008 2.0154345 97
0.11294371 0.71162271 2.0136113 93
0.14809634 0.93514276 2.020627 88
0.19690044 1.2432636 2.1291206 22
0.24322322 1.5357177 2.1329036 25
0.29928538 1.8896642 2.1523621 16
0.30896005 1.9843568 2.0533113 28
0.37358457 2.3993933 2.0396919 69
0.46145427 2.9603405 2.0489354 63
0.57952845 3.7177896 2.0553207 59
0.75426584 4.8332157 2.0647006 47
1.0523548 6.7356 2.0925093 40
0.359422 2.3004925 0.53353411 93
1.5230155 9.7369146 0.9759807 77
0.34255022 2.1800461 2.0459561 75
0.41747621 2.6538596 2.0396991 67
0.52017099 3.3066566 2.0518358 67
0.66458142 4.2198515 2.0622432 7
0.88856637 5.6356697 2.0737052 16
0.46913272 2.9720769 0.81641757 5
1.552904 9.8268738 1.4780405 3
1.5355446 9.7060347 0.49007672 77
0.0053934837 0.030838966 1.9941976 75
0.050829552 0.31051934 2.0008237 96
0.06608244 0.40958947 2.0180943 95
0.097583257 0.60734296 2.0125027 86
0.13206433 0.82278037 2.0227277 91
0.16960007 1.0577486 2.0296695 29
0.2210848 1.3788036 2.1235478 25
0.27236378 1.6985756 2.1355245 13
0.021356897 0.12321486 1.9960728 88
0.038736366 0.21685563 2.0082631 89
0.082518309 0.50741583 2.0154345 97
0.11542705 0.71122414 2.0136113 93
0.15135971 0.93462014 2.020627 81
0.20123905 1.2425687 2.1291206 23
0.24858239 1.5348594 2.1329036 25
0.30425367 1.8785684 2.1413364 17
0.31364104 1.9691787 2.0392931 34
0.38195774 2.3980744 2.0396919 69
0.47178498 2.9587119 2.0489354 63
0.59250242 3.715744 2.0553207 59
0.77040148 4.8259759 2.0628276 47
1.07586 6.7318859 2.0925093 38
nan nan nan 0
1.5577812 9.7364578 0.9764269 76
0.35015789 2.1788371 2.0459561 77
0.42673737 2.6523862 2.0396991 67
0.53171027 3.3048208 2.0518358 66
0.67930734 4.2175059 2.0622432 7
0.90823317 5.6325336 2.0737052 17
0.48182818 2.9848168 0.81993455 6
1.5816665 9.7871723 1.4732118 3
1.5702136 9.7055483 0.49027824 80
0.0055010989 0.030819951 1.9941976 75
0.051913161 0.31033999 2.0008237 96
0.067511782 0.4093563 2.0180943 95
0.099702694 0.60699862 2.0125027 88
0.13461916 0.82038647 2.0181251 93
0.174454 1.0642426 2.0428357 28
0.22589639 1.3780234 2.1235478 26
0.27829126 1.6976144 2.1355245 13
0.021786869 0.12313956 1.9960728 88
0.039493099 0.21671908 2.0082631 89
0.084289014 0.50712478 2.0154345 97
0.11790898 0.71081692 2.0136113 93
0.1546212 0.93408608 2.020627 73
0.20514925 1.2392857 2.1248546 26
0.25393853 1.5339824 2.1329036 24
0.31025556 1.8741504 2.1376615 17
0.32108611 1.9715919 2.0427978 36
0.39032626 2.3967266 2.0396919 69
0.48210993 2.957047 2.0489354 63
0.60546917 3.7136533 2.0553207 60
0.78724259 4.823257 2.0628276 47
1.0993521 6.7280893 2.0925093 35
1.5114107 9.2499027 1.8709114 28
1.5925622 9.7358742 0.97687304 76
0.35776129 2.1776013 2.0459561 75
0.43599331 2.6508806 2.0396991 67
0.54324299 3.3029447 2.0518358 66
0.69476229 4.2195868 2.0643413 36
0.92788887 5.6293292 2.0737052 17
nan nan nan 0
1.6158204 9.7815905 1.4732118 88
1.604898 9.704937 0.49047977 80
0.0056086471 0.030800562 1.9941976 73
0.052996133 0.31015691 2.0008237 96
0.068940289 0.40911818 2.0180943 95
0.10182091 0.6066469 2.0125027 86
0.13748205 0.81991154 2.0181251 91
0.1805428 1.0778042 2.0691676 28
0.23117015 1.3800019 2.1276808 26
0.28421536 1.6966327 2.1355245 13
0.022216573 0.12306275 1.9960728 86
0.04015113 0.21605511 2.0032918 91
0.086058699 0.50682741 2.0154345 96
0.12038948 0.710401 2.0136113 93
0.15788083 0.9335407 2.020627 47
0.20947389 1.238562 2.1248546 27
0.25929159 1.5330867 2.1329036 24
0.31114194 1.8396292 2.1009099 17
0.3279663 1.9704591 2.0427978 40
0.39869002 2.3953495 2.0396919 69
0.49242902 2.9553459 2.0489354 63
0.61842853 3.7115173 2.0553207 60
0.80407411 4.8204799 2.0628276 47
1.1228307 6.7242107 2.0925093 35
1.548544 9.2736406 1.876507 22
1.6281792 9.7400808 0.9777655 79
0.36536038 2.1763394 2.0459561 75
0.44524398 2.6493423 2.0396991 69
0.5547691 3.3010283 2.0518358 67
0.70948714 4.2171359 2.0643413 64
0.94674891 5.6213984 2.0720625 20
1.395594 8.2776241 2.1153452 29
1.6491306 9.7710085 1.4725219 99
1.6404293 9.7091274 0.49088284 80
0.0057161273 0.030780796 1.9941976 71
0.05407846 0.30997002 2.0008237 96
0.070195176 0.40787157 2.0131991 95
0.10393788 0.60628778 2.0125027 88
0.14034322 0.81942672 2.0181251 91
0.1863243 1.0889745 2.0911107 25
0.23598586 1.3791866 2.1276808 26
0.29013598 1.6956303 2.1355245 13
0.022646006 0.12298445 1.9960728 86
0.040905058 0.21591364 2.0032918 93
0.087827325 0.50652391 2.0154345 96
0.12286851 0.70997643 2.0136113 93
0.16113853 0.93298382 2.020627 40
0.213796 1.2378231 2.1248546 28
0.26412851 1.5292023 2.1289141 24
0.31467634 1.8218281 2.0825341 18
0.33484247 1.9693023 2.0427978 50
0.40704891 2.3939433 2.0396919 71
0.50274211 2.9536092 2.0489354 63
0.63063699 3.7049685 2.0530026 59
0.82011706 4.8130736 2.0609546 46
1.1462958 6.7202501 2.0925093 35
1.5825576 9.2778645 1.8783723 20
1.6630068 9.7392473 0.9782117 77
0.37295499 2.1750507 2.0459561 73
0.45448917 2.6477721 2.0396991 69
0.56628847 3.2990716 2.0518358 66
0.72420347 4.2146335 2.0643413 65
0.96636546 5.6180596 2.0720625 22
1.4253047 8.2774916 2.1165175 31
1.6840689 9.7700729 1.4732118 85
1.6751598 9.7082644 0.49108434 81
0.0058181686 0.030761672 1.9941976 73
0.055106062 0.309789 2.0008237 95
0.071547344 0.40763658 2.0131991 95
0.10594783 0.60593975 2.0125027 88
0.14305978 0.81895679 2.0181251 91
0.19240583 1.1025113 2.1174428 25
0.24055809 1.3783964 2.1276808 26
0.29575729 1.6946588 2.1355245 13
0.023032259 0.1229127 1.9960728 88
0.041583173 0.21578406 2.0032918 93
0.089418188 0.50624555 2.0154345 97
0.12539802 0.71128643 2.0183041 93
0.16423154 0.93244433 2.020627 40
0.21789961 1.2371074 2.1248546 28
0.26919806 1.528318 2.1289141 24
0.315698 1.79412 2.0531328 20
0.34137106 1.968181 2.0427978 66
0.41498527 2.3925803 2.0396919 71
0.5125339 2.9519258 2.0489354 64
0.64291972 3.7028565 2.0530026 60
0.83523381 4.8104739 2.0609546 45
1.1674024 6.7166162 2.0925093 30
1.6133155 9.2725649 1.8783723 13
1.6961488 9.7385845 0.97865796 77
0.38016567 2.1738019 2.0459561 73
0.46326703 2.6462502 2.0396991 69
0.57664996 3.2972763 2.0518358 66
0.73744053 4.2123375 2.0643413 64
0.98401034 5.6149955 2.0720625 23
1.4529816 8.2825489 2.1188624 31
nan nan nan 0
1.7073809 9.7127953 0.49148741 81
0.0059255115 0.030741174 1.9941976 75
0.056187086 0.30959475 2.0008237 95
0.072969824 0.40738434 2.0131991 95
0.1080623 0.6055662 2.0125027 88
0.14591759 0.81845242 2.0181251 89
0.19709343 1.1065501 2.1262202 26
0.24536815 1.3775483 2.1276808 27
0.3033576 1.7030849 2.1470356 14
0.023482602 0.12282746 1.9960728 88
0.04237378 0.2156302 2.0032918 93
0.091273069 0.50591439 2.0154345 96
0.12800418 0.71082199 2.0183041 93
0.16787066 0.93400884 2.0251279 40
0.22221659 1.2363392 2.1248546 28
0.27453125 1.527369 2.1289141 23
0.32047239 1.7829406 2.0421071 24
0.34823924 1.9669775 2.0427978 71
0.42333442 2.3911173 2.0396919 67
0.5228349 2.9501188 2.0489354 64
0.65584111 3.7005899 2.0530026 56
0.85285944 4.8073802 2.0609546 45
1.1928511 6.7170157 2.0939183 8
1.6465318 9.2717142 1.8793049 16
1.7318755 9.7424116 0.97955036 74
0.38775134 2.1724617 2.0459561 75
0.47179043 2.6406384 2.036756 67
0.58873123 3.2951407 2.0518358 66
0.75287443 4.2096062 2.0643413 63
1.0054159 5.6160007 2.0737052 26
1.4833289 8.2771673 2.1188624 32
nan nan nan 0
1.7447348 9.7163076 0.49189049 79
0.0060327817 0.030720305 1.9941976 75
0.057267431 0.30939671 2.0008237 96
0.07439141 0.40712714 2.0131991 93
0.11017547 0.60518539 2.0125027 88
0.14877364 0.81793803 2.0181251 89
0.20095479 1.1058553 2.1262202 26
0.24967201 1.3739147 2.1235478 27
0.30758095 1.6925528 2.1355245 15
0.023911208 0.12274474 1.9960728 88
0.043126211 0.21548098 2.0032918 93
0.093266197 0.50682974 2.0202737 96
0.13048463 0.7103709 2.0183041 93
0.17073718 0.93127513 2.020627 40
0.22653085 1.2355561 2.1248546 28
0.27986106 1.5264015 2.1289141 23
0.32669401 1.7818111 2.0421071 35
0.35510314 1.9657499 2.0427978 71
0.43098637 2.3857942 2.0365543 67
0.53312951 2.9482758 2.0489354 64
0.66796625 3.6939185 2.0506845 30
0.86963516 4.8043737 2.0609546 45
1.2162906 6.712811 2.0939183 8
1.6797621 9.2707443 1.8802376 15
1.7667612 9.7412062 0.97999662 74
0.39533228 2.1710949 2.0459561 75
0.4810051 2.6389754 2.036756 67
0.60022986 3.2930655 2.0518358 64
0.76837879 4.2114172 2.0664394 63
1.0258617 5.6171017 2.0753479 28
1.5130867 8.27672 2.1200345 32
nan nan nan 0
1.7795404 9.7150726 0.49209201 77
0.0061399797 0.030699058 1.9941976 73
0.05834708 0.30919492 2.0008237 96
0.075998701 0.40786597 2.0180943 93
0.11228729 0.60479707 2.0125027 88
0.15162785 0.81741375 2.0181251 88
0.20437714 1.1027915 2.1218314 26
0.25446635 1.3730348 2.1235478 27
0.3134872 1.6914688 2.1355245 15
0.024339519 0.12266053 1.9960728 88
0.043878116 0.21532911 2.0032918 93
0.095034793 0.50650108 2.0202737 96
0.13296348 0.70991105 2.0183041 93
0.17478734 0.93495476 2.0296285 39
0.23084238 1.2347577 2.1248546 28
0.28574139 1.5283777 2.1329036 22
0.33291173 1.7806598 2.0421071 43
0.36196274 1.9644984 2.0427978 71
0.43931171 2.3842752 2.0365543 69
0.54341769 2.9463966 2.0489354 58
0.68085635 3.6915643 2.0506845 7
0.88640022 4.8013091 2.0609546 44
1.240587 6.7132421 2.0953276 38
1.7130053 9.2696543 1.8811703 12
1.8025651 9.7447729 0.98088896 76
0.40290841 2.1697018 2.0459561 75
0.4902139 2.6372802 2.036756 67
0.6117211 3.2909503 2.0518358 64
0.78307474 4.2087097 2.0664394 65
1.0463275 5.6181297 2.0769906 30
1.5428594 8.276166 2.1212068 29
1.8186153 9.7459249 1.4732118 1
1.8152761 9.7186222 0.49249509 76
0.0062471014 0.030677438 1.9941976 73
0.059426017 0.30898941 2.0008237 96
0.077421956 0.40759817 2.0180943 95
0.11439774 0.60440141 2.0125027 86
0.15448025 0.81687951 2.0181251 77
0.20822534 1.1020714 2.1218314 26
0.25925758 1.3721383 2.1235478 26
0.31522301 1.6683131 2.1086662 15
0.024825368 0.12285855 2.0010643 89
0.044629484 0.21517466 2.0032918 91
0.096802235 0.50616628 2.0202737 96
0.13544072 0.70944256 2.0183041 93
0.17886525 0.93861735 2.0386302 37
0.23515108 1.2339445 2.1248546 29
0.29107472 1.527371 2.1329036 21
0.33912537 1.7794869 2.0421071 64
0.36815938 1.9597179 2.0392931 71
0.44763172 2.3827271 2.0365543 69
0.5536992 2.9444821 2.0489354 58
0.69455689 3.6935194 2.0530026 7
0.90315455 4.7981853 2.0609546 44
1.2640132 6.7088704 2.0953276 45
1.7462617 9.268446 1.8821028 16
1.8384156 9.748209 0.98178142 68
0.41047964 2.1682823 2.0459561 75
0.49941677 2.6355529 2.036756 67
0.62320495 3.288795 2.0518358 66
0.79776114 4.2059507 2.0664394 65
1.0668129 5.6190829 2.0786333 33
1.5726467 8.2755051 2.1223791 14
1.8618779 9.788167 1.4801099 2
1.8491894 9.7122269 0.49249509 75
0.0063541476 0.030655444 1.9941976 75
0.060504228 0.30878007 2.0008237 96
0.078844272 0.40732545 2.0180943 95
0.1165068 0.60399842 2.0125027 84
0.15770051 0.8182537 2.0227277 64
0.21161801 1.0989853 2.1174428 27
0.26351357 1.3684617 2.119415 26
0.31740728 1.6483144 2.0856445 14
0.025254073 0.12277114 2.0010643 89
0.045380317 0.21501756 2.0032918 91
0.098568484 0.50582528 2.0202737 96
0.13791633 0.70896548 2.0183041 93
0.18587697 0.95722735 2.0791378 34
0.23945692 1.2331161 2.1248546 29
0.29640442 1.5263457 2.1329036 21
0.34468859 1.7749643 2.0384321 81
0.37499785 1.9584208 2.0392931 71
0.45594627 2.3811502 2.0365543 71
0.56397396 2.9425313 2.0489354 63
0.7074455 3.6910722 2.0530026 19
0.91989774 4.7950039 2.0609546 45
1.2874237 6.7044177 2.0953276 46
1.7786039 9.2622938 1.8821028 21
1.873372 9.746623 0.98222762 58
0.41733843 2.1631691 2.0426311 75
0.50861353 2.6337934 2.036756 67
0.63468122 3.2865994 2.0518358 66
0.81243777 4.2031407 2.0664394 66
1.0882146 5.6245975 2.0819185 36
1.6033725 8.2795095 2.1247239 9
1.8913214 9.7572985 1.4766608 2
1.8840318 9.710618 0.49269664 77
0.0064707166 0.03067564 1.9991974 75
0.061581705 0.30856696 2.0008237 97
0.080265619 0.40704775 2.0180943 95
0.11861444 0.60358804 2.0125027 86
0.16055579 0.81769818 2.0227277 39
0.21545289 1.0982399 2.1174428 28
0.26828879 1.3675336 2.119415 26
0.31822133 1.6220287 2.0549488 15
0.025682472 0.12268224 2.0010643 89
0.04613059 0.21485785 2.0032918 93
0.10033356 0.50547814 2.0202737 96
0.14039022 0.70847976 2.0183041 95
0.19344334 0.97793597 2.124146 29
0.24375984 1.2322727 2.1248546 29
0.30173057 1.5253017 2.1329036 22
0.35088226 1.7737504 2.0384321 85
0.38183174 1.9570999 2.0392931 71
0.46425527 2.3795443 2.0365543 69
0.57424188 2.9405446 2.0489354 63
0.72117454 3.6929286 2.0553207 8
0.93662989 4.7917633 2.0609546 45
1.3108187 6.6998825 2.0953276 46
1.8118677 9.26085 1.8830355 25
1.9092969 9.7497997 0.98312008 58
0.42488676 2.1616993 2.0426311 75
0.51780403 2.6320021 2.036756 67
0.64614964 3.284364 2.0518358 64
0.82710445 4.2002788 2.0664394 66
1.1087548 5.6253977 2.0835612 37
1.6332043 8.2786322 2.1258962 34
1.929207 9.770071 1.4794201 2
1.9208225 9.7186852 0.49330121 73
0.0065777544 0.030652868 1.9991974 75
0.062658429 0.30835015 2.0008237 97
0.08168599 0.40676507 2.0180943 95
0.12072063 0.60317039 2.0125027 88
0.1634091 0.81713271 2.0227277 38
0.21928515 1.0974813 2.1174428 29
0.27306074 1.3665887 2.119415 24
0.32136858 1.608333 2.0396011 17
0.026110556 0.12259185 2.0010643 89
0.046880305 0.2146955 2.0032918 93
0.10184812 0.50389194 2.0154345 96
0.14286242 0.7079854 2.0183041 95
0.1968558 0.97725475 2.124146 29
0.24805979 1.2314143 2.1248546 29
0.30705306 1.5242392 2.1329036 24
0.35707167 1.7725147 2.0384321 86
0.38866097 1.9557551 2.0392931 71
0.47255859 2.3779089 2.0365543 69
0.58368713 2.9344211 2.0461938 63
0.73406088 3.6903887 2.0553207 8
0.95335054 4.7884645 2.0609546 39
1.3341975 6.6952658 2.0953276 46
1.8451428 9.259285 1.883968 32
1.9442925 9.7479601 0.98356628 73
0.43242991 2.160203 2.0426311 75
0.52698827 2.6301787 2.036756 67
0.65676332 3.2778614 2.0493033 63
0.84176117 4.1973662 2.0664394 67
1.1283844 5.6214933 2.0835612 38
1.6659217 8.2919407 2.1305854 33
1.9632992 9.763278 1.4794201 2
nan nan nan 0
0.0066847131 0.030629721 1.9991974 75
0.06373439 0.30812955 2.0008237 97
0.083105363 0.40647748 2.0180943 95
0.12282535 0.60274523 2.0125027 88
0.16626044 0.81655741 2.0227277 38
0.22311473 1.0967091 2.1174428 29
0.27782935 1.3656273 2.119415 24
0.32570243 1.6009182 2.0319271 20
0.02653832 0.12249997 2.0010643 89
0.047629442 0.21453056 2.0032918 93
0.10360641 0.50353336 2.0154345 96
0.14533289 0.7074824 2.0183041 93
0.20026585 0.97656167 2.124146 29
0.25235671 1.2305409 2.1248546 29
0.31237176 1.5231581 2.1329036 26
0.36325672 1.7712575 2.0384321 86
0.39548546 1.9543865 2.0392931 71
0.48085618 2.376245 2.0365543 67
0.59392661 2.9323659 2.0461938 63
0.74693829 3.6878037 2.0553207 8
0.97005963 4.7851076 2.0609546 39
1.3566064 6.6858668 2.0939183 43
1.8803831 9.2672319 1.8867658 25
1.9792984 9.7459927 0.98401242 74
0.43996778 2.1586804 2.0426311 75
0.53616613 2.6283231 2.036756 67
0.66820115 3.2755489 2.0493033 60
0.85640752 4.1944027 2.0664394 69
1.1489457 5.6221476 2.0852039 38
1.6948557 8.2860756 2.1305854 35
3.2518227 15.883884 2.3506575 3
nan nan nan 0
0.0067915898 0.030606199 1.9991974 75
0.064809576 0.3079052 2.0008237 97
0.084523723 0.40618488 2.0180943 95
0.12492858 0.60231286 2.0125027 88
0.16910975 0.81597203 2.0227277 38
0.22694162 1.0959237 2.1174428 30
0.28259459 1.3646491 2.119415 23
0.33193886 1.602911 2.0357642 35
0.026965765 0.12240658 2.0010643 89
0.048378006 0.21436298 2.0032918 93
0.10536344 0.50316864 2.0154345 96
0.14780158 0.70697075 2.0183041 93
0.20367347 0.97585666 2.124146 29
0.25665057 1.2296525 2.1248546 29
0.31645501 1.5161579 2.1249244 25
0.36943737 1.7699789 2.0384321 86
0.40230513 1.9529941 2.0392931 71
0.48914787 2.3745522 2.0365543 69
0.60415882 2.930275 2.0461938 64
0.75980657 3.6851742 2.0553207 8
0.9867568 4.7816925 2.0609546 44
1.3789657 6.6763926 2.0925093 42
1.9157014 9.2750435 1.8895638 22
2.0153227 9.7487783 0.98490483 75
0.44750032 2.1571314 2.0426311 75
0.54533744 2.6264353 2.036756 67
0.67963094 3.2731962 2.0493033 37
0.87104356 4.1913872 2.0664394 69
1.1676021 5.6134791 2.0835612 38
1.7247599 8.2848673 2.1317577 30
3.2951262 15.814261 2.3423798 3
1.4849799 7.1206312 0.38709441 69
0.0068983845 0.030582305 1.9991974 75
0.065883972 0.30767709 2.0008237 96
0.085730068 0.40489128 2.0131991 95
0.12703028 0.6018731 2.0125027 88
0.17195699 0.81537682 2.0227277 39
0.23125972 1.097469 2.1218314 30
0.28735638 1.3636544 2.119415 20
0.33753204 1.6017425 2.0357642 40
0.027392877 0.12231171 2.0010643 89
0.049125977 0.21419281 2.0032918 93
0.10711919 0.50279778 2.0154345 97
0.15026847 0.70645058 2.0183041 93
0.20707861 0.97513986 2.124146 29
0.26094127 1.2287493 2.1248546 29
0.31736264 1.4944066 2.0969982 27
0.37561348 1.7686784 2.0384321 85
0.4091199 1.951578 2.0392931 71
0.4974336 2.3728302 2.0365543 67
0.6143837 2.928148 2.0461938 64
0.77266562 3.6824994 2.0553207 8
1.003442 4.7782192 2.0609546 44
1.4022623 6.6715384 2.0925093 42
1.9500865 9.277915 1.8914291 20
2.0472896 9.7319374 0.98401242 70
0.4550274 2.1555562 2.0426311 75
0.55450207 2.6245158 2.036756 69
0.69016117 3.2665861 2.0467708 11
0.88566887 4.1883211 2.0664394 67
1.1842562 5.5955091 2.0786333 39
1.7466183 8.2455111 2.1235516 13
3.3194957 15.657328 2.3216853 3
1.5077525 7.1056294 0.38669133 65
0.0070050946 0.030558039 1.9991974 73
0.066957556 0.30744523 2.0008237 95
0.087142885 0.40458953 2.0131991 95
0.12913045 0.60142601 2.0125027 86
0.17480212 0.81477153 2.0227277 39
0.2350892 1.0966551 2.1218314 30
0.29211468 1.362643 2.119415 20
0.34312108 1.6005547 2.0357642 59
0.027754914 0.12193311 1.9960728 89
0.049873352 0.21402003 2.0032918 93
0.10887362 0.50242078 2.0154345 96
0.15236856 0.70423508 2.0136113 93
0.21048121 0.97441101 2.124146 29
0.26467815 1.2252818 2.1205888 29
0.3193951 1.4785597 2.0770507 27
0.38178501 1.7673566 2.0384321 85
0.41592968 1.950138 2.0392931 71
0.50571328 2.3710794 2.0365543 69
0.62547404 2.9300749 2.0489354 63
0.78551525 3.6797798 2.0553207 8
1.020115 4.7746868 2.0609546 43
1.4245386 6.6619115 2.0911002 42
1.9865692 9.2902651 1.8951595 14
2.0843744 9.7393417 0.98535109 70
0.46254891 2.153955 2.0426311 75
0.56450933 2.6265159 2.0396991 69
0.70155948 3.2641571 2.0467708 11
0.90028346 4.185204 2.0664394 67
1.201793 5.5821071 2.0753479 37
1.7712945 8.2203579 2.1188624 8
3.3845694 15.694053 2.3285832 3
1.5336007 7.1052065 0.38689288 61
0.0071117189 0.030533399 1.9991974 73
0.068030335 0.30720964 2.0008237 95
0.088554628 0.4042829 2.0131991 95
0.13091034 0.59951246 2.007731 86
0.17764516 0.81415641 2.0227277 39
0.2389158 1.0958278 2.1218314 30
0.2968694 1.3616151 2.119415 22
0.34870601 1.5993471 2.0357642 73
0.028180372 0.12183549 1.9960728 89
0.050620116 0.21384463 2.0032918 91
0.11062673 0.5020377 2.0154345 96
0.15482587 0.70369887 2.0136113 93
0.21388125 0.97367036 2.124146 30
0.26895359 1.2243503 2.1205888 29
0.3200275 1.4568295 2.0491242 28
0.38795194 1.766013 2.0384321 83
0.42273438 1.9486742 2.0392931 71
0.51398689 2.3692997 2.0365543 69
0.63569808 2.9278738 2.0489354 63
0.79835522 3.6770155 2.0553207 7
1.0367756 4.7710972 2.0609546 45
1.4477844 6.6568985 2.0911002 42
2.02003 9.2880735 1.8960922 11
2.11624 9.7222748 0.98445863 44
0.47006479 2.1523271 2.0426311 75
0.57367414 2.6245296 2.0396991 69
0.71294928 3.2616882 2.0467708 23
0.91488707 4.1820364 2.0664394 69
1.2152106 5.550199 2.0654917 10
1.7947757 8.1903839 2.1130006 26
3.4340272 15.657959 2.3251343 3
1.5562509 7.0900507 0.38648984 54
0.0072182575 0.03050839 1.9991974 73
0.06910228 0.3069703 2.0008237 96
0.090186715 0.40496516 2.0180943 95
0.13300222 0.59905183 2.007731 88
0.1826019 0.82306767 2.0457404 37
0.2427395 1.0949872 2.1218314 30
0.30162051 1.3605704 2.119415 23
0.35428661 1.5981201 2.0357642 73
0.028605483 0.12173637 1.9960728 89
0.051366262 0.21366662 2.0032918 91
0.11237851 0.50164849 2.0154345 96
0.15728128 0.70315415 2.0136113 87
0.21680403 0.97079247 2.1196454 31
0.27322572 1.2234042 2.1205888 29
0.32313994 1.446879 2.0371556 30
0.39411411 1.7646481 2.0384321 85
0.42953399 1.9471867 2.0392931 71
0.52225411 2.367491 2.0365543 67
0.64591444 2.9256368 2.0489354 63
0.8111856 3.6742063 2.0553207 7
1.0534235 4.7674494 2.0609546 45
1.4710125 6.651804 2.0911002 45
2.0534999 9.2857628 1.8970248 20
nan nan nan 0
0.47757497 2.1506734 2.0426311 75
0.58283192 2.6225109 2.0396991 69
0.72433037 3.2591798 2.0467708 26
0.92947954 4.1788168 2.0664394 69
1.2345768 5.5459232 2.0654917 10
1.8191267 8.1650925 2.1083114 29
3.483274 15.621709 2.3216853 3
1.5831666 7.094327 0.38689288 50
0.0073247072 0.030483009 1.9991974 73
0.07017339 0.30672723 2.0008237 96
0.091599762 0.40464789 2.0180943 95
0.1350925 0.59858388 2.007731 88
0.18805285 0.83385992 2.0733554 34
0.24656025 1.0941331 2.1218314 30
0.3069866 1.3622544 2.1235478 24
0.35986295 1.5968736 2.0357642 78
0.02903025 0.12163577 1.9960728 88
0.05211179 0.21348602 2.0032918 91
0.1141289 0.50125313 2.0154345 97
0.1597348 0.7026009 2.0136113 71
0.22019142 0.97002983 2.1196454 31
0.27749452 1.2224429 2.1205888 29
0.32818851 1.4457421 2.0371556 33
0.40027148 1.7632617 2.0384321 85
