# .PCD v0.7 - Point Cloud Data file format
VERSION 0.7
FIELDS x y z intensity
SIZE 4 4 4 4
TYPE F F F F
COUNT 1 1 1 1
WIDTH 1379
HEIGHT 1
VIEWPOINT 0 0 0 1 0 0 0
POINTS 1379
DATA ascii
1.9361323 -3.0591061 0.77881318 82
1.9382412 -3.0636213 0.41777214 87
1.1346831 -1.7962695 1.9728094 81
1.3760827 -2.1792631 1.9602337 73
1.7020022 -2.6954198 1.9581357 69
1.9458572 -3.0827994 1.772712 81
1.9406799 -3.0757866 1.3542092 83
1.9370393 -3.0712039 0.96647424 84
1.9279354 -3.0579524 0.59576607 90
1.933705 -3.0682905 0.23997685 93
0.01628197 -0.026791092 1.9991974 82
0.16592689 -0.26643163 1.9958843 96
0.22823477 -0.36461738 2.0915227 50
0.33861655 -0.54017621 2.0840786 38
0.43544754 -0.69439816 1.99051 95
0.55527228 -0.88515562 1.9813942 85
0.69271511 -1.1042631 1.9871606 80
0.85112369 -1.3567929 1.9935577 42
0.064959355 -0.10651743 1.9910811 89
0.11317746 -0.18774557 1.9983203 93
0.28220725 -0.45209923 2.0880225 51
0.37624815 -0.60231799 1.9854547 40
0.49264443 -0.78806072 1.9846202 92
0.6202352 -0.99217403 1.9840788 87
0.76348001 -1.2213296 1.9813027 87
0.93866616 -1.5015821 1.9980052 45
1.0272148 -1.6337032 1.9762113 75
1.2407516 -1.9733243 1.9612476 73
1.5209085 -2.4198325 1.9584669 61
1.9032552 -3.0281708 1.9579635 31
1.933989 -3.0782616 1.5571086 76
1.9315996 -3.0756502 1.1568034 82
1.9228297 -3.061686 0.77788055 81
1.9248875 -3.0661502 0.41732591 87
1.128406 -1.8002193 1.9728094 81
1.3684671 -2.1840532 1.9602337 75
1.6925828 -2.7013443 1.9581357 69
1.9326752 -3.0857267 1.7706139 80
1.9274256 -3.0785394 1.3525665 81
1.923728 -3.0738266 0.96530187 83
1.9146229 -3.0604651 0.59507626 90
1.9176849 -3.06655 0.23957381 94
0.016188353 -0.026847763 1.9991974 82
0.16499588 -0.2670092 1.9958843 96
0.22696064 -0.36541185 2.0915227 50
0.33594009 -0.54008663 2.0793068 38
0.43302095 -0.69591391 1.99051 95
0.5521791 -0.88708854 1.9813942 83
0.68885624 -1.1066743 1.9871606 82
0.84468836 -1.357034 1.9897208 52
0.064587146 -0.10674354 1.9910811 89
0.11252142 -0.1881395 1.9983203 93
0.28062743 -0.45308155 2.0880225 53
0.37414336 -0.60362762 1.9854547 40
0.48989061 -0.78977555 1.9846202 93
0.61676806 -0.99433309 1.9840788 87
0.7592122 -1.2239872 1.9813027 87
0.93341899 -1.5048496 1.9980052 45
1.021506 -1.6372789 1.9762113 75
1.2338558 -1.9776433 1.9612476 75
1.5124525 -2.4251266 1.9584669 69
1.8926736 -3.0347958 1.9579635 31
1.9207796 -3.0810597 1.5552356 76
1.9132402 -3.0701594 1.1525757 80
1.9043367 -3.055872 0.77508271 76
1.9089067 -3.0643969 0.41643351 85
1.1221153 -1.8041472 1.9728094 81
1.360835 -2.1888168 1.9602337 75
1.683143 -2.7072363 1.9581357 70
1.921892 -3.092454 1.7706139 80
1.9091916 -3.0732143 1.3476384 80
1.9078583 -3.0722644 0.9629572 81
1.8987045 -3.0587146 0.59369665 86
1.9017007 -3.0647349 0.23917073 89
0.016094537 -0.026904106 1.9991974 82
0.16406283 -0.26758352 1.9958843 96
0.22514959 -0.36533496 2.0866275 50
0.3340528 -0.54125601 2.0793068 39
0.43058914 -0.69742119 1.99051 95
0.54907924 -0.88901061 1.9813942 83
0.68498909 -1.1090721 1.9871606 82
0.83994633 -1.3599743 1.9897208 59
0.064362764 -0.10721685 1.9960728 89
0.11186401 -0.18853113 1.9983203 93
0.27904418 -0.45405841 2.0880225 53
0.37203407 -0.60493004 1.9854547 40
0.48713082 -0.79148078 1.9846202 93
0.61329341 -0.99647993 1.9840788 87
0.75493503 -1.2266299 1.9813027 87
0.92816049 -1.5080987 1.9980052 43
1.0157846 -1.6408348 1.9762113 77
1.2269452 -1.9819384 1.9612476 75
1.5039779 -2.4303913 1.9584669 69
1.8704123 -3.0225475 1.9463733 31
1.910013 -3.0877457 1.5552356 74
1.8949428 -3.0645788 1.1483482 73
1.8859078 -3.0499668 0.77228487 67
1.8903433 -3.0583332 0.41509488 73
1.1138495 -1.8048751 1.9694844 81
1.3531864 -2.1935537 1.9602337 75
1.673683 -2.7130949 1.9581357 72
1.9110857 -3.099144 1.7706139 80
1.8910185 -3.0677998 1.3427104 73
1.8920231 -3.0706289 0.9606126 51
1.8854191 -3.0611076 0.59300685 22
1.9014685 -3.0883718 0.23997685 84
0.016000528 -0.026960123 1.9991974 82
0.16312779 -0.26815456 1.9958843 96
0.22334187 -0.36524993 2.0817323 48
0.33216143 -0.54241878 2.0793068 39
0.42815208 -0.69892001 1.99051 93
0.5459727 -0.89092183 1.9813942 85
0.68111348 -1.1114565 1.9871606 82
0.83351892 -1.3601643 1.9858838 66
0.063988112 -0.10744087 1.9960728 91
0.11120524 -0.18892047 1.9983203 95
0.27745751 -0.45502967 2.0880225 53
0.36992019 -0.60622489 1.9854547 40
0.48436508 -0.79317635 1.9846202 92
0.60981137 -0.99861467 1.9840788 85
0.75064868 -1.2292577 1.9813027 87
0.9228906 -1.5113293 1.9980052 43
1.0100509 -1.6443704 1.9762113 77
1.2200195 -1.986209 1.9612476 75
1.4954852 -2.4356263 1.9584669 69
1.8621683 -3.0328336 1.9486914 56
1.899223 -3.0943942 1.5552356 66
nan nan nan 0
nan nan nan 0
1.8952774 -3.0903847 0.41777214 17
1.1075425 -1.8087522 1.9694844 81
1.3455211 -2.1982639 1.9602337 73
1.6642021 -2.7189207 1.9581357 72
1.9002562 -3.1057959 1.7706139 76
1.902474 -3.11064 1.3574946 15
nan nan nan 0
nan nan nan 0
1.8932809 -3.0992534 0.24017838 80
0.015927933 -0.027053716 2.0041974 82
0.16219077 -0.26872236 1.9958843 96
0.22100943 -0.36428621 2.0719419 40
0.32949057 -0.54229861 2.0745351 39
0.42570981 -0.70041025 1.99051 95
0.54285949 -0.89282221 1.9813942 85
0.67722964 -1.1138272 1.9871606 84
0.82876593 -1.3630655 1.9858838 66
0.063612692 -0.10766356 1.9960728 89
0.1105451 -0.1893075 1.9983203 93
0.27586746 -0.45599541 2.0880225 55
0.36780185 -0.60751247 1.9854547 39
0.48046499 -0.7929998 1.9801195 92
0.60632175 -1.0007372 1.9840788 87
0.74635327 -1.2318704 1.9813027 87
0.91760945 -1.5145417 1.9980052 43
1.0043046 -1.6478863 1.9762113 77
1.2130789 -1.9904556 1.9612476 75
1.486974 -2.4408317 1.9584669 69
1.8515702 -3.0393152 1.9486914 64
1.8908213 -3.1049645 1.5571086 64
3.2080274 -5.2700543 1.9022678 10
3.7929952 -6.2310233 1.476413 28
1.8896557 -3.1054902 0.41866457 17
1.101222 -1.8126073 1.9694844 81
1.3378395 -2.2029471 1.9602337 75
1.6547012 -2.7247131 1.9581357 70
1.8917586 -3.1162899 1.772712 75
1.9112031 -3.1495605 1.3706361 15
3.7964594 -6.2588286 1.8562632 33
nan nan nan 0
1.8850404 -3.1101158 0.24037993 84
0.0158334 -0.02710915 2.0041974 82
0.16125175 -0.26928684 1.9958843 96
0.21816139 -0.3624382 2.057256 40
0.32759556 -0.54344541 2.0745351 39
0.4232623 -0.70189202 1.99051 95
0.53973967 -0.89471167 1.9813942 83
0.67333758 -1.1161844 1.9871606 84
0.82400292 -1.3659502 1.9858838 54
0.063236482 -0.10788496 1.9960728 88
0.10988362 -0.18969221 1.9983203 93
0.27427405 -0.45695558 2.0880225 55
0.36567894 -0.60879272 1.9854547 39
0.47881585 -0.79653853 1.9846202 93
0.60282487 -1.0028476 1.9840788 89
0.74204862 -1.2344682 1.9813027 89
0.91231704 -1.5177355 1.9980052 47
0.99670106 -1.6483301 1.9727067 77
1.2061236 -1.994678 1.9612476 73
1.480608 -2.4495862 1.9612085 66
1.84095 -3.0457602 1.9486914 62
1.8799715 -3.1115456 1.5571086 71
3.1871314 -5.2771139 1.9008586 9
3.7636027 -6.2316108 1.4736152 28
1.8865256 -3.1248574 0.42000318 18
1.0948881 -1.8164401 1.9694844 81
1.3301417 -2.2076037 1.9602337 73
1.6451801 -2.7304726 1.9581357 70
1.880869 -3.1228743 1.772712 75
1.8928903 -3.1440752 1.365708 12
3.7695761 -6.2637138 1.8539184 36
nan nan nan 0
1.8767473 -3.1209586 0.24058145 84
0.015738674 -0.027164254 2.0041974 84
0.16031078 -0.26984808 1.9958843 96
0.21480702 -0.35970062 2.0376754 42
0.32569662 -0.54458565 2.0745351 39
0.42080966 -0.70336521 1.99051 95
0.53661323 -0.89659023 1.9813942 83
0.66943723 -1.118528 1.9871606 80
0.81922984 -1.3688182 1.9858838 40
0.062714383 -0.10785447 1.9910811 88
0.1092208 -0.19007461 1.9983203 93
0.2726773 -0.45791021 2.0880225 58
0.36355165 -0.61006546 1.9854547 38
0.4760325 -0.79820508 1.9846202 93
0.59932065 -1.0049456 1.9840788 89
0.73773503 -1.2370509 1.9813027 87
0.90701365 -1.5209107 1.9980052 47
0.99094129 -1.6517991 1.9727067 75
1.1991534 -1.9988759 1.9612476 73
1.4720483 -2.4547393 1.9612085 64
1.8303069 -3.0521674 1.9486914 62
1.8690987 -3.118089 1.5571086 71
3.1637597 -5.2799764 1.8980402 7
3.7418275 -6.2447104 1.4736152 28
1.8807242 -3.1399682 0.42089561 22
1.0885409 -1.820251 1.9694844 81
1.3224276 -2.2122333 1.9602337 73
1.6356391 -2.7361987 1.9581357 69
1.8699566 -3.129421 1.772712 74
1.874639 -3.1385005 1.36078 9
3.73523 -6.2559671 1.8480569 35
nan nan nan 0
1.863282 -3.1232002 0.24037993 84
0.015622545 -0.027180899 1.9991974 82
0.15936786 -0.27040604 1.9958843 95
0.21199335 -0.35782003 2.0229895 50
0.32379365 -0.54571921 2.0745351 39
0.41835189 -0.70482981 1.99051 95
0.53348029 -0.89845794 1.9813942 83
0.66552871 -1.120858 1.9871606 78
0.81444675 -1.3716694 1.9858838 39
0.062337518 -0.10807273 1.9910811 88
0.10855664 -0.19045471 1.9983203 93
0.27107728 -0.45885921 2.0880225 60
0.36317629 -0.61430174 1.9948403 37
0.47324336 -0.79986185 1.9846202 93
0.59580898 -1.0070316 1.9840788 89
0.73341238 -1.2396185 1.9813027 87
0.90169907 -1.5240676 1.9980052 45
0.98516929 -1.655248 1.9727067 75
1.1921686 -2.0030494 1.9612476 73
1.4634708 -2.4598629 1.9612085 53
1.821907 -3.0623453 1.9510094 64
1.8582032 -3.1245944 1.5571086 72
3.1453097 -5.290988 1.8980402 5
3.6999257 -6.2239542 1.4661542 28
1.8595761 -3.1293893 0.41911077 28
1.0821805 -1.8240396 1.9694844 81
1.3146974 -2.2168357 1.9602337 73
1.6260781 -2.7418914 1.9581357 68
1.8567072 -3.132025 1.7706139 76
1.8588573 -3.1368995 1.3574946 7
3.7084155 -6.260603 1.8457123 36
6.1991935 -10.469743 1.7870779 2
1.8498238 -3.1253858 0.24017838 85
0.015527571 -0.027235266 1.9991974 80
0.15842299 -0.27096066 1.9958843 95
0.20816371 -0.35416853 1.9985133 66
0.32188678 -0.54684615 2.0745351 40
0.41588902 -0.70628583 1.99051 93
0.53034079 -0.90031463 1.9813942 83
0.66161215 -1.1231743 1.9871606 82
0.80965376 -1.3745041 1.9858838 39
0.061959893 -0.10828967 1.9910811 88
0.10789118 -0.19083248 1.9983203 93
0.26947391 -0.45980266 2.0880225 62
0.36452168 -0.62152004 2.0136113 34
0.47044846 -0.8015089 1.9846202 93
0.59229022 -1.0091052 1.9840788 89
0.72908086 -1.242171 1.9813027 87
0.89637369 -1.5272058 1.9980052 45
0.97938532 -1.6586767 1.9727067 75
1.1851695 -2.0071988 1.9612476 73
1.4548753 -2.4649565 1.9612085 39
1.8112063 -3.068686 1.9510094 64
1.8425735 -3.123076 1.5533626 71
3.1122 -5.2771416 1.889585 5
3.6781776 -6.2368317 1.4661542 28
1.8435832 -3.1272812 0.41821834 30
1.0758069 -1.827806 1.9694844 81
1.3069512 -2.2214115 1.9602337 75
1.614311 -2.7438352 1.9556034 66
1.8434623 -3.1345749 1.7685159 76
1.8455027 -3.1392982 1.3558519 5
3.6840763 -6.2693186 1.8445399 37
6.170135 -10.50413 1.7891474 2
1.8338437 -3.1232076 0.23977533 84
0.015432406 -0.027289299 1.9991974 80
0.1574762 -0.27151203 1.9958843 95
0.20692618 -0.35489306 1.9985133 75
0.31997594 -0.54796636 2.0745351 39
0.41342109 -0.70773327 1.99051 93
0.52719486 -0.90216041 1.9813942 83
0.65768749 -1.1254768 1.9871606 82
0.80485088 -1.3773218 1.9858838 39
0.061581515 -0.10850529 1.9910811 88
0.10722439 -0.19120793 1.9983203 93
0.26786721 -0.46074051 2.0880225 62
0.36495334 -0.62726349 2.0276897 32
0.46764779 -0.80314618 1.9846202 92
0.58876413 -1.0111666 1.9840788 87
0.72474045 -1.2447085 1.9813027 87
0.89103723 -1.5303254 1.9980052 43
0.9735896 -1.6620854 1.9727067 77
1.1781558 -2.0113235 1.9612476 73
1.4462621 -2.4700198 1.9612085 40
1.8004836 -3.0749898 1.9510094 66
1.829319 -3.1254878 1.5514896 72
3.1058733 -5.3086762 1.896631 8
3.6464624 -6.2326727 1.4624238 30
1.8276274 -3.1250994 0.41732591 33
1.06942 -1.83155 1.9694844 81
1.2991891 -2.2259603 1.9602337 75
1.6047235 -2.7494535 1.9556034 61
1.8302222 -3.1370704 1.7664177 77
1.8297752 -3.1375623 1.3525665 4
3.6474829 -6.2569461 1.8375061 33
nan nan nan 0
1.8204161 -3.1252728 0.23957381 85
0.015337056 -0.027343003 1.9991974 78
0.1565275 -0.27206007 1.9958843 96
0.20568611 -0.35561317 1.9985133 80
0.31806126 -0.54907995 2.0745351 39
0.41094816 -0.70917207 1.99051 95
0.52404255 -0.90399516 1.9813942 83
0.65375489 -1.1277657 1.9871606 80
0.80003822 -1.3801229 1.9858838 49
0.061202385 -0.10871959 1.9910811 88
0.1065563 -0.19158104 1.9983203 91
0.26625732 -0.46167269 2.0880225 58
0.36621186 -0.63451207 2.0464609 32
0.46484143 -0.80477369 1.9846202 93
0.58523095 -1.0132155 1.9840788 87
0.72039115 -1.2472308 1.9813027 89
0.88568997 -1.5334265 1.9980052 45
0.96957374 -1.6685573 1.9762113 77
1.1711279 -2.015424 1.9612476 73
1.435531 -2.4714372 1.9584669 50
1.789739 -3.0812559 1.9510094 66
1.8137425 -3.123836 1.5477434 71
3.0897315 -5.3236351 1.8980402 7
nan nan nan 0
1.8117096 -3.1228449 0.41643351 36
1.0630202 -1.8352718 1.9694844 81
1.291411 -2.2304816 1.9602337 75
1.5951161 -2.7550385 1.9556034 46
1.8147141 -3.1355839 1.7622217 76
1.8140825 -3.1357546 1.3492812 4
nan nan nan 0
1.7942562 -3.1039832 0.59162718 3
1.8044969 -3.1229568 0.23917073 84
0.015241518 -0.027396373 1.9991974 78
0.15557687 -0.27260479 1.9958843 96
0.20444353 -0.35632899 1.9985133 80
0.31614268 -0.55018687 2.0745351 39
0.40847018 -0.71060222 1.99051 93
0.52207816 -0.90789586 1.9857829 83
0.64981425 -1.1300409 1.9871606 78
0.7952159 -1.3829072 1.9858838 61
0.060822509 -0.10893256 1.9910811 88
0.10588691 -0.19195183 1.9983203 93
0.26464415 -0.46259934 2.0880225 56
0.36742416 -0.64177704 2.0652318 33
0.46202943 -0.80639136 1.9846202 93
0.58169061 -1.0152522 1.9840788 87
0.7160331 -1.2497377 1.9813027 87
0.88033193 -1.5365088 1.9980052 43
0.96374351 -1.6719317 1.9762113 67
1.1640856 -2.0194998 1.9612476 73
1.4268954 -2.4764333 1.9584669 64
1.7789724 -3.0874844 1.9510094 68
1.7981997 -3.1221137 1.5439974 69
1.7881727 -3.1059577 1.1427114 2
1.8112339 -3.1460137 0.78067839 2
1.7958298 -3.1205175 0.41554108 38
1.0566074 -1.8389713 1.9694844 79
1.2836175 -2.2349758 1.9602337 75
1.5876367 -2.7643278 1.9581357 37
1.7992383 -3.1340272 1.7580256 76
1.8007749 -3.1379721 1.3476384 4
1.7801273 -3.1032467 0.95357871 4
1.7809469 -3.1059313 0.59093738 28
1.7911001 -3.124902 0.23896921 84
0.015145794 -0.02744941 1.9991974 80
0.15462436 -0.27314621 1.9958843 95
0.20319846 -0.35704046 1.9985133 85
0.31422025 -0.55128706 2.0745351 39
0.4059872 -0.71202368 1.99051 95
0.51890582 -0.90971273 1.9857829 83
0.64586574 -1.1323023 1.9871606 80
0.79038376 -1.3856746 1.9858838 73
0.060581744 -0.10939776 1.9960728 89
0.10521623 -0.19232029 1.9983203 93
0.26302779 -0.46352026 2.0880225 56
0.36603385 -0.6445564 2.0699246 35
0.45921177 -0.80799925 1.9846202 93
0.57814318 -1.0172764 1.9840788 87
0.71166641 -1.2522295 1.9813027 87
0.87496316 -1.5395722 1.9980052 43
0.95790148 -1.6752855 1.9762113 69
1.1570292 -2.0235507 1.9612476 73
1.4182423 -2.4813988 1.9584669 69
1.7681843 -3.0936756 1.9510094 68
1.7849908 -3.1243465 1.5421244 70
1.7868363 -3.1288443 1.1483482 26
1.7904969 -3.1352541 0.77694792 21
1.7824575 -3.1224422 0.41509488 40
1.0520309 -1.845893 1.9728094 79
1.2738073 -2.2359309 1.9572905 75
1.5779777 -2.7698531 1.9581357 36
1.7860417 -3.1363449 1.7559274 74
1.7851379 -3.1360304 1.3443531 18
nan nan nan 0
1.7700943 -3.1121287 0.59093738 29
1.7777123 -3.1267922 0.23876768 84
0.015049884 -0.02750211 1.9991974 80
0.15366995 -0.27368426 1.9958843 95
0.20195092 -0.35774758 1.9985133 83
0.31229398 -0.55238056 2.0745351 40
0.40349931 -0.71343654 1.99051 95
0.51572716 -0.91151851 1.9857829 85
0.6419093 -1.1345499 1.9871606 82
0.78396344 -1.3856349 1.982047 74
0.060199507 -0.10960857 1.9960728 89
0.10454426 -0.19268638 1.9983203 93
0.26140821 -0.46443558 2.0880225 56
0.36462855 -0.64733362 2.0746174 38
0.4563885 -0.80959725 1.9846202 92
0.57458872 -1.0192884 1.9840788 85
0.70729095 -1.2547061 1.9813027 87
0.86958373 -1.542617 1.9980052 43
0.95204777 -1.678619 1.9762113 75
1.1499585 -2.0275772 1.9612476 71
1.409572 -2.4863343 1.9584669 69
1.7573746 -3.0998287 1.9510094 71
1.7695026 -3.1224914 1.5383784 72
1.7782681 -3.1392365 1.1497574 27
1.7601727 -3.1072922 0.76948696 32
1.7666396 -3.1199777 0.41420248 72
1.0455812 -1.8495541 1.9728094 81
1.2659947 -2.2403638 1.9572905 75
1.5682994 -2.7753441 1.9581357 36
1.7706188 -3.1346567 1.7517314 75
1.7695366 -3.1340182 1.3410677 56
1.7631974 -3.1240644 0.95592332 72
1.7519202 -3.1053493 0.58886796 83
1.7618787 -3.1242752 0.23836461 85
0.014953792 -0.027554477 1.9991974 82
0.15271369 -0.27421904 1.9958843 96
0.20070091 -0.35845032 1.9985133 79
0.31036392 -0.55346727 2.0745351 40
0.40100649 -0.71484065 1.99051 95
0.51254219 -0.91331315 1.9857829 83
0.63794512 -1.1367836 1.9871606 82
0.77912188 -1.388363 1.982047 76
0.059816536 -0.10981803 1.9960728 89
0.10387102 -0.19305013 1.9983203 93
0.25978541 -0.46534529 2.0880225 55
0.36236674 -0.64860249 2.0746174 40
0.45355973 -0.81118542 1.9846202 92
0.57102722 -1.0212879 1.9840788 87
0.70290685 -1.2571673 1.9813027 87
0.86253929 -1.5426841 1.99433 45
0.94618255 -1.681932 1.9762113 75
1.142874 -2.0315788 1.9612476 71
1.4008845 -2.4912395 1.9584669 69
1.7465434 -3.1059444 1.9510094 71
1.7563206 -3.1246078 1.5365053 70
1.7555497 -3.1245127 1.1427114 76
1.7469094 -3.1091347 0.76855439 73
1.7532994 -3.1217833 0.41375625 80
1.0391186 -1.8531926 1.9728094 81
1.2581666 -2.2447691 1.9572905 73
1.5607102 -2.7845626 1.9606682 36
1.7574476 -3.1368587 1.7496334 75
1.7562786 -3.1360557 1.3394251 79
1.7499073 -3.1259584 0.95475101 79
1.74107 -3.1114457 0.58886796 83
1.7485234 -3.1260459 0.23816308 85
0.014857518 -0.027606506 1.9991974 82
0.15175556 -0.27475041 1.9958843 96
0.19944847 -0.35914874 1.9985133 79
0.30843005 -0.55454725 2.0745351 40
0.39850879 -0.71623605 1.99051 93
0.50818586 -0.91300327 1.9813942 83
0.63397306 -1.1390036 1.9871606 82
0.77427083 -1.3910742 1.982047 76
0.059295647 -0.10977116 1.9910811 89
0.10319652 -0.19341153 1.9983203 93
0.25815949 -0.46624923 2.0880225 55
0.36010045 -0.64986348 2.0746174 40
0.45072538 -0.81276375 1.9846202 92
0.56745881 -1.023275 1.9840788 87
0.69851428 -1.2596133 1.9813027 87
0.85714906 -1.5456856 1.99433 49
0.94030571 -1.6852247 1.9762113 75
1.1357754 -2.0355558 1.9612476 73
1.39218 -2.4961145 1.9584669 61
1.7356911 -3.1120219 1.9510094 74
1.7408881 -3.1226211 1.5327592 70
1.7422972 -3.1264312 1.1413022 75
1.7336545 -3.1109226 0.76762176 73
1.7375445 -3.1191833 0.41286382 74
1.0326436 -1.8568084 1.9728094 81
1.2503233 -2.2491474 1.9572905 75
1.5509807 -2.7899935 1.9606682 41
1.7420784 -3.13504 1.7454373 77
1.7407348 -3.1339104 1.3361397 79
1.7366256 -3.1277986 0.95357871 80
1.7253921 -3.1088443 0.58748829 86
1.7351772 -3.1277616 0.23796153 86
0.014761063 -0.027658202 1.9991974 82
0.15079556 -0.27527848 1.9958843 95
0.19819359 -0.35984275 1.9985133 83
0.30649245 -0.55562055 2.0745351 39
0.39506239 -0.71591228 1.9859076 91
0.50499582 -0.91477162 1.9813942 83
0.62999338 -1.1412096 1.9871606 80
0.76941043 -1.3937684 1.982047 76
0.05891211 -0.10997748 1.9910811 89
0.10252076 -0.19377057 1.9983203 93
0.2565304 -0.46714756 2.0880225 55
0.35782981 -0.65111649 2.0746174 39
0.44788557 -0.81433207 1.9846202 92
0.56388342 -1.0252495 1.9840788 87
0.69411314 -1.2620438 1.9813027 87
0.85011452 -1.5456975 1.9906548 59
0.93441749 -1.6884966 1.9762113 77
1.1286631 -2.0395079 1.9612476 73
1.3834584 -2.5009589 1.9584669 61
1.7248175 -3.1180618 1.9510094 74
1.7277342 -3.1246219 1.5308862 70
1.7267319 -3.1240966 1.1384839 78
1.7204086 -3.1126561 0.76668912 74
1.7242378 -3.1208704 0.41241762 70
1.0261557 -1.8604017 1.9728094 81
1.2424647 -2.2534981 1.9572905 73
1.5412323 -2.7953904 1.9606682 55
1.7289337 -3.1371269 1.7433392 74
1.7252276 -3.131695 1.3328543 79
1.7233524 -3.1295836 0.95240635 80
1.7121416 -3.1105096 0.58679849 87
1.719432 -3.1250451 0.23755848 86
0.014664428 -0.027709559 1.9991974 80
0.14983375 -0.27580318 1.9958843 95
0.19693631 -0.36053237 1.9985133 83
0.30455109 -0.556687 2.0745351 39
0.39256099 -0.71728694 1.9859076 81
0.50179952 -0.91652882 1.9813942 81
0.62600595 -1.1434017 1.9871606 80
0.76454049 -1.3964458 1.982047 74
0.058527861 -0.11018245 1.9910811 89
0.10184375 -0.19412726 1.9983203 93
0.25489816 -0.46804014 2.0880225 55
0.35555485 -0.65236157 2.0746174 39
0.44504032 -0.81589055 1.9846202 92
0.56030124 -1.0272115 1.9840788 89
0.68970358 -1.2644591 1.9813027 87
0.84471393 -1.5486555 1.9906548 66
0.92851776 -1.691748 1.9762113 77
1.1215371 -2.0434353 1.9612476 73
1.37472 -2.5057728 1.9584669 69
1.713923 -3.1240635 1.9510094 68
1.7145876 -3.1265688 1.5290132 72
1.7135103 -3.1258984 1.1370746 76
1.7071717 -3.1143348 0.76575649 76
1.7109404 -3.1225028 0.41197142 68
1.0196555 -1.8639723 1.9728094 81
1.234591 -2.2578213 1.9572905 73
1.5314653 -2.8007534 1.9606682 61
1.7136191 -3.1351779 1.7391431 74
1.709757 -3.1294098 1.329569 80
1.7077582 -3.1270483 0.95006174 79
1.6989006 -3.1121204 0.58610862 86
1.7061201 -3.1266427 0.23735696 88
0.014567615 -0.027760578 1.9991974 80
0.1488701 -0.27632451 1.9958843 95
0.19567659 -0.36121762 1.9985133 85
0.30260605 -0.55774665 2.0745351 44
0.39005479 -0.71865284 1.9859076 70
0.49859723 -0.91827482 1.9813942 81
0.62201089 -1.1455799 1.9871606 80
0.75966138 -1.3991059 1.982047 74
0.058142893 -0.11038607 1.9910811 89
0.1011655 -0.19448158 1.9983203 93
0.25326285 -0.46892709 2.0880225 53
0.35327548 -0.65359867 2.0746174 39
0.44218957 -0.81743902 1.9846202 92
0.55671215 -1.0291611 1.9840788 87
0.68528557 -1.2668589 1.9813027 84
0.83769 -1.5486128 1.9869798 69
0.92260683 -1.694979 1.9762113 77
1.1143973 -2.047338 1.9612476 73
1.3659648 -2.5105562 1.9584669 69
1.7008899 -3.1261353 1.9486914 68
1.7014484 -3.1284621 1.5271401 69
1.6980059 -3.1234312 1.1342562 75
1.6939441 -3.1159596 0.76482391 76
1.6976525 -3.1240802 0.41152519 70
1.0131428 -1.8675202 1.9728094 81
1.2267022 -2.2621171 1.9572905 75
1.5216794 -2.806082 1.9606682 66
1.6983393 -3.1331608 1.734947 73
1.696573 -3.1312065 1.3279263 80
1.6945175 -3.1287162 0.94888943 76
1.6856693 -3.113677 0.58541888 83
1.6904402 -3.1237915 0.23695388 84
0.014470623 -0.027811259 1.9991974 82
0.14790463 -0.27684247 1.9958843 95
0.19441453 -0.36189845 1.9985133 85
0.30065733 -0.55879962 2.0745351 45
0.38846973 -0.72173035 1.99051 44
0.49538881 -0.92000973 1.9813942 83
0.61800832 -1.1477443 1.9871606 84
0.75477296 -1.4017493 1.982047 74
0.057757221 -0.11058836 1.9910811 89
0.10048601 -0.19483353 1.9983203 93
0.25162444 -0.46980825 2.0880225 53
0.35099185 -0.65482789 2.0746174 38
0.4393335 -0.81897759 1.9846202 92
0.55311632 -1.0310981 1.9840788 87
0.67943448 -1.2665873 1.9773132 87
0.83227926 -1.5515275 1.9869798 55
0.91668463 -1.698189 1.9762113 77
1.1072439 -2.0512154 1.9612476 73
1.357193 -2.5153089 1.9584669 67
1.6878637 -3.1281548 1.9463733 68
1.6861163 -3.1262217 1.523394 68
1.6848161 -3.1251163 1.1328471 75
1.6807258 -3.1175294 0.76389128 77
1.6843746 -3.1256032 0.41107899 65
1.0066178 -1.8710454 1.9728094 81
1.2187983 -2.2663853 1.9572905 73
1.511875 -2.8113766 1.9606682 70
1.6852432 -3.1350722 1.732849 74
1.6833975 -3.1329496 1.3262836 78
1.681286 -3.1303301 0.94771707 76
1.6724478 -3.1151786 0.58472902 76
1.6771634 -3.1252708 0.23675236 85
0.014368593 -0.02786411 1.9991974 82
0.14688897 -0.27738273 1.9958843 95
0.1930868 -0.36260858 1.9985133 83
0.29930994 -0.56121558 2.0793068 44
0.38582185 -0.72314924 1.99051 39
0.49201348 -0.92181921 1.9813942 83
0.61379749 -1.1500016 1.9871606 82
0.74963021 -1.4045061 1.982047 74
0.057351507 -0.11079931 1.9910811 89
0.099771231 -0.19520053 1.9983203 93
0.24990082 -0.47072735 2.0880225 55
0.34858942 -0.65610999 2.0746174 38
0.43618563 -0.8206585 1.9846202 93
0.54915309 -1.0332143 1.9840788 87
0.67456609 -1.2691867 1.9773132 87
0.8263157 -1.5547118 1.9869798 38
0.91045433 -1.7015375 1.9762113 75
1.0997183 -2.0552599 1.9612476 73
1.3479648 -2.5202663 1.9584669 67
1.6742977 -3.1304135 1.9440553 65
1.6724612 -3.1282923 1.5215211 68
1.6710896 -3.1270394 1.1314379 75
1.6664286 -3.119627 0.76295865 76
1.6700151 -3.1276548 0.41063279 65
0.99942601 -1.8748968 1.9728094 81
1.2100872 -2.2710485 1.9572905 73
1.5010691 -2.8171611 1.9606682 72
1.6689261 -3.1335084 1.7286528 74
1.6691363 -3.1352217 1.3246409 78
1.6669707 -3.132472 0.94654483 77
1.6586925 -3.1169159 0.58403921 78
1.6633513 -3.1269863 0.23655084 85
0.014271242 -0.027914096 1.9991974 80
0.14591983 -0.27789378 1.9958843 95
0.19181989 -0.36328039 1.9985133 83
0.2973491 -0.56225693 2.0793068 45
0.38329524 -0.72449166 1.99051 39
0.48991343 -0.92564863 1.9857829 85
0.60977948 -1.1521373 1.9871606 82
0.74472302 -1.4071144 1.982047 76
0.056964394 -0.11099882 1.9910811 89
0.099089257 -0.1955476 1.9983203 93
0.24825615 -0.47159681 2.0880225 55
0.34629706 -0.6573227 2.0746174 39
0.43346184 -0.8221004 1.9846202 93
0.54572386 -1.0350298 1.9840788 85
0.67035365 -1.2714167 1.9773132 84
0.82115555 -1.5574434 1.9869798 38
0.90450931 -1.7047051 1.9762113 75
1.0907129 -2.0556474 1.9581099 75
1.3391593 -2.5249565 1.9584669 67
1.6612847 -3.1323249 1.9417373 65
1.6571885 -3.1259198 1.5177749 70
1.6579179 -3.1286149 1.1300287 75
1.6537743 -3.1207955 0.76202601 75
1.654972 -3.1243739 0.40974036 68
0.99320316 -1.8782007 1.9728094 81
1.2025493 -2.2750487 1.9572905 75
1.4917186 -2.8221233 1.9606682 69
1.6564057 -3.1350126 1.7265548 75
1.6543195 -3.1323881 1.3213555 80
1.6543047 -3.1336839 0.94537246 77
1.645491 -3.1183069 0.58334941 79
1.6500951 -3.1283545 0.23634928 85
0.014178596 -0.027961267 1.9991974 80
0.14499749 -0.2783761 1.9958843 95
0.19061415 -0.36391449 1.9985133 83
0.29548296 -0.56323987 2.0793068 45
0.38089061 -0.72575867 1.99051 39
0.4868412 -0.92726815 1.9857829 85
0.60595548 -1.154153 1.9871606 76
0.74005276 -1.4095762 1.982047 76
0.056615401 -0.11117724 1.9910811 88
0.098474436 -0.19585793 1.9983203 91
0.24677336 -0.47237441 2.0880225 56
0.34343085 -0.65687817 2.0699246 39
0.43073326 -0.8235333 1.9846202 93
0.5422886 -1.0368338 1.9840788 85
0.66613382 -1.2736326 1.9773132 84
0.81625867 -1.5600156 1.9869798 39
0.89885128 -1.7076954 1.9762113 75
1.0838902 -2.0592527 1.9581099 75
1.3307787 -2.5293832 1.9584669 67
1.6488254 -3.1338961 1.9394193 67
1.6452012 -3.1270077 1.5159019 70
1.6436148 -3.1253159 1.1272103 75
1.6411306 -3.1219144 0.76109338 76
1.6422857 -3.1254363 0.40929416 67
0.98696935 -1.8814839 1.9728094 81
1.1949985 -2.2790239 1.9572905 75
1.4828454 -2.8267956 1.9606682 54
1.6423334 -3.1321619 1.7223587 75
1.6422786 -3.1333871 1.3197129 80
1.6421962 -3.1345606 0.94420016 79
1.6333892 -3.1190743 0.5826596 80
1.6379421 -3.129097 0.23614776 86
0.014076019 -0.028013047 1.9991974 80
0.14397623 -0.27890569 1.9958843 96
0.18927906 -0.36461067 1.9985133 83
0.29341656 -0.56431913 2.0793068 44
0.37822804 -0.72714984 1.99051 39
0.4834393 -0.92904627 1.9857829 85
0.60042226 -1.1538699 1.9830275 76
0.73636121 -1.4151229 1.9858838 76
0.056188095 -0.11139381 1.9910811 88
0.097721666 -0.19623458 1.9983203 91
0.24495777 -0.47331846 2.0880225 55
0.34090608 -0.65819198 2.0699246 39
0.42756799 -0.82518113 1.9846202 93
0.53830343 -1.0389082 1.9840788 87
0.66123849 -1.276181 1.9773132 87
0.80998981 -1.5632795 1.9869798 54
0.89258629 -1.7109783 1.9762113 77
1.0763353 -2.0632117 1.9581099 75
1.3214991 -2.5342436 1.9584669 67
1.6352797 -3.1359899 1.9371012 71
1.6288967 -3.1250796 1.5121559 72
1.6293858 -3.1273491 1.1258011 76
1.6268623 -3.1238363 0.7601608 76
1.6279732 -3.1273015 0.40884793 63
0.97973776 -1.8852597 1.9728094 81
1.1862388 -2.2835956 1.9572905 75
1.4714861 -2.8327255 1.9606682 37
1.6276555 -3.1347015 1.7202606 75
1.6275116 -3.1357627 1.3180702 77
1.6251234 -3.132498 0.94185555 79
1.6191202 -3.1209269 0.58196974 82
1.6236153 -3.130928 0.23594624 86
0.013983047 -0.028059572 1.9991974 80
0.14305055 -0.27938157 1.9958843 96
0.18853496 -0.36614162 2.0034087 87
0.29154363 -0.56528902 2.0793068 44
0.37671039 -0.73013639 1.9951125 38
0.48035583 -0.93064433 1.9857829 83
0.59659266 -1.1558546 1.9830275 80
0.73166442 -1.417557 1.9858838 73
0.055837862 -0.11156978 1.9910811 88
0.097104698 -0.19654064 1.9983203 91
0.2434696 -0.47408566 2.0880225 55
0.33883664 -0.65925974 2.0699246 39
0.42497349 -0.82652032 1.9846202 95
0.53503692 -1.0405943 1.9840788 87
0.65722603 -1.2782521 1.9773132 87
0.80379719 -1.5626613 1.9833045 66
0.88690752 -1.7139288 1.9762113 77
1.0712767 -2.0702271 1.9612476 75
1.3130881 -2.5386121 1.9584669 67
1.6208007 -3.1335256 1.9324652 71
1.6169412 -3.1260638 1.5102829 72
1.6173495 -3.1281915 1.1243919 76
1.6125298 -3.120204 0.75829554 76
1.6135693 -3.1235516 0.40795553 65
0.97381014 -1.8883283 1.9728094 81
1.1790589 -2.2873111 1.9572905 75
1.4630748 -2.837079 1.9606682 37
1.6162679 -3.135483 1.7181625 75
1.6160374 -3.1363797 1.3164275 78
1.6135962 -3.1329846 0.94068319 77
1.607041 -3.1215954 0.58127993 81
1.6091992 -3.1271286 0.23554316 84
0.013880108 -0.028110633 1.9991974 82
0.14167419 -0.27921104 1.9909451 95
0.18719172 -0.36683017 2.0034087 87
0.28946978 -0.5663538 2.0793068 44
0.37403178 -0.73151219 1.9951125 38
0.47694162 -0.93239862 1.9857829 83
0.59235221 -1.1580334 1.9830275 80
0.72646391 -1.4202292 1.9858838 71
0.055409055 -0.11178336 1.9910811 88
0.096349321 -0.19691205 1.9983203 91
0.24164744 -0.47501707 2.0880225 55
0.33630276 -0.66055596 2.0699246 39
0.42179674 -0.82814598 1.9846202 92
0.53103745 -1.042641 1.9840788 87
0.65231299 -1.2807662 1.9773132 87
0.79751778 -1.5658753 1.9833045 76
0.8806197 -1.717168 1.9762113 75
1.0636817 -2.0741396 1.9612476 75
1.3037747 -2.5434079 1.9584669 66
1.6072839 -3.1355026 1.9301471 75
1.6028119 -3.1281238 1.5084097 72
1.6031395 -3.1301086 1.1229826 76
1.5982987 -3.1219997 0.7573629 76
1.5992951 -3.1252909 0.40750933 85
0.96655232 -1.8920535 1.9728094 81
1.1702676 -2.2918215 1.9572905 75
1.4536347 -2.8467689 1.9632006 38
1.6016052 -3.1379037 1.7160646 76
1.5991418 -3.1344285 1.3131421 78
1.5965904 -3.1307771 0.93833858 79
1.5905435 -3.1189196 0.57990032 83
1.5949112 -3.1288333 0.23534164 84
0.0137819 -0.028158912 1.9991974 78
0.14069869 -0.27970386 1.9909451 95
0.18636969 -0.36838996 2.0083039 91
0.28749105 -0.56736076 2.0793068 45
0.37235934 -0.7345559 1.999715 38
0.47368407 -0.93405777 1.9857829 83
0.58830631 -1.160094 1.9830275 80
0.72150195 -1.4227563 1.9858838 76
0.055018522 -0.11197609 1.9910811 86
0.095661387 -0.19724716 1.9983203 93
0.23998785 -0.47585765 2.0880225 55
0.33477244 -0.6632663 2.0746174 40
0.41904819 -0.82954013 1.9846202 92
0.52757698 -1.0443963 1.9840788 87
0.64806229 -1.2829224 1.9773132 87
0.79232079 -1.5685112 1.9833045 80
0.87462032 -1.7202314 1.9762113 75
1.0564351 -2.0778399 1.9612476 75
1.2948886 -2.5479434 1.9584669 67
1.5943221 -3.1371448 1.9278291 75
1.5897835 -3.1295664 1.5065368 71
1.5900317 -3.1314082 1.1215736 77
1.5834889 -3.1185229 0.75549763 79
1.5866686 -3.1261363 0.4070631 89
0.96027273 -1.8952484 1.9728094 79
1.1626611 -2.2956896 1.9572905 75
1.4441866 -2.8515735 1.9632006 40
1.5891407 -3.139148 1.7139665 76
1.5866067 -3.1355002 1.3114994 80
1.5818118 -3.1273794 0.93599391 79
1.5774124 -3.120033 0.57921052 86
1.5817266 -3.1299226 0.23514012 84
0.013683522 -0.028206848 1.9991974 80
0.1397215 -0.2801933 1.9909451 95
0.18508263 -0.36903828 2.0083039 93
0.28550887 -0.56836087 2.0793068 44
0.37154737 -0.73934245 2.0089202 37
0.47042066 -0.9357056 1.9857829 85
0.58425319 -1.1621406 1.9830275 84
0.71509129 -1.4224019 1.982047 76
0.054627314 -0.11216746 1.9910811 86
0.094972283 -0.19757989 1.9983203 93
0.23832533 -0.47669244 2.0880225 55
0.33245519 -0.66443092 2.0746174 40
0.41615003 -0.83099788 1.9846202 92
0.52392817 -1.0462315 1.9840788 87
0.64358008 -1.2851768 1.9773132 87
0.78684086 -1.5712675 1.9833045 78
0.86861026 -1.7232739 1.9762113 71
1.0491757 -2.0815146 1.9612476 73
1.2859868 -2.5524478 1.9584669 67
1.579375 -3.1347778 1.9231931 76
1.5746793 -3.1268153 1.5027907 73
1.5769343 -3.1326542 1.1201643 76
1.5681763 -3.1152561 0.75363243 80
1.5712698 -3.1227586 0.40617067 88
0.95365125 -1.8985888 1.9728094 81
1.1546406 -2.2997341 1.9572905 73
1.4361583 -2.8604503 1.9657331 48
1.5761378 -3.1406198 1.7118685 76
1.5714171 -3.1325772 1.3082141 78
1.5665283 -3.1241918 0.9336493 92
1.5642929 -3.121093 0.57852072 88
1.5685537 -3.1309581 0.23493859 84
0.013584979 -0.028254442 1.9991974 82
0.13908672 -0.28137594 1.9958843 93
0.18379331 -0.3696821 2.0083039 95
0.28285748 -0.56801707 2.0745351 42
0.37070656 -0.74413228 2.0181251 35
0.46715161 -0.93734193 1.9857829 85
0.58019304 -1.1641729 1.9830275 84
0.71012181 -1.4248894 1.982047 76
0.054235447 -0.11235745 1.9910811 88
0.094053008 -0.19742788 1.993349 91
0.23665991 -0.47752148 2.0880225 55
0.33013386 -0.66558737 2.0746174 40
0.41324675 -0.83244538 1.9846202 92
0.52027291 -1.048054 1.9840788 87
0.63909006 -1.2874154 1.9773132 87
0.78135133 -1.5740044 1.9833045 74
0.8625896 -1.7262955 1.9762113 71
1.0419034 -2.0851643 1.9612476 73
1.2770692 -2.5569212 1.9584669 67
1.5664434 -3.1363084 1.920875 76
1.5616843 -3.1281452 1.5009177 73
1.5638477 -3.1338472 1.1187551 77
1.5550991 -3.1163156 0.75269985 82
1.5581371 -3.1237679 0.4057245 88
0.94701821 -1.901906 1.9728094 81
1.146606 -2.3037505 1.9572905 75
1.4261647 -2.8654459 1.9657331 50
1.5611223 -3.1379755 1.7076724 78
1.5583701 -3.1338151 1.3065712 78
1.5534497 -3.1252887 0.93247694 85
1.5489818 -3.1176648 0.57714105 88
1.5553929 -3.1319396 0.23473704 85
0.01348627 -0.02830169 1.9991974 82
0.13810369 -0.28185973 1.9958843 93
0.18250176 -0.37032142 2.0083039 95
0.28087303 -0.56900096 2.0745351 40
0.36983678 -0.74892521 2.0273302 30
0.46387681 -0.93896687 1.9857829 85
0.57612574 -1.166191 1.9830275 84
0.70514375 -1.4273596 1.982047 76
0.053842917 -0.11254609 1.9910811 88
0.093363278 -0.19775499 1.993349 91
0.23499162 -0.47834465 2.0880225 58
0.32780853 -0.66673565 2.0746174 39
0.41033846 -0.83388287 1.9846202 92
0.51661134 -1.0498637 1.9840788 87
0.63459224 -1.2896384 1.9773132 89
0.77585226 -1.5767223 1.9833045 73
0.8565585 -1.729296 1.9762113 75
1.0346185 -2.0887887 1.9612476 73
1.266281 -2.5576162 1.9557256 66
1.5515547 -3.1338167 1.9162389 72
1.5486993 -3.1294227 1.4990447 73
1.5486449 -3.130687 1.1159368 77
1.5420336 -3.1173217 0.75176716 83
1.5450162 -3.1247237 0.40527827 89
0.94037348 -1.9052001 1.9728094 81
1.1385574 -2.3077388 1.9572905 75
1.4180613 -2.8742728 1.9682654 51
1.5481519 -3.1393354 1.7055743 78
1.5453337 -3.135 1.3049287 78
1.5382346 -3.1219716 0.93013233 85
1.5359015 -3.1186099 0.57645124 90
1.5400378 -3.1283855 0.23433399 86
0.013387397 -0.028348593 1.9991974 80
0.13711897 -0.28234008 1.9958843 96
0.18120798 -0.37095618 2.0083039 95
0.27888513 -0.56997794 2.0745351 39
0.36979693 -0.75547588 2.0411379 28
0.46059638 -0.94058037 1.9857829 85
0.57205153 -1.168195 1.9830275 84
0.70015699 -1.4298122 1.982047 76
0.053449728 -0.11273336 1.9910811 88
0.092672415 -0.19807968 1.993349 93
0.23332044 -0.47916204 2.0880225 55
0.32547918 -0.66787589 2.0746174 39
0.40742517 -0.83531016 1.9846202 93
0.51294351 -1.0516605 1.9840788 87
0.63008672 -1.2918457 1.9773132 87
0.77034372 -1.5794209 1.9833045 64
0.85051686 -1.7322754 1.9762113 73
1.027321 -2.0923877 1.9612476 73
1.2573456 -2.562021 1.9557256 66
1.5386546 -3.1352365 1.913921 72
1.5357243 -3.1306474 1.4971716 73
1.5355952 -3.1317663 1.1145275 77
1.5289801 -3.1182752 0.75083458 85
1.5319078 -3.1256261 0.40483207 81
0.93371737 -1.9084712 1.9728094 81
1.130495 -2.3116994 1.9572905 75
1.4080195 -2.8792055 1.9682654 50
1.5351907 -3.1406426 1.7034762 78
1.5302348 -3.1318889 1.3016433 80
1.5251944 -3.1229546 0.92896003 84
1.5228338 -3.1195018 0.57576144 86
1.5269176 -3.1292527 0.23413247 85
0.01328836 -0.028395152 1.9991974 82
0.1361326 -0.28281701 1.9958843 96
0.17991202 -0.37158644 2.0083039 95
0.27689382 -0.57094795 2.0745351 40
0.36971581 -0.76203525 2.0549452 28
0.45731035 -0.94218248 1.9857829 83
0.56797028 -1.1701847 1.9830275 84
0.69516176 -1.4322475 1.982047 76
0.05305589 -0.11291923 1.9910811 89
0.092204377 -0.19888665 1.9983203 93
0.23164643 -0.4799735 2.0880225 53
0.32314587 -0.66900796 2.0746174 39
0.40450689 -0.8367272 1.9846202 93
0.50926936 -1.0534446 1.9840788 87
0.62557346 -1.2940372 1.9773132 87
0.76482576 -1.5821003 1.9833045 57
0.8444649 -1.7352337 1.9762113 71
1.0200109 -2.0959609 1.9612476 73
1.2483947 -2.5663941 1.9557256 61
1.5257632 -3.1366043 1.9116029 72
1.5207328 -3.1276505 1.4934255 74
1.52046 -3.1284781 1.1117091 78
1.5159386 -3.119175 0.74990195 85
1.520988 -3.1309543 0.40483207 81
0.92704982 -1.9117188 1.9728094 81
1.1224188 -2.3156312 1.9572905 73
1.3979607 -2.8841028 1.9682654 50
1.5222397 -3.1418979 1.7013782 79
1.5172347 -3.132961 1.3000005 80
1.5121661 -3.1238844 0.92778766 84
1.5119355 -3.1247985 0.57576144 86
1.5138099 -3.1300659 0.23393092 85
0.013189161 -0.028441362 1.9991974 80
0.13547891 -0.28399181 2.0008237 96
0.17861383 -0.3722122 2.0083039 95
0.27489915 -0.57191104 2.0745351 39
0.36959338 -0.76860321 2.068753 31
0.45401874 -0.94377303 1.9857829 83
0.56388211 -1.1721601 1.9830275 82
0.69015807 -1.4346653 1.982047 78
0.052661404 -0.11310375 1.9910811 89
0.091509573 -0.19920728 1.9983203 93
0.22996959 -0.48077923 2.0880225 53
0.32080865 -0.6701318 2.0746174 39
0.4015837 -0.83813405 1.9846202 93
0.50558907 -1.0552161 1.9840788 87
0.62105262 -1.296213 1.9773132 87
0.75929856 -1.5847604 1.9833045 50
0.83840269 -1.7381709 1.9762113 60
1.0126885 -2.0995085 1.9612476 73
1.2394288 -2.5707364 1.9557256 61
1.5128813 -3.1379206 1.9092849 70
1.5077934 -3.1287639 1.4915526 74
1.5074484 -3.1294444 1.1102999 78
1.5029098 -3.1200221 0.74896938 83
1.5078893 -3.1317573 0.40438583 81
0.92037112 -1.9149431 1.9728094 81
1.1143289 -2.319535 1.9572905 73
1.3878846 -2.8889649 1.9682654 51
1.5092984 -3.143101 1.69928 79
1.504246 -3.1339805 1.298358 78
1.49915 -3.1247613 0.92661542 84
1.4988774 -3.125592 0.57507163 86
1.5007153 -3.1308258 0.23372939 84
0.013089802 -0.028487228 1.9991974 84
0.13448676 -0.28446299 2.0008237 96
0.17775071 -0.37375298 2.0131991 95
0.27354339 -0.57421547 2.0793068 39
0.3685891 -0.77341598 2.0779581 35
0.45072156 -0.94535208 1.9857829 83
0.55978703 -1.1741213 1.9830275 82
0.68514591 -1.4370657 1.982047 76
0.052266277 -0.11328688 1.9910811 89
0.090813652 -0.19952549 1.9983203 93
0.22828998 -0.48157901 2.0880225 53
0.3184675 -0.6712476 2.0746174 39
0.39865565 -0.83953077 1.9846202 88
0.50190264 -1.0569744 1.9840788 87
0.61652428 -1.298373 1.9773132 87
0.7552163 -1.5904636 1.9869798 49
0.83079207 -1.7378691 1.9727067 48
1.0053536 -2.1030307 1.9612476 73
1.2304478 -2.5750473 1.9557256 67
1.5000085 -3.139185 1.9069668 66
1.4948648 -3.1298244 1.4896795 73
1.4944487 -3.130358 1.1088908 76
1.4898933 -3.1208162 0.74803668 83
1.4948035 -3.1325073 0.40393963 80
0.91368109 -1.9181442 1.9728094 81
1.1062254 -2.3234107 1.9572905 75
1.3777918 -2.8937922 1.9682654 54
1.4963677 -3.1442523 1.6971821 79
1.4892399 -3.1306832 1.2950726 78
1.4882334 -3.1299753 0.92661542 84
1.4858321 -3.126332 0.57438183 87
1.4876338 -3.1315327 0.23352787 85
0.012990283 -0.028532747 1.9991974 82
0.13349301 -0.28493074 2.0008237 96
0.17644498 -0.37437117 2.0131991 95
0.27153733 -0.57516682 2.0793068 40
0.36672139 -0.7764644 2.0825605 38
0.44741893 -0.94691968 1.9857829 83
0.55688733 -1.1786126 1.9871606 82
0.68012542 -1.4394486 1.982047 76
0.051870514 -0.11346863 1.9910811 89
0.09011662 -0.19984128 1.9983203 93
0.22660756 -0.48237294 2.0880225 51
0.31612247 -0.67235512 2.0746174 39
0.39572269 -0.84091723 1.9846202 81
0.49821001 -1.0587199 1.9840788 87
0.61198831 -1.3005171 1.9773132 87
0.7496599 -1.5930903 1.9869798 47
0.82472068 -1.7407585 1.9727067 42
0.99800658 -2.1065271 1.9612476 73
1.2214515 -2.5793264 1.9557256 67
1.4871455 -3.1403983 1.9046489 65
1.4819472 -3.1308336 1.4878064 73
1.481461 -3.1312189 1.1074816 78
1.474789 -3.1171169 0.74617147 83
1.4817307 -3.1332037 0.40349343 79
0.90697992 -1.9213217 1.9728094 81
1.0981084 -2.3272579 1.9572905 75
1.3676823 -2.8985839 1.9682654 54
1.4834471 -3.1453516 1.695084 79
1.476289 -3.1315908 1.2934299 78
1.4752268 -3.1307542 0.92544305 84
1.4728001 -3.1270194 0.57369196 87
1.4745656 -3.1321862 0.23332632 86
0.012890605 -0.028577916 1.9991974 82
0.13249758 -0.28539494 2.0008237 96
0.1751371 -0.3749848 2.0131991 95
0.269528 -0.57611114 2.0793068 44
0.36483696 -0.77950925 2.087163 38
0.44309491 -0.94630587 1.9813942 83
0.55276984 -1.1805493 1.9871606 82
0.67509675 -1.4418139 1.982047 76
0.05147412 -0.113649 1.9910811 89
0.089418501 -0.20015462 1.9983203 95
0.22226848 -0.47745937 2.0638263 44
0.31304482 -0.67189032 2.0699246 40
0.39370528 -0.84426719 1.9891212 62
0.49451134 -1.0604526 1.9840788 87
0.60744488 -1.3026454 1.9773132 89
0.74409437 -1.5956973 1.9869798 47
0.81863928 -1.7436268 1.9727067 42
0.99064732 -2.109998 1.9612476 73
1.2124406 -2.5835743 1.9557256 67
1.4742922 -3.1415596 1.9023308 70
1.4690406 -3.1317902 1.4859334 68
1.4684852 -3.1320276 1.1060723 77
1.4618138 -3.1177986 0.74523884 83
1.4686716 -3.133848 0.40304723 80
0.90026778 -1.924476 1.9728094 81
1.0899782 -2.3310769 1.9572905 75
1.357556 -2.9033403 1.9682654 55
1.4705371 -3.146399 1.692986 78
1.4633501 -3.1324468 1.2917871 78
1.4622332 -3.1314807 0.92427075 84
1.4597814 -3.1276541 0.57300216 87
1.4615111 -3.1327868 0.23312479 86
0.012790772 -0.028622739 1.9991974 82
0.13150056 -0.28585574 2.0008237 96
0.17339952 -0.37466976 2.0083039 95
0.26751533 -0.57704842 2.0793068 42
0.36293569 -0.78255028 2.0917654 37
0.43978897 -0.94784683 1.9813942 85
0.54864556 -1.1824716 1.9871606 82
0.67005968 -1.4441617 1.982047 78
0.051195197 -0.11409238 1.9960728 89
0.088719286 -0.20046553 1.9983203 95
0.21796651 -0.47252142 2.0396304 45
0.31069762 -0.672979 2.0699246 40
0.39075586 -0.84563637 1.9891212 38
0.49080667 -1.0621723 1.9840788 87
0.60289413 -1.304758 1.9773132 89
0.73851985 -1.5982851 1.9869798 47
0.81254792 -1.7464737 1.9727067 54
0.98327607 -2.1134431 1.9612476 73
1.2034149 -2.587791 1.9557256 67
1.4614491 -3.1426694 1.9000129 70
1.4561455 -3.1326947 1.4840603 69
1.4555222 -3.1327839 1.1046631 77
1.4488519 -3.1184273 0.74430621 83
1.4556258 -3.1344385 0.402601 82
0.89354455 -1.9276068 1.9728094 79
1.0818346 -2.3348675 1.9572905 75
1.3474132 -2.9080613 1.9682654 54
1.4557306 -3.1432762 1.6887898 78
1.450423 -3.13325 1.2901444 78
1.4492521 -3.1321542 0.92309844 83
1.4467762 -3.1282358 0.57231236 87
1.4484702 -3.1333342 0.23292327 86
0.012690783 -0.028667213 1.9991974 80
0.13050194 -0.286313 2.0008237 96
0.17209062 -0.37527275 2.0083039 95
0.26549944 -0.57797873 2.0793068 40
0.36020184 -0.78381246 2.0917654 37
0.43647769 -0.94937617 1.9813942 85
0.5445146 -1.1843795 1.9871606 82
0.66501456 -1.4464917 1.982047 78
0.050796624 -0.11427038 1.9960728 89
0.088018991 -0.200774 1.9983203 93
0.21370175 -0.46755928 2.0154345 51
0.30834657 -0.67405939 2.0699246 40
0.38870814 -0.84897512 1.9936218 36
0.48709601 -1.063879 1.9840788 87
0.59959072 -1.3095949 1.9813027 87
0.73293626 -1.6008531 1.9869798 50
0.80644661 -1.7492994 1.9727067 58
0.97589272 -2.1168625 1.9612476 73
1.1943744 -2.5919757 1.9557256 67
1.4467622 -3.1397047 1.8953768 70
1.4432623 -3.133548 1.4821874 73
1.4425716 -3.1334879 1.103254 77
1.4359035 -3.1190038 0.74337363 81
1.4425939 -3.1349766 0.40215477 83
0.8868106 -1.9307141 1.9728094 81
1.0736777 -2.3386295 1.9572905 75
1.3390528 -2.9166651 1.9707979 57
1.4428567 -3.1442139 1.6866918 78
1.4375081 -3.1340015 1.2885019 80
1.4362844 -3.132776 0.92192614 81
1.4337847 -3.1287651 0.57162255 87
1.4354438 -3.1338294 0.23272175 86
0.012590637 -0.028711338 1.9991974 80
0.12950173 -0.2867668 2.0008237 96
0.17077963 -0.37587118 2.0083039 95
0.26348031 -0.57890195 2.0793068 39
0.35746363 -0.785065 2.0917654 37
0.43316111 -0.950894 1.9813942 85
0.53921056 -1.1837122 1.9830275 78
0.65996134 -1.4488044 1.982047 76
0.050397437 -0.11444701 1.9960728 89
0.087317623 -0.20108002 1.9983203 93
0.20999314 -0.46371907 1.9960775 69
0.3059918 -0.67513168 2.0699246 40
0.38574231 -0.85032684 1.9936218 36
0.48337939 -1.0655727 1.9840788 85
0.5950157 -1.3116798 1.9813027 84
0.72594333 -1.6003144 1.9833045 55
0.8018173 -1.7553477 1.9762113 73
0.96849757 -2.1202562 1.9612476 73
1.1853195 -2.5961292 1.9557256 67
1.4339538 -3.1407056 1.8930587 70
1.4303906 -3.1343491 1.4803143 73
1.429634 -3.1341395 1.1018448 77
1.4229687 -3.1195276 0.742441 83
1.429576 -3.1354613 0.40170857 83
0.88161242 -1.9371966 1.9761342 81
1.0638341 -2.3386836 1.9543474 73
1.3288635 -2.9213216 1.9707979 55
1.429994 -3.1450994 1.6845938 76
1.4246058 -3.1347008 1.2868592 80
1.4213196 -3.1289194 0.91958147 81
1.4208071 -3.1292417 0.57093269 87
1.4224311 -3.1342714 0.23252019 85
0.01249034 -0.028755113 1.9991974 82
0.1281828 -0.28650779 1.9958843 95
0.16946657 -0.37646502 2.0083039 95
0.26145792 -0.57981813 2.0793068 39
0.3547211 -0.78630805 2.0917654 37
0.43082476 -0.954584 1.9857829 83
0.53507537 -1.185587 1.9830275 78
0.65490007 -1.4510992 1.982047 76
0.049997635 -0.11462222 1.9960728 89
0.08661519 -0.20138359 1.9983203 93
0.20837316 -0.46444929 1.9960775 82
0.30434006 -0.6777699 2.0746174 40
0.38277176 -0.85166818 1.9936218 38
0.47965693 -1.0672536 1.9840788 85
0.59043348 -1.313749 1.9813027 87
0.72035277 -1.6028386 1.9833045 62
0.79568511 -1.758136 1.9762113 73
0.96109062 -2.1236238 1.9612476 73
1.1762501 -2.600251 1.9557256 67
1.421156 -3.1416554 1.8907408 70
1.417531 -3.1350989 1.4784412 73
1.4167095 -3.1347394 1.1004356 77
1.410048 -3.1199994 0.74150836 83
1.4165725 -3.1358941 0.40126237 80
0.87484497 -1.9402622 1.9761342 81
1.0556641 -2.3423829 1.9543474 73
1.3186581 -2.9259427 1.9707979 55
1.4152789 -3.1417961 1.6803976 78
1.4117162 -3.1353486 1.2852165 81
1.4083942 -3.1294293 0.91840917 85
1.4058123 -3.1251493 0.56955308 87
1.4073844 -3.1301045 0.23211715 86
0.012389889 -0.028798537 1.9991974 80
0.12718192 -0.28695348 1.9958843 95
0.16815141 -0.3770543 2.0083039 95
0.25943241 -0.58072728 2.0793068 39
0.35197419 -0.78754139 2.0917654 37
0.42749 -0.95608199 1.9857829 83
0.53093356 -1.1874475 1.9830275 82
0.64983076 -1.4533763 1.982047 74
0.049597222 -0.11479606 1.9960728 89
0.085911699 -0.20168471 1.9983203 93
0.20675066 -0.46517378 1.9960775 82
0.30197236 -0.67882806 2.0746174 40
0.37979656 -0.85299909 1.9936218 40
0.47592857 -1.0689214 1.9840788 87
0.5858441 -1.3158019 1.9813027 89
0.71475339 -1.6053433 1.9833045 69
0.78954327 -1.7609026 1.9762113 75
0.95367193 -2.1269658 1.9612476 73
1.1671664 -2.6043408 1.9557256 67
1.4083691 -3.1425543 1.8884226 69
1.4046836 -3.135797 1.4765682 73
1.4037981 -3.135287 1.0990263 77
1.3971411 -3.120419 0.74057573 81
1.4035832 -3.1362743 0.40081617 80
0.86806685 -1.9433042 1.9761342 81
1.0474813 -2.3460538 1.9543474 73
1.3084368 -2.9305277 1.9707979 58
1.4024535 -3.1425722 1.6782995 79
1.3988394 -3.1359444 1.2835737 81
1.3954825 -3.1298871 0.91723686 84
1.392879 -3.1255143 0.56886327 87
1.3944169 -3.1304345 0.23191562 85
0.012289288 -0.028841609 1.9991974 80
0.12617949 -0.28739569 1.9958843 96
0.16683424 -0.37763894 2.0083039 95
0.2574037 -0.58162934 2.0793068 39
0.34922299 -0.78876531 2.0917654 37
0.42415005 -0.95756841 1.9857829 83
0.52678537 -1.1892937 1.9830275 82
0.64475358 -1.4556359 1.982047 74
0.04919621 -0.11496848 1.9960728 89
0.085207164 -0.20198336 1.9983203 93
0.20512564 -0.46589264 1.9960775 82
0.29960099 -0.679878 2.0746174 40
0.37593794 -0.85232717 1.9891212 40
0.47219446 -1.0705763 1.9840788 87
0.58124745 -1.3178388 1.9813027 87
0.70914537 -1.6078286 1.9833045 74
0.78339165 -1.7636479 1.9762113 73
0.94782186 -2.1338394 1.9643854 73
1.1580684 -2.6083992 1.9557256 67
1.3955934 -3.1434023 1.8861047 70
1.3899682 -3.1322064 1.4728222 74
1.3889551 -3.1313972 1.096208 77
1.3842486 -3.1207864 0.73964316 74
1.3906084 -3.1366017 0.40036994 82
0.86127818 -1.9463226 1.9761342 79
1.0409207 -2.3533924 1.9572905 73
1.2981994 -2.935077 1.9707979 57
1.3896403 -3.1432979 1.6762016 79
1.3878843 -3.1408079 1.2835737 81
1.3825849 -3.1302931 0.9160645 79
1.3779604 -3.1212966 0.5674836 84
1.3814641 -3.130712 0.23171407 85
0.012188537 -0.028884333 1.9991974 78
0.12517552 -0.28783438 1.9958843 97
0.16551501 -0.37821898 2.0083039 95
0.25537187 -0.5825243 2.0793068 39
0.34646755 -0.78997946 2.0917654 37
0.42080492 -0.95904315 1.9857829 85
0.52263075 -1.1911253 1.9830275 84
0.64095658 -1.4608133 1.9858838 74
0.04868206 -0.11487271 1.9910811 89
0.084501594 -0.20227957 1.9983203 91
0.20349814 -0.46660581 1.9960775 82
0.29722592 -0.68091971 2.0746174 40
0.37383229 -0.85562974 1.9936218 38
0.46845457 -1.0722179 1.9840788 87
0.57664382 -1.3198597 1.9813027 87
0.70352864 -1.6102942 1.9833045 80
0.77723068 -1.7663718 1.9762113 73
0.94036758 -2.137135 1.9643854 73
1.1489564 -2.6124258 1.9557256 67
1.3828287 -3.1441991 1.8837866 70
1.3771608 -3.1327953 1.4709492 74
1.3760864 -3.131835 1.0947988 77
1.3713707 -3.1211023 0.73871052 74
1.3756462 -3.1323175 0.39947754 82
0.85447896 -1.9493171 1.9761342 69
