# .PCD v0.7 - Point Cloud Data file format
VERSION 0.7
FIELDS x y z intensity
SIZE 4 4 4 4
TYPE F F F F
COUNT 1 1 1 1
WIDTH 1328
HEIGHT 1
VIEWPOINT 0 0 0 1 0 0 0
POINTS 1328
DATA ascii
-3.984163 -1.1590176 2.0055959 46
-5.2789459 -1.534678 2.0014269 46
-7.6130404 -2.211796 2.0028028 18
-9.8824196 -2.8692415 1.5256377 51
-3.3296003 -0.96608096 0.23352787 8
-0.030246932 -0.0082454951 1.9991974 62
-0.30414841 -0.086486965 2.0107021 40
-0.39782539 -0.11411206 2.0131991 89
-0.48352382 -0.13903774 1.6546235 37
-0.57552451 -0.16559143 1.4704248 60
-1.0133311 -0.29173023 1.9989488 81
-1.320281 -0.38009202 2.0904844 31
-1.5483866 -0.4457562 2.0050688 42
-0.12087818 -0.033151008 2.0010643 53
-0.21222414 -0.057033617 2.0032918 95
-0.48586559 -0.13870698 1.9815599 39
-0.4853805 -0.13874376 1.4270155 50
-0.89978355 -0.2575151 1.9981228 80
-1.1374609 -0.32553065 2.0054085 87
-1.3963286 -0.39961043 1.9972607 44
-1.709004 -0.48908889 2.0053556 85
-1.8950421 -0.54770058 2.018266 38
-2.2954278 -0.66341478 2.0083144 32
-2.8141589 -0.81280285 2.0050719 56
-3.5255473 -1.0182664 2.0066421 63
-4.6107769 -1.3308353 2.02724 22
-6.2460418 -1.8016496 1.9995023 26
-9.7086773 -2.8004334 2.0098717 66
-9.5415049 -2.7504098 0.98267382 41
-2.0885794 -0.60047436 2.0160325 38
-2.527648 -0.72622937 1.9984947 73
-3.1550128 -0.90647632 2.0138493 67
-3.9881847 -1.1451032 2.0055959 42
-5.2842708 -1.5162416 2.0014269 45
-7.6300597 -2.1878877 2.0051475 17
-9.8971348 -2.8360915 1.5263276 51
-3.3137407 -0.94895101 0.23272175 7
-0.030275531 -0.0081398636 1.9991974 60
-0.30444849 -0.085424758 2.0107021 39
-0.39822128 -0.11272269 2.0131991 89
-0.4840062 -0.13734905 1.6546235 37
-0.57985771 -0.16464862 1.4796298 67
-1.0143433 -0.28819126 1.9989488 83
-1.3243066 -0.37625009 2.0946171 32
-1.5499332 -0.4403486 2.0050688 26
-0.12099316 -0.032728858 2.0010643 55
-0.2129382 -0.056428581 2.0082631 96
-0.48634681 -0.13701014 1.9815599 39
-0.48586184 -0.13704862 1.4270155 50
-0.90067697 -0.25437272 1.9981228 80
-1.1385902 -0.32155821 2.0054085 87
-1.3977149 -0.39473391 1.9972607 42
-1.7107009 -0.48312038 2.0053556 83
-1.8969423 -0.54108238 2.018266 38
-2.2977297 -0.65539825 2.0083144 31
-2.8169789 -0.8029747 2.0050719 63
-3.5290799 -1.0059538 2.0066421 53
-4.6109357 -1.3134625 2.0253668 22
-6.2476788 -1.7785225 1.998093 11
-9.7136688 -2.7651818 2.008939 72
-9.5414667 -2.7143612 0.98178142 22
-2.0906627 -0.59318012 2.0160325 38
-2.5301676 -0.71740186 1.9984947 73
-3.1581578 -0.89545774 2.0138493 67
-3.9921575 -1.1311749 2.0055959 39
-5.2895317 -1.4977869 2.0014269 45
-7.6470046 -2.1638873 2.0074921 17
-9.9117403 -2.8028748 1.5270175 49
-3.3122251 -0.93601948 0.23252019 7
-0.030302357 -0.0080394223 1.9991974 60
-0.30473006 -0.084414706 2.0107021 38
-0.39859289 -0.11140152 2.0131991 93
-0.48445901 -0.13574331 1.6546235 38
-0.58416283 -0.16377954 1.4888349 69
-1.0176002 -0.28547311 2.0033376 83
-1.325547 -0.37185645 2.0946171 32
-1.5513849 -0.43520641 2.0050688 26
-0.12110102 -0.032327451 2.0010643 53
-0.21312417 -0.05572214 2.0082631 96
-0.48558661 -0.13505962 1.9767207 40
-0.4879761 -0.1358996 1.4317083 52
-0.90151554 -0.25138456 1.9981228 81
-1.1396503 -0.31778073 2.0054085 87
-1.3990163 -0.39009675 1.9972607 39
-1.7122936 -0.47744483 2.0053556 88
-1.8987262 -0.53478891 2.018266 38
-2.2998905 -0.64777511 2.0083144 31
-2.8196261 -0.79362887 2.0050719 63
-3.5323963 -0.99424547 2.0066421 53
-4.6108041 -1.2969098 2.023494 25
-6.2535419 -1.7577945 1.998093 10
-9.7180567 -2.7316258 2.0080066 76
-9.5408268 -2.680012 0.98088896 16
-2.0926185 -0.58624405 2.0160325 37
-2.5364249 -0.71009719 2.0014381 73
-3.1611099 -0.88497996 2.0138493 67
-3.9958868 -1.1179303 2.0055959 39
-5.2990179 -1.4815094 2.0030696 47
-7.6635008 -2.1411328 2.0098369 16
-9.9257498 -2.7713225 1.5277071 50
-3.3008745 -0.92100263 0.23191562 40
-0.030287873 -0.0079231448 1.9941976 60
-0.30577245 -0.083555117 2.0156415 37
-0.39897931 -0.11000951 2.0131991 93
-0.48492989 -0.1340514 1.6546235 38
-0.59037989 -0.16330177 1.5026424 80
-1.0185905 -0.2819193 2.0033376 83
-1.3268368 -0.36722717 2.0946171 32
-1.5528946 -0.42978841 2.0050688 29
-0.12121314 -0.031904534 2.0010643 51
-0.21331738 -0.054977864 2.0082631 98
-0.48605511 -0.13336377 1.9767207 40
-0.48844749 -0.1341954 1.4317083 52
-0.90238756 -0.24823615 1.9981228 81
-1.1407526 -0.31380066 2.0054085 87
-1.4003694 -0.38521087 1.9972607 38
-1.7139497 -0.4714649 2.0053556 86
-1.9005814 -0.52815789 2.018266 38
-2.3021376 -0.63974303 2.0083144 30
-2.8223794 -0.78378159 2.0050719 56
-3.5358455 -0.98190898 2.0066421 63
-4.6108356 -1.2795675 2.021621 23
-6.2642632 -1.737237 1.9995023 31
-9.7227983 -2.6963739 2.0070741 76
-9.5405264 -2.6440322 0.97999662 47
-2.0946519 -0.57893586 2.0160325 37
-2.5388882 -0.70123911 2.0014381 71
-3.1641796 -0.87394023 2.0138493 67
-3.9997647 -1.1039752 2.0055959 38
-5.3041568 -1.4630034 2.0030696 44
-7.6802998 -2.1169524 2.0121813 15
-9.9353628 -2.7366581 1.5277071 51
-3.2944357 -0.90682316 0.23151255 85
-0.030315345 -0.0078173727 1.9941976 58
-0.30606225 -0.082487263 2.0156415 36
-0.3993609 -0.10861612 2.0131991 93
-0.48539487 -0.13235785 1.6546235 38
-0.59471577 -0.16226834 1.5118475 88
-1.0195683 -0.27836201 2.0033376 85
-1.3281107 -0.36259338 2.0946171 31
-1.5543854 -0.42436516 2.0050688 38
-0.12132376 -0.031481229 2.0010643 51
-0.21402565 -0.054363709 2.0132346 99
-0.48651767 -0.13166632 1.9767207 44
-0.48891294 -0.13248961 1.4317083 54
-0.90324861 -0.24508473 1.9981228 85
-1.1418409 -0.30981681 2.0054085 87
-1.4046141 -0.38110954 2.00125 37
-1.715585 -0.46547925 2.0053556 83
-1.9024135 -0.52152038 2.018266 38
-2.3043566 -0.63170326 2.0083144 31
-2.825098 -0.77392489 2.0050719 50
-3.5392518 -0.9695605 2.0066421 63
-4.6152735 -1.2634648 2.021621 24
-6.2702889 -1.7153599 1.9995023 32
-9.7226744 -2.659826 2.0052087 78
-9.5448933 -2.6094003 0.97955036 43
-2.0966601 -0.57162064 2.0160325 37
-2.5413203 -0.6923725 2.0014381 73
-3.1672113 -0.86288989 2.0138493 67
-4.0079727 -1.0911988 2.007694 35
-5.3092313 -1.4444795 2.0030696 44
-7.6970234 -2.0926805 2.0145259 15
-9.9448547 -2.7019606 1.5277071 57
-3.2879384 -0.89269972 0.2311095 85
-0.030342449 -0.0077115046 1.9941976 58
-0.30634832 -0.081418402 2.0156415 35
-0.39973763 -0.10722144 2.0131991 95
-0.4844116 -0.13027489 1.6498517 38
-0.60282487 -0.16222189 1.5302576 96
-1.0205338 -0.27480134 2.0033376 83
-1.3293682 -0.35795519 2.0946171 32
-1.5558573 -0.41893676 2.0050688 45
-0.12143292 -0.031057535 2.0010643 51
-0.2142141 -0.053616285 2.0132346 99
-0.48575902 -0.12964299 1.9718815 42
-0.48937243 -0.13078217 1.4317083 52
-0.90409863 -0.24193031 1.9981228 88
-1.1429156 -0.30582914 2.0054085 87
-1.405936 -0.37620419 2.00125 36
-1.7171993 -0.45948789 2.0053556 71
-1.9042222 -0.51487648 2.018266 38
-2.3065476 -0.62365556 2.0083144 31
-2.8277824 -0.76405883 2.0050719 39
-3.5426142 -0.95720041 2.0066421 64
-4.6151805 -1.2461385 2.0197477 26
-6.2808704 -1.694712 2.0009115 31
-9.7271585 -2.6245918 2.004276 82
-9.5443268 -2.5734737 0.97865796 45
-2.0986426 -0.56429845 2.0160325 37
-2.5437217 -0.68349737 2.0014381 73
-3.1702039 -0.85182899 2.0138493 67
-4.0117574 -1.0772017 2.007694 33
-5.3142409 -1.425938 2.0030696 45
-7.7136712 -2.0683181 2.0168707 14
-9.9542265 -2.6672301 1.5277071 59
-3.2862084 -0.87992507 0.23090795 85
-0.030369181 -0.0076055429 1.9941976 60
-0.30663067 -0.080348559 2.0156415 35
-0.40010944 -0.10582544 2.0131991 95
-0.4848634 -0.12858316 1.6498517 38
-0.61094069 -0.16212076 1.5486677 97
-1.0214868 -0.27123731 2.0033376 83
-1.3306097 -0.35331264 2.0946171 31
-1.5573101 -0.41350326 2.0050688 69
-0.12154059 -0.030633468 2.0010643 53
-0.21439995 -0.05286821 2.0132346 99
-0.48620862 -0.12794659 1.9718815 40
-0.48982599 -0.12907314 1.4317083 54
-0.90704322 -0.23932849 2.0026236 90
-1.1439761 -0.30183774 2.0054085 87
-1.4072406 -0.37129429 2.00125 35
-1.7187928 -0.45349094 2.0053556 57
-1.9060079 -0.50822639 2.018266 38
-2.3087106 -0.61560047 2.0083144 31
-2.8304322 -0.75418335 2.0050719 38
-3.545934 -0.94482851 2.0066421 63
-4.6150222 -1.2288278 2.0178747 29
-6.2913833 -1.6740108 2.0023208 31
-9.7267647 -2.5880957 2.0024109 88
-9.5436268 -2.5375824 0.9777655 45
-2.1005995 -0.55696934 2.0160325 37
-2.5460923 -0.67461401 2.0014381 71
-3.1731582 -0.84075779 2.0138493 67
-4.0198812 -1.0643532 2.0097921 31
-5.3191862 -1.4073793 2.0030696 45
-7.7302423 -2.0438647 2.0192153 15
-9.9586878 -2.631202 1.5270175 62
-3.2844293 -0.86717337 0.23070642 86
-0.030395545 -0.0074994881 1.9941976 60
-0.30690923 -0.079277731 2.0156415 35
-0.4004764 -0.10442815 2.0131991 95
-0.48386431 -0.12651215 1.64508 38
-0.62284327 -0.16295385 1.5762829 97
-1.0224274 -0.26767004 2.0033376 83
-1.3318349 -0.34866583 2.0946171 30
-1.5587441 -0.40806475 2.0050688 76
-0.12164678 -0.030209027 2.0010643 51
-0.21458319 -0.052119497 2.0132346 100
-0.48543474 -0.12593284 1.9670423 40
-0.49027357 -0.12736253 1.4317083 54
-0.90787315 -0.23616086 2.0026236 92
-1.1450227 -0.29784265 2.0054085 87
-1.408528 -0.3663798 2.00125 35
-1.7203654 -0.44748846 2.0053556 33
-1.9077703 -0.50157011 2.018266 38
-2.3146102 -0.60852766 2.011452 31
-2.8330476 -0.74429876 2.0050719 34
-3.5492108 -0.93244523 2.0066421 63
-4.6147995 -1.2115339 2.0160019 29
-6.3018289 -1.6532568 2.0037298 33
-9.7309885 -2.5528805 2.0014782 91
-9.5476093 -2.5029907 0.9773193 45
-2.102531 -0.5496335 2.0160325 37
-2.5484314 -0.66572237 2.0014381 73
-3.1760733 -0.82967621 2.0138493 67
-4.0279627 -1.0514611 2.0118899 28
-5.3240662 -1.3888031 2.0030696 45
-7.742033 -2.0180945 2.0203876 15
-9.9678125 -2.5964239 1.5270175 64
-3.2826016 -0.8544448 0.2305049 88
-0.030421538 -0.0073933424 1.9941976 60
-0.30718413 -0.078205928 2.0156415 35
-0.40083846 -0.10302959 2.0131991 93
-0.48430294 -0.12482239 1.64508 39
-0.64421767 -0.16614491 1.6269106 98
-1.0233555 -0.26409948 2.0033376 81
-1.3330438 -0.34401473 2.0946171 32
-1.5601588 -0.40262121 2.0050688 73
-0.12175148 -0.029784216 2.0010643 53
-0.21476382 -0.051370144 2.0132346 101
-0.48587134 -0.12423758 1.9670423 40
-0.49071515 -0.12565039 1.4317083 52
-0.90869188 -0.23299035 2.0026236 92
-1.1460555 -0.29384398 2.0054085 89
-1.4097983 -0.36146092 2.00125 35
-1.7219169 -0.44148055 2.0053556 21
-1.9095095 -0.49490765 2.018266 38
-2.3167205 -0.60044444 2.011452 31
-2.8356283 -0.73440498 2.0050719 32
-3.5524437 -0.92005038 2.0066421 63
-4.614512 -1.1942564 2.0141287 29
-6.3075609 -1.6312493 2.0037298 33
-9.7303295 -2.5164375 1.999613 91
-9.5466452 -2.4671559 0.9764269 45
-2.1044366 -0.54229099 2.0160325 37
-2.5507398 -0.65682262 2.0014381 71
-3.1789503 -0.81858462 2.0138493 67
-4.0316086 -1.0373945 2.0118899 28
-5.3288822 -1.3702103 2.0030696 47
-7.7537384 -1.9922673 2.02156 15
-9.9720182 -2.5603824 1.5263276 65
-3.2855642 -0.84298116 0.2305049 89
-0.030447161 -0.0072871065 1.9941976 58
-0.30745524 -0.077133179 2.0156415 35
-0.40119568 -0.10162978 2.0131991 93
-0.48473573 -0.1231311 1.64508 38
-0.66183484 -0.16822621 1.6683333 98
-1.0242711 -0.2605257 2.0033376 83
-1.3342365 -0.33935946 2.0946171 32
-1.5615549 -0.39717278 2.0050688 73
-0.12185472 -0.029359041 2.0010643 53
-0.21494183 -0.050620165 2.0132346 102
-0.48630208 -0.12254082 1.9670423 40
-0.49115074 -0.12393671 1.4317083 52
-0.90949965 -0.22981702 2.0026236 92
-1.1470742 -0.28984174 2.0054085 87
-1.4110514 -0.35653758 2.00125 35
-1.7234473 -0.43546724 2.0053556 22
-1.9077703 -0.48735654 2.0147614 38
-2.3188021 -0.59235388 2.011452 31
-2.8422258 -0.72553653 2.0078135 29
-3.5556335 -0.90764445 2.0066421 63
-4.6141605 -1.1769955 2.0122557 32
-6.3132167 -1.6092218 2.0037298 33
-9.7342939 -2.4812438 1.9986804 95
-9.5455465 -2.4313583 0.9755345 46
-2.106317 -0.53494179 2.0160325 37
-2.5530169 -0.64791489 2.0014381 73
-3.1817882 -0.80748302 2.0138493 67
-4.0352054 -1.0233152 2.0118899 30
-5.333632 -1.3516006 2.0030696 48
-7.7653565 -1.9663826 2.0227323 15
-9.9760942 -2.5243433 1.5256377 64
-3.2836432 -0.83028257 0.23030338 89
-0.030472413 -0.0071807816 1.9941976 55
-0.3077226 -0.07605949 2.0156415 36
-0.401548 -0.10022873 2.0131991 95
-0.48371378 -0.12107573 1.6403083 38
-0.68326437 -0.17113575 1.7189611 98
-1.0251743 -0.25694874 2.0033376 83
-1.335413 -0.33470002 2.0946171 31
-1.5629317 -0.39171949 2.0050688 76
-0.12195645 -0.028933508 2.0010643 53
-0.21511722 -0.049869571 2.0132346 103
-0.48672688 -0.12084256 1.9670423 40
-0.49158037 -0.12222152 1.4317083 52
-0.91029638 -0.22664085 2.0026236 93
-1.1480789 -0.28583592 2.0054085 87
-1.4122875 -0.35160992 2.00125 35
-1.7249571 -0.42944863 2.0053556 38
-1.9094598 -0.48069423 2.0147614 39
-2.3208559 -0.58425617 2.011452 31
-2.8487961 -0.716631 2.0105548 27
-3.5587802 -0.89522749 2.0066421 63
-4.6137447 -1.1597517 2.0103827 32
-6.3187952 -1.5871748 2.0037298 34
-9.7381325 -2.446053 1.9977478 98
-9.5443144 -2.3955986 0.97464204 45
-2.1081715 -0.52758616 2.0160325 37
-2.5552628 -0.63899922 2.0014381 73
-3.1845875 -0.79637158 2.0138493 67
-4.0387526 -1.0092235 2.0118899 31
-5.3383179 -1.3329746 2.0030696 47
-7.7768888 -1.9404411 2.0239046 15
-9.9800396 -2.4883068 1.524948 68
-3.2816737 -0.8176077 0.23010182 89
-0.03049729 -0.0070743691 1.9941976 55
-0.30723122 -0.074801251 2.0107021 38
-0.4018954 -0.098826453 2.0131991 95
-0.48413342 -0.11938652 1.6403083 38
-0.69334155 -0.17108966 1.7419736 97
-1.0260649 -0.25336865 2.0033376 85
-1.3393054 -0.33071113 2.0987501 31
-1.5642896 -0.38626146 2.0050688 76
-0.1220567 -0.028507626 2.0010643 55
-0.21528998 -0.049118366 2.0132346 103
-0.48714572 -0.11914284 1.9670423 39
-0.49200401 -0.12050484 1.4317083 52
-0.91108197 -0.22346194 2.0026236 93
-1.1490697 -0.28182662 2.0054085 89
-1.4135062 -0.34667796 2.00125 35
-1.7264454 -0.42342481 2.0053556 54
-1.9076648 -0.47316754 2.0112567 42
-2.322881 -0.57615131 2.011452 31
-2.8593981 -0.70869428 2.0160377 24
-3.5618834 -0.88279957 2.0066421 64
-4.6177649 -1.1436396 2.0103827 31
-6.3289542 -1.5662609 2.0051391 32
-9.7418423 -2.4108653 1.9968151 98
-9.5429497 -2.3598771 0.97374958 45
-2.1136262 -0.52111804 2.0193572 37
-2.5574777 -0.63007581 2.0014381 73
-3.1873479 -0.78525048 2.0138493 67
-4.0422506 -0.99511945 2.0118899 34
-5.3429379 -1.3143322 2.0030696 46
-7.7836151 -1.9132829 2.0239046 14
-9.9838552 -2.4522736 1.5242581 72
-3.2942116 -0.8085292 0.2305049 88
-0.030564468 -0.0069769872 1.9991974 58
-0.30749047 -0.073728353 2.0107021 39
-0.40223792 -0.097422972 2.0131991 95
-0.4845472 -0.11769584 1.6403083 38
-0.69583297 -0.16912979 1.7465762 97
-1.0269431 -0.24978547 2.0033376 83
-1.3404516 -0.32603407 2.0987501 31
-1.5625132 -0.38004109 2.0012317 76
-0.12243778 -0.028145792 2.0060561 56
-0.21546014 -0.048366562 2.0132346 103
-0.48633581 -0.11714717 1.9622031 39
-0.49242166 -0.11878669 1.4317083 52
-0.91185641 -0.22028032 2.0026236 92
-1.1500463 -0.27781391 2.0054085 89
-1.4147077 -0.3417418 2.00125 35
-1.727913 -0.4173958 2.0053556 78
-1.9058404 -0.4656592 2.0077524 46
-2.324878 -0.56803942 2.011452 31
-2.8740404 -0.701684 2.0242622 22
-3.5649433 -0.87036085 2.0066421 64
-4.6172252 -1.126415 2.0085096 31
-6.334383 -1.5441592 2.0051391 32
-9.7501974 -2.3768454 1.9968151 100
-9.5462904 -2.3253729 0.97330338 45
-2.1154323 -0.5137369 2.0193572 37
-2.5596619 -0.62114471 2.0014381 71
-3.1900694 -0.77411979 2.0138493 67
-4.0412898 -0.97993392 2.0097921 35
-5.3520832 -1.296786 2.0047126 47
-7.790246 -1.8861014 2.0239046 15
-9.9875412 -2.4162438 1.5235683 75
-3.4281275 -0.82872087 0.23594624 8
-0.030588638 -0.0068702549 1.9991974 56
-0.30774593 -0.07265456 2.0107021 39
-0.40257558 -0.096018299 2.0131991 95
-0.48350254 -0.11565635 1.6355366 38
-0.69641906 -0.16669984 1.7465762 97
-1.0278088 -0.24619924 2.0033376 83
-1.3415813 -0.32135305 2.0987501 30
-1.5638303 -0.37458459 2.0012317 76
-0.12253528 -0.027718233 2.0060561 56
-0.21562764 -0.047614168 2.0132346 103
-0.48674172 -0.11544883 1.9622031 39
-0.49283329 -0.1170671 1.4317083 52
-0.91261977 -0.217096 2.0026236 93
-1.1510092 -0.27379781 2.0054085 87
-1.415892 -0.33680147 2.00125 35
-1.7293595 -0.41136172 2.0053556 83
-1.9074543 -0.45900375 2.0077524 42
-2.3268466 -0.55992067 2.011452 31
-2.8886693 -0.69458014 2.0324864 19
-3.5679598 -0.85791165 2.0066421 63
-4.621129 -1.1102909 2.0085096 27
-6.3397341 -1.5220386 2.0051391 34
-9.7536592 -2.3416495 1.9958825 101
-9.5446653 -2.2897129 0.97241104 45
-2.1172128 -0.5063495 2.0193572 37
-2.5618143 -0.61220598 2.0014381 73
-3.1927524 -0.76297957 2.0138493 67
-4.0446854 -0.96582115 2.0097921 37
-5.3565774 -1.278096 2.0047126 46
-7.7967825 -1.8588969 2.0239046 16
-9.9910965 -2.3802183 1.5228784 74
-3.571943 -0.85030103 0.24179062 8
-0.030569699 -0.00675462 1.9941976 56
-0.3079977 -0.071579881 2.0107021 43
-0.40290827 -0.094612479 2.0131991 93
-0.48390332 -0.1139679 1.6355366 38
-0.68748879 -0.16202731 1.7235636 97
-1.028662 -0.24261001 2.0033376 83
-1.342695 -0.31666809 2.0987501 30
-1.5651283 -0.36912352 2.0012317 76
-0.12262653 -0.027311739 2.0060561 56
-0.21578434 -0.046898864 2.0132346 104
-0.48712188 -0.1138341 1.9622031 39
-0.49321878 -0.11543216 1.4317083 52
-0.9133721 -0.21390904 2.0026236 93
-1.151958 -0.26977837 2.0054085 89
-1.4170591 -0.33185703 2.00125 36
-1.7307142 -0.40562469 2.0053556 85
-1.9055747 -0.45152044 2.0042477 23
-2.3325751 -0.55269253 2.0145898 31
-2.9073517 -0.68834597 2.0434525 18
-3.5709329 -0.84545189 2.0066421 63
-4.6202745 -1.0938926 2.0066366 26
-6.3447466 -1.501007 2.0051391 33
-9.7569933 -2.3064585 1.9949498 102
-9.5477524 -2.2552371 0.97196484 45
-2.1153321 -0.49810001 2.0160325 37
-2.5639358 -0.60325992 2.0014381 73
-3.1952651 -0.75238788 2.0138493 65
-4.0478663 -0.95240325 2.0097921 39
-5.3607864 -1.2603257 2.0047126 46
-7.798172 -1.83192 2.0227323 17
-9.9892921 -2.3448102 1.5214988 76
-3.8617153 -0.90576011 0.25368094 10
-0.030591931 -0.0066532101 1.9941976 58
-0.30747589 -0.070384935 2.0057628 50
-0.40222779 -0.093046464 2.0083039 93
-0.48282364 -0.1120251 1.6307648 38
-0.66708887 -0.1548868 1.6729357 96
-1.0294608 -0.23919751 2.0033376 83
-1.3437377 -0.31221381 2.0987501 30
-1.5694665 -0.36465684 2.0050688 76
-0.12271642 -0.026904944 2.0060561 58
-0.21541643 -0.046072029 2.0082631 105
-0.48749673 -0.11221812 1.9622031 39
-0.49359885 -0.11379595 1.4317083 50
-0.91407633 -0.21087901 2.0026236 93
-1.1528462 -0.26595685 2.0054085 89
-1.4181517 -0.32715607 2.00125 36
-1.7320497 -0.39988321 2.0053556 85
-1.9070615 -0.44519886 2.0042477 23
-2.3343952 -0.54495442 2.0145898 31
-2.9259069 -0.68250048 2.0544183 16
-3.5737166 -0.83360559 2.0066421 62
-4.6238766 -1.0785652 2.0066366 26
-6.3496895 -1.4799588 2.0051391 32
-9.7502356 -2.2707481 1.9921521 102
-9.5454769 -2.2213054 0.97107238 45
-2.1169722 -0.49108261 2.0160325 37
-2.5659223 -0.59475428 2.0014381 73
-3.1977425 -0.74178785 2.0138493 65
-4.051002 -0.9389748 2.0097921 40
-5.3649359 -1.2425418 2.0047126 44
-7.7947335 -1.8038586 2.0203876 22
-9.9921894 -2.3105562 1.5208091 78
-4.0594058 -0.93793684 0.26174217 24
-0.030616112 -0.0065410407 1.9941976 58
-0.30773184 -0.069257498 2.0057628 52
-0.40256611 -0.091571607 2.0083039 93
-0.48323098 -0.11025471 1.6307648 37
-0.65051019 -0.14852734 1.6315131 95
-1.0303305 -0.23542275 2.0033376 83
-1.3448731 -0.30728668 2.0987501 29
-1.5707926 -0.35890204 2.0050688 78
-0.12253564 -0.0263731 2.0010643 55
-0.21559176 -0.045244552 2.0082631 105
-0.48669714 -0.11006805 1.957364 39
-0.49403217 -0.11189983 1.4317083 50
-0.91487932 -0.20736766 2.0026236 93
-1.1538589 -0.26152828 2.0054085 89
-1.4193975 -0.32170835 2.00125 37
-1.733641 -0.39292711 2.0053556 85
-1.9086804 -0.43820614 2.0042477 27
-2.3363767 -0.53639477 2.0145898 31
-2.9406154 -0.67457676 2.0626428 16
-3.5767481 -0.82050169 2.0066421 62
-4.6234651 -1.0597672 2.0047636 28
-6.3553252 -1.4555669 2.0051391 32
-9.739728 -2.22891 1.9884216 104
-9.5296621 -2.1790867 0.96884137 46
-2.1188421 -0.48295042 2.0160325 40
-2.5721281 -0.58579499 2.0043812 73
-3.2006943 -0.72894531 2.0138493 65
-4.054739 -0.92270553 2.0097921 45
-5.3698807 -1.2209957 2.0047126 44
-7.7924323 -1.7704003 2.018043 25
-9.9961586 -2.2710748 1.5201193 80
-4.072721 -0.924555 0.26214525 46
-0.030637633 -0.0064394781 1.9941976 56
-0.30795977 -0.068236649 2.0057628 59
-0.40286756 -0.090236142 2.0083039 93
-0.48213676 -0.10832432 1.6259931 37
-0.63193834 -0.1420843 1.5854878 86
-1.0311056 -0.23200475 2.0033376 83
-1.3458847 -0.30282521 2.0987501 29
-1.571974 -0.35369113 2.0050688 78
-0.12261789 -0.025988014 2.0010643 55
-0.21573281 -0.04456703 2.0082631 107
-0.48704052 -0.10853851 1.957364 39
-0.49438128 -0.11034723 1.4317083 50
-0.91552633 -0.20449246 2.0026236 93
-1.1546749 -0.25790209 2.0054085 87
-1.4204011 -0.31724763 2.00125 37
-1.7347991 -0.38778156 2.0053556 85
-1.9101231 -0.43187433 2.0042477 38
-2.3381426 -0.52864414 2.0145898 31
-2.959151 -0.66850728 2.0736086 16
-3.5794492 -0.80863625 2.0066421 56
-4.6267719 -1.0452369 2.0047636 28
-6.3598666 -1.4355938 2.0051391 33
-9.7323065 -2.1950583 1.9856236 98
-9.5170288 -2.1447582 0.96705645 47
-2.1167057 -0.47547311 2.0127075 50
-2.5739555 -0.57771158 2.0043812 73
-3.2028432 -0.71944553 2.0138493 67
-4.0574584 -0.91067082 2.0097921 48
-5.3734798 -1.2050575 2.0047126 45
-7.7929077 -1.7462091 2.0168707 26
-9.9935789 -2.2374959 1.5187396 66
-4.0902319 -0.91502762 0.26274985 93
-0.030659925 -0.0063324934 1.9941976 56
-0.3081961 -0.067161255 2.0057628 62
-0.40318009 -0.088829324 2.0083039 93
-0.48251191 -0.10664068 1.6259931 38
-0.61526233 -0.13608091 1.5440651 82
-1.0319091 -0.22840412 2.0033376 83
-1.3469335 -0.29812536 2.0987501 29
-1.573199 -0.34820175 2.0050688 76
-0.12271232 -0.025538422 2.0010643 55
-0.21589473 -0.043776032 2.0082631 108
-0.48743504 -0.10675269 1.957364 39
-0.4930968 -0.10816482 1.4270155 50
-0.91623449 -0.20129544 2.0026236 93
-1.155568 -0.25386989 2.0054085 87
-1.4214998 -0.31228754 2.00125 39
-1.7362088 -0.38142061 2.0053556 85
-1.9116189 -0.42520413 2.0042477 52
-2.3399737 -0.52047926 2.0145898 31
-2.96963 -0.65998811 2.0790915 16
-3.5822499 -0.79613668 2.0066421 54
-4.6305714 -1.0282719 2.0047636 29
-6.3650856 -1.4122741 2.0051391 33
-9.7111359 -2.1546886 1.9800279 58
-9.4855614 -2.1029017 0.96348679 24
-2.1183524 -0.4680815 2.0127075 46
-2.5759563 -0.56872326 2.0043812 73
-3.2054584 -0.70770168 2.0138493 67
-4.0607691 -0.89579338 2.0097921 49
-5.3778605 -1.1853547 2.0047126 40
-7.7945089 -1.7165897 2.0156984 28
-9.9968758 -2.1997881 1.5180497 66
-4.0789199 -0.89681166 0.26214525 94
-0.030681845 -0.0062254318 1.9941976 56
-0.30842865 -0.066085041 2.0057628 68
-0.40348771 -0.087421425 2.0083039 93
-0.48288122 -0.10495576 1.6259931 38
-0.59855241 -0.13019572 1.5026424 69
-1.0327002 -0.22480068 2.0033376 83
-1.347966 -0.29342186 2.0987501 28
-1.574405 -0.34270814 2.0050688 76
-0.1230845 -0.025167452 2.0060561 55
-0.21656999 -0.043125764 2.0132346 108
-0.48780474 -0.10505057 1.957364 39
-0.49347132 -0.10644293 1.4270155 50
-0.91693163 -0.19809596 2.0026236 93
-1.1564472 -0.24983469 2.0054085 87
-1.4225813 -0.30732369 2.00125 39
-1.7375296 -0.37535778 2.0053556 86
-1.9130915 -0.41852874 2.0042477 75
-2.3417761 -0.51230806 2.0145898 31
-2.9841707 -0.6522969 2.087316 17
-3.5850074 -0.78362739 2.0066421 62
-4.6341329 -1.0121019 2.0047636 28
-6.3746638 -1.39107 2.0065484 32
-9.7137985 -2.11973 1.9790952 58
-9.4928427 -2.069778 0.96348679 18
-2.1163242 -0.45989123 2.0093827 21
-2.5779259 -0.55972803 2.0043812 71
-3.2121222 -0.69742292 2.0163815 67
-4.0638714 -0.88161319 2.0097921 52
-5.3819656 -1.1665751 2.0047126 16
-7.7957029 -1.6883423 2.0145259 30
-10.004494 -2.1648791 1.5180497 83
-4.0869083 -0.88362384 0.2623468 95
-0.030703384 -0.0061182939 1.9941976 55
-0.30865747 -0.065008022 2.0057628 71
-0.40379041 -0.086012453 2.0083039 95
-0.48324466 -0.10326955 1.6259931 38
-0.59327179 -0.12688002 1.4888349 69
-1.0334785 -0.22119452 2.0033376 83
-1.348982 -0.2887148 2.0987501 28
-1.5755916 -0.33721036 2.0050688 78
-0.1231716 -0.024737654 2.0060561 56
-0.2167192 -0.042369533 2.0132346 108
-0.48693791 -0.10308674 1.9525248 39
-0.49383992 -0.10471975 1.4270155 50
-0.9176175 -0.19489406 2.0026236 93
-1.1573122 -0.24579643 2.0054085 87
-1.4236455 -0.30235609 2.00125 42
-1.7388293 -0.36929041 2.0053556 86
-1.9145408 -0.41184825 2.0042477 77
-2.3435502 -0.5041306 2.0145898 32
-2.9905176 -0.64275485 2.0900574 17
-3.5877209 -0.77110863 2.0066421 62
-4.6376371 -0.99591964 2.0047636 28
-6.3794804 -1.3688099 2.0065484 32
-9.7403507 -2.0899317 1.9828259 102
-9.5194883 -2.0408049 0.96527165 47
-2.1179166 -0.45250109 2.0093827 21
-2.579864 -0.55072594 2.0043812 71
-3.2145371 -0.68620628 2.0163815 67
-4.0669236 -0.86742222 2.0097921 53
-5.3860049 -1.1477815 2.0047126 16
-7.7967944 -1.6601077 2.0133536 30
-10.002301 -2.1278825 1.5166701 83
-4.0850816 -0.86831385 0.26214525 90
-0.030724555 -0.0060110819 1.9941976 55
-0.30812159 -0.063772909 2.0008237 71
-0.4040882 -0.084602438 2.0083039 93
-0.4836022 -0.10158208 1.6259931 38
-0.5879755 -0.12360279 1.4750273 67
-1.0342443 -0.21758565 2.0033376 85
-1.3499815 -0.28400421 2.0987501 28
-1.5767591 -0.33170843 2.0050688 76
-0.1232572 -0.024307553 2.0060561 56
-0.21686578 -0.041612782 2.0132346 108
-0.48729479 -0.10138638 1.9525248 39
-0.49420244 -0.10299528 1.4270155 50
-0.91829222 -0.1916898 2.0026236 92
-1.1581631 -0.24175516 2.0054085 87
-1.4246922 -0.2973848 2.00125 51
-1.7401078 -0.36321849 2.0053556 85
-1.9159667 -0.40516278 2.0042477 75
-2.3414869 -0.49514166 2.011452 33
-3.0009251 -0.63404083 2.0955403 17
-3.5947251 -0.75949633 2.0089602 62
-4.6365495 -0.97876763 2.0028906 30
-6.3842196 -1.3465331 2.0065484 32
-9.7523928 -2.0569327 1.9837584 102
-9.5363007 -2.0096169 0.96616405 47
-2.1194832 -0.4451054 2.0093827 25
-2.5817707 -0.54171723 2.0043812 73
-3.2169127 -0.6749813 2.0163815 67
-4.0743685 -0.85415184 2.0118899 55
-5.3899789 -1.1289738 2.0047126 6
-7.7977843 -1.6318862 2.0121813 31
-10.00482 -2.0919416 1.5159802 83
-4.1321006 -0.86324376 0.26395905 11
-0.030745354 -0.0059037972 1.9941976 55
-0.30834234 -0.062696971 2.0008237 73
-0.40438104 -0.083191387 2.0083039 93
-0.48395383 -0.099893376 1.6259931 38
-0.58840334 -0.12154962 1.4750273 67
-1.0326513 -0.21348912 1.9989488 83
-1.3509647 -0.27929017 2.0987501 26
-1.5779073 -0.32620251 2.0050688 78
-0.1233413 -0.023877157 2.0060561 55
-0.21700972 -0.040855527 2.0132346 108
-0.48641336 -0.099432945 1.9476855 39
-0.49455893 -0.10126957 1.4270155 50
-0.91895568 -0.18848318 2.0026236 93
-1.1589999 -0.23771091 2.0054085 87
-1.4257215 -0.29240987 2.00125 59
-1.7413651 -0.35714215 2.0053556 86
-1.9173694 -0.39847228 2.0042477 73
-2.3393896 -0.48617321 2.0083144 38
-3.0072143 -0.62441194 2.0982819 17
-3.5973547 -0.74694371 2.0089602 62
-4.6399379 -0.96257704 2.0028906 32
-6.3888812 -1.3242396 2.0065484 31
-9.7643242 -2.023875 1.9846911 101
-9.55301 -1.9783366 0.96705645 48
-2.117367 -0.43694964 2.006058 38
-2.5836458 -0.53270185 2.0043812 73
-3.2192492 -0.66374803 2.0163815 67
-4.0773253 -0.83992445 2.0118899 55
-5.3985119 -1.1111045 2.006355 3
-7.8034334 -1.6046567 2.0121813 31
-10.007212 -2.0560091 1.5152906 83
nan nan nan 0
-0.030765772 -0.0057964399 1.9941976 55
-0.3085593 -0.061620273 2.0008237 74
-0.40466896 -0.081779331 2.0083039 93
-0.48429954 -0.098203443 1.6259931 38
-0.58882403 -0.11949497 1.4750273 66
-1.0333903 -0.20988318 1.9989488 81
-1.3519313 -0.2745727 2.0987501 26
-1.5790364 -0.32069263 2.0050688 76
-0.1234239 -0.023446472 2.0060561 56
-0.217151 -0.040097773 2.0132346 108
-0.48675752 -0.097734436 1.9476855 39
-0.49660122 -0.099882819 1.4317083 50
-0.91960806 -0.18527429 2.0026236 92
-1.1598227 -0.23366381 2.0054085 87
-1.4237791 -0.28683621 1.9972607 65
-1.7426012 -0.35106152 2.0053556 86
-1.9187486 -0.39177701 2.0042477 73
-2.3372583 -0.47722548 2.0051763 44
-3.0093756 -0.61391097 2.0982819 17
-3.5999398 -0.73438209 2.0089602 64
-4.6387272 -0.94544894 2.0010173 33
-6.3934646 -1.3019302 2.0065484 31
-9.7713289 -1.9897788 1.9846911 101
-9.5598583 -1.9449784 0.96705645 47
-2.1188791 -0.42955595 2.006058 58
-2.5854897 -0.52368003 2.0043812 71
-3.2215464 -0.65250671 2.0163815 67
-4.0802321 -0.82568681 2.0118899 54
-5.4023571 -1.0922533 2.006355 3
-7.8042226 -1.5764457 2.0110092 30
-10.009474 -2.0200853 1.5146008 85
nan nan nan 0
-0.030785818 -0.0056890119 1.9941976 55
-0.3087725 -0.060542829 2.0008237 74
-0.4059507 -0.080564387 2.0131991 91
-0.48463941 -0.09651234 1.6259931 38
-0.58923757 -0.11743886 1.4750273 66
-1.0341165 -0.20627469 1.9989488 83
-1.3528814 -0.26985192 2.0987501 28
-1.5801462 -0.31517878 2.0050688 74
-0.12322024 -0.02296293 2.0010643 60
-0.21728964 -0.039339531 2.0132346 108
-0.48709571 -0.096034743 1.9476855 39
-0.49694687 -0.098148748 1.4317083 52
-0.92024922 -0.18206312 2.0026236 93
-1.1580727 -0.22910772 2.0011425 87
-1.4247715 -0.28186455 1.9972607 70
-1.743816 -0.34497654 2.0053556 85
-1.9201045 -0.38507694 2.0042477 73
-2.3350933 -0.46829858 2.0020387 37
-3.0156 -0.60422397 2.1010232 17
-3.6024814 -0.72181147 2.0089602 64
-4.6419988 -0.92925102 2.0010173 35
-6.3979707 -1.2796049 2.0065484 31
-9.7685814 -1.9537315 1.9828259 103
-9.5568228 -1.9096446 0.96616405 47
-2.1203659 -0.42215711 2.006058 75
-2.587302 -0.51465178 2.0043812 71
-3.2238047 -0.64125746 2.0163815 65
-4.0830894 -0.81143904 2.0118899 54
-5.4061375 -1.0733888 2.006355 3
-7.8096786 -1.5491942 2.0110092 31
-10.011605 -1.9841706 1.5139109 85
-7.2676177 -1.4390303 0.39253575 10
-0.030805489 -0.005581514 1.9941976 51
-0.30898196 -0.059464637 2.0008237 74
-0.40622947 -0.079146877 2.0131991 89
-0.48497334 -0.09482003 1.6259931 38
-0.59156114 -0.11575644 1.4796298 67
-1.0348303 -0.20266372 1.9989488 83
-1.3538152 -0.26512787 2.0987501 28
-1.5812367 -0.30966112 2.0050688 74
-0.12329964 -0.02253267 2.0010643 58
-0.21742564 -0.038580805 2.0132346 108
-0.48742795 -0.09433388 1.9476855 39
-0.49728644 -0.096413486 1.4317083 54
-0.92087913 -0.17884976 2.0026236 93
-1.1588655 -0.22506391 2.0011425 89
-1.4257469 -0.27688947 1.9972607 74
-1.7450095 -0.33888739 2.0053556 85
-1.9214369 -0.37837219 2.0042477 73
-2.3367138 -0.46014473 2.0020387 8
-3.0176907 -0.59369385 2.1010232 17
-3.604979 -0.70923209 2.0089602 62
-4.6406655 -0.9121477 1.9991444 37
-6.4071054 -1.2581885 2.0079575 31
-9.7705221 -1.9186743 1.9818932 102
-9.5683165 -1.8772323 0.96661025 48
-2.1218264 -0.41475305 2.006058 75
-2.5890827 -0.50561726 2.0043812 71
-3.2260234 -0.63000035 2.0163815 67
-4.0903516 -0.79805064 2.013988 57
-5.4098511 -1.0545114 2.006355 3
-7.8150387 -1.5219241 2.0110092 30
-10.01361 -1.9482658 1.513221 85
-7.2725964 -1.4136527 0.39253575 6
-0.030824784 -0.0054739495 1.9941976 51
-0.30918762 -0.05838573 2.0008237 81
-0.40650326 -0.077728383 2.0131991 89
-0.48383453 -0.092845179 1.6212213 38
-0.59963602 -0.11516449 1.4980398 69
-1.0355315 -0.19905023 1.9989488 83
-1.3547325 -0.26040053 2.0987501 28
-1.5823082 -0.30413967 2.0050688 76
-0.12337754 -0.022102138 2.0010643 56
-0.21755898 -0.037821617 2.0132346 108
-0.48775426 -0.092631869 1.9476855 39
-0.49761996 -0.094677046 1.4317083 50
-0.92149782 -0.17563419 2.0026236 93
-1.159644 -0.22101733 2.0011425 87
-1.4267046 -0.271911 1.9972607 78
-1.7461817 -0.3327941 2.0053556 85
-1.9227459 -0.37166283 2.0042477 75
-2.3344831 -0.45124644 1.9989008 8
-3.0197446 -0.58315653 2.1010232 17
-3.6074328 -0.69664401 2.0089602 62
-4.6438212 -0.89594322 1.9991444 40
-6.4114585 -1.2358159 2.0079575 32
-9.7675123 -1.8826977 1.9800279 101
-9.5552492 -1.8400545 0.96482545 47
-2.1232615 -0.40734395 2.006058 75
-2.5948017 -0.49733749 2.0073245 71
-3.2282028 -0.61873561 2.0163815 67
-4.0931125 -0.78376776 2.013988 58
-5.4134989 -1.035621 2.006355 4
-7.8203034 -1.4946351 2.0110092 30
-10.015485 -1.912371 1.5125313 90
-7.2627645 -1.3854496 0.39193115 6
-0.030843705 -0.005366317 1.9941976 51
-0.30938959 -0.057306107 2.0008237 86
-0.40677211 -0.076308943 2.0131991 89
-0.48415571 -0.091155723 1.6212213 38
-0.61155361 -0.115241 1.525655 77
-1.03622 -0.19543435 1.9989488 81
-1.3556333 -0.25567004 2.0987501 27
-1.5833601 -0.29861456 2.0050688 76
-0.12345394 -0.021671334 2.0010643 58
-0.21768968 -0.037061963 2.0132346 109
-0.48807463 -0.090928718 1.9476855 39
-0.49794739 -0.092939451 1.4317083 50
-0.92210525 -0.17241649 2.0026236 93
-1.1604085 -0.21696809 2.0011425 87
-1.4276452 -0.26692921 1.9972607 80
-1.7473328 -0.32669678 2.0053556 85
-1.9205281 -0.36428434 2.0007432 69
-2.3360441 -0.44309485 1.9989008 31
-3.0217619 -0.57261205 2.1010232 17
-3.6141951 -0.68487221 2.0112782 62
-4.6469207 -0.87972778 1.9991444 49
-6.4157333 -1.2134283 2.0079575 32
-9.7691975 -1.8476783 1.9790952 101
-9.5469341 -1.8039153 0.96348679 35
-2.1246703 -0.39992991 2.006058 75
-2.5965219 -0.48827693 2.0073245 66
-3.2303431 -0.6074633 2.0163815 65
-4.0958233 -0.7694754 2.013988 57
-5.4170809 -1.0167181 2.006355 5
-7.8206954 -1.4664322 2.0098369 31
-10.017232 -1.8764868 1.5118414 87
-7.0760398 -1.324248 0.38407147 3
-0.030862249 -0.0052586198 1.9941976 53
-0.30958772 -0.056225788 2.0008237 90
-0.40703601 -0.07488858 2.0131991 93
-0.48447093 -0.089465141 1.6212213 38
-0.62155777 -0.11488067 1.5486677 83
-1.0368958 -0.19181608 1.9989488 81
-1.3565173 -0.25093645 2.0987501 27
-1.5843928 -0.29308578 2.0050688 76
-0.12352884 -0.021240268 2.0010643 62
-0.21781774 -0.036301859 2.0132346 108
-0.48838905 -0.089224458 1.9476855 39
-0.49826878 -0.091200724 1.4317083 50
-0.92270148 -0.1691967 2.0026236 93
-1.1637241 -0.21338654 2.0054085 87
-1.4315326 -0.26248768 2.00125 80
-1.7484624 -0.32059547 2.0053556 86
-1.9217877 -0.35757825 2.0007432 69
-2.341404 -0.43564996 2.0020387 39
-3.0237424 -0.56206077 2.1010232 17
-3.6165638 -0.67225218 2.0112782 62
-4.6499629 -0.86350167 1.9991444 46
-6.41993 -1.1910257 2.0079575 32
-9.7707577 -1.8126701 1.9781626 101
nan nan nan 0
-2.1260531 -0.39251101 2.006058 75
-2.6021852 -0.47994351 2.0102675 44
-3.2324438 -0.5961836 2.0163815 65
-4.0984845 -0.75517362 2.013988 57
-5.4252419 -0.9986577 2.0079978 6
-7.825767 -1.439124 2.0098369 30
-10.01885 -1.8406138 1.5111516 88
-5.0757647 -0.93158001 0.30184686 5
-0.030880416 -0.0051508588 1.9941976 51
-0.30978209 -0.055144779 2.0008237 90
-0.4072949 -0.073467314 2.0131991 91
-0.48478028 -0.08777348 1.6212213 38
-0.63733387 -0.11549683 1.5854878 84
-1.037559 -0.18819547 1.9989488 81
-1.357385 -0.24619977 2.0987501 27
-1.5854062 -0.28755343 2.0050688 76
-0.12360223 -0.020808943 2.0010643 62
-0.21794312 -0.035541311 2.0132346 108
-0.48745939 -0.087297469 1.9428463 39
-0.49858409 -0.089460887 1.4317083 50
-0.92328644 -0.16597484 2.0026236 92
-1.1644617 -0.20932306 2.0054085 87
-1.4324402 -0.25748911 2.00125 82
-1.749571 -0.3144902 2.0053556 86
-1.9230243 -0.35086775 2.0007432 73
-2.3429105 -0.42747426 2.0020387 64
-3.0256858 -0.55150241 2.1010232 18
-3.6188881 -0.65962392 2.0112782 62
-4.6529484 -0.84726495 1.9991444 46
-6.4240479 -1.1686088 2.0079575 31
-9.772193 -1.7776736 1.97723 101
nan nan nan 0
-2.1274104 -0.38508728 2.006058 77
-2.6038446 -0.47085726 2.0102675 18
-3.2345049 -0.58489662 2.0163815 65
-4.1010957 -0.74086267 2.013988 57
-5.4286942 -0.97971398 2.0079978 7
-7.8259587 -1.4109358 2.0086646 29
-10.02034 -1.8047528 1.5104618 88
-5.0494828 -0.90854836 0.30063766 66
-0.03089821 -0.0050430344 1.9941976 51
-0.3099727 -0.054063104 2.0008237 92
-0.40754887 -0.072045133 2.0131991 89
-0.4850837 -0.086080745 1.6212213 38
-0.66466296 -0.11805381 1.6499232 92
-1.0382097 -0.18457256 1.9989488 81
-1.3582362 -0.24146011 2.0987501 28
-1.5864003 -0.28201756 2.0050688 76
-0.12367411 -0.020377364 2.0010643 60
-0.21806584 -0.034780327 2.0132346 109
-0.48776117 -0.085595384 1.9428463 39
-0.49889335 -0.087719955 1.4317083 50
-0.92386013 -0.16275094 2.0026236 92
-1.1651853 -0.20525706 2.0054085 85
-1.4333302 -0.25248739 2.00125 82
-1.750658 -0.30838117 2.0053556 86
-1.9242374 -0.34415302 2.0007432 73
-2.3482201 -0.41997871 2.0051763 64
-3.0234766 -0.54020208 2.0982819 19
-3.6255302 -0.64776683 2.0135961 62
-4.6558776 -0.83101797 1.9991444 46
-6.4328113 -1.1470196 2.0093668 31
-9.7735033 -1.7426894 1.9762975 101
nan nan nan 0
-2.1287415 -0.37765893 2.006058 77
-2.6054726 -0.46176526 2.0102675 18
-3.2365272 -0.57360256 2.0163815 65
-4.1036568 -0.72654265 2.013988 58
-5.4367318 -0.96158087 2.0096405 7
-7.8308358 -1.3836094 2.0086646 29
-10.016826 -1.7680427 1.5090822 88
-5.0526237 -0.89091682 0.30063766 74
-0.030915625 -0.0049351486 1.9941976 51
-0.31015953 -0.052980769 2.0008237 92
-0.40779787 -0.070622079 2.0131991 89
-0.48390976 -0.084131211 1.6164496 38
-0.69586688 -0.12109111 1.7235636 90
-1.0388477 -0.18094741 1.9989488 81
-1.3590708 -0.23671752 2.0987501 28
-1.5873752 -0.27647829 2.0050688 74
-0.12374449 -0.019945536 2.0010643 60
-0.21818595 -0.034018926 2.0132346 111
-0.48805699 -0.083892256 1.9428463 39
-0.4991965 -0.085977964 1.4317083 52
-0.92442262 -0.15952508 2.0026236 92
-1.1658946 -0.20118856 2.0054085 87
-1.4312328 -0.24697013 1.9972607 82
-1.7550648 -0.30284485 2.0090308 86
-1.925427 -0.33743408 2.0007432 73
-2.3496718 -0.41177931 2.0051763 66
-3.0212247 -0.52892375 2.0955403 21
-3.6277692 -0.63510746 2.0135961 60
-4.6633167 -0.81555951 2.0010173 48
-6.4367757 -1.124558 2.0093668 32
-9.7746878 -1.7077174 1.9753649 102
nan nan nan 0
-2.1300471 -0.37022591 2.006058 75
-2.6070688 -0.45266765 2.0102675 32
-3.2385099 -0.56230146 2.0163815 64
-4.1106396 -0.71298939 2.0160861 57
-5.4400549 -0.94259727 2.0096405 8
-7.835618 -1.3562664 2.0086646 29
-10.018057 -1.7322228 1.5083923 89
-5.0655489 -0.8749752 0.30104074 61
-0.030932661 -0.0048272032 1.9941976 51
-0.30957621 -0.051769819 1.9958843 92
-0.40804192 -0.069198176 2.0131991 91
-0.48420048 -0.082441531 1.6164496 37
-0.72709966 -0.12391193 1.7972039 83
-1.0394729 -0.17732005 1.9989488 81
-1.3598888 -0.23197204 2.0987501 28
-1.5883305 -0.27093562 2.0050688 74
-0.12381336 -0.019513465 2.0010643 62
-0.21830335 -0.033257108 2.0132346 111
-0.4871065 -0.081979431 1.9380071 39
-0.49949357 -0.084234916 1.4317083 50
-0.92497391 -0.15629728 2.0026236 93
-1.1665899 -0.19711761 2.0054085 85
-1.4320862 -0.2419727 1.9972607 82
-1.7561113 -0.29671669 2.0090308 86
-1.9265931 -0.33071104 2.0007432 73
-2.351095 -0.40357494 2.0051763 66
-3.0189314 -0.51766783 2.0927989 21
-3.6299639 -0.62244028 2.0135961 58
-4.6661353 -0.79927653 2.0010173 48
-6.4406624 -1.1020826 2.0093668 31
-9.7757473 -1.6727585 1.9744322 102
-10.028577 -1.7142193 1.0045382 52
-2.1313262 -0.36278841 2.006058 75
-2.6086326 -0.44356453 2.0102675 44
-3.2404525 -0.5509935 2.0163815 64
-4.1131034 -0.69863623 2.0160861 58
-5.4433122 -0.92360216 2.0096405 7
-7.8403049 -1.3289065 2.0086646 31
-10.019159 -1.696416 1.5077026 89
-5.0439429 -0.85312206 0.30003306 29
-0.030992545 -0.0047251731 1.9991974 51
-0.30975503 -0.050688878 1.9958843 93
-0.408281 -0.067773417 2.0131991 91
-0.4844853 -0.08075086 1.6164496 37
-0.75257921 -0.1255518 1.8570368 80
-1.0400856 -0.17369053 1.9989488 81
-1.3606902 -0.22722372 2.0987501 28
-1.5892665 -0.26538968 2.0050688 74
-0.12416698 -0.019124756 2.0060561 62
-0.21841811 -0.032494884 2.0132346 111
-0.48738968 -0.080278605 1.9380071 39
-0.50148726 -0.0827718 1.4364011 50
-0.92551386 -0.15306757 2.0026236 92
-1.1672709 -0.19304426 2.0054085 87
-1.4329221 -0.23697232 1.9972607 84
-1.7571363 -0.29058489 2.0090308 86
-1.9277358 -0.32398394 2.0007432 73
-2.3524892 -0.3953656 2.0051763 66
-3.0124726 -0.50574207 2.087316 39
-3.6321146 -0.60976553 2.0135961 48
-4.6734691 -0.78375053 2.0028906 51
-6.4492011 -1.0803864 2.0107758 31
-9.7766819 -1.637813 1.9734995 102
-10.034499 -1.6792027 1.0045382 58
-2.1325798 -0.3553465 2.006058 79
-2.6101651 -0.43445599 2.0102675 71
-3.2423563 -0.53967887 2.0163815 67
-4.1155171 -0.68427449 2.0160861 57
-5.4511619 -0.9053697 2.0112832 7
-7.8448958 -1.3015307 2.0086646 30
-10.020134 -1.6606225 1.5070127 89
-5.0173163 -0.83061427 0.29882386 3
-0.031008851 -0.00461696 1.9991974 51
-0.30993009 -0.049607318 1.9958843 93
-0.40851507 -0.066347837 2.0131991 91
-0.48476422 -0.079059198 1.6164496 38
-0.77807868 -0.12701528 1.9168695 79
-1.0406855 -0.17005889 1.9989488 81
-1.3614751 -0.22247265 2.0987501 29
-1.5901833 -0.25984049 2.0050688 74
-0.12423299 -0.018691216 2.0060561 64
-0.21853021 -0.031732265 2.0132346 110
-0.48766693 -0.078576811 1.9380071 39
-0.50177306 -0.081020787 1.4364011 56
-0.9260425 -0.14983599 2.0026236 92
-1.1679376 -0.18896854 2.0054085 87
-1.4337406 -0.23196903 1.9972607 84
-1.7547932 -0.2839081 2.0053556 86
-1.9288549 -0.31725293 2.0007432 73
-2.3538551 -0.38715151 2.0051763 66
-3.0100932 -0.49454558 2.0845745 73
-3.6342208 -0.59708339 2.0135961 48
-4.6761761 -0.76743233 2.0028906 53
-6.4529328 -1.0578678 2.0107758 31
-9.7774916 -1.6028812 1.972567 102
-10.040299 -1.6441654 1.0045382 35
-2.1338069 -0.34790024 2.006058 75
-2.6076765 -0.42469245 2.0073245 71
-3.2442203 -0.52835768 2.0163815 65
-4.1178799 -0.66990453 2.0160861 57
-5.4542885 -0.88633603 2.0112832 8
-7.8541889 -1.2749178 2.0098369 30
-10.020982 -1.624843 1.5063229 89
-7.2640953 -1.1765298 0.39052045 19
-0.031024776 -0.0045086909 1.9991974 51
-0.31010136 -0.048525162 1.9958843 92
-0.40874416 -0.064921454 2.0131991 93
-0.48503724 -0.077366568 1.6164496 38
-0.79202193 -0.12645432 1.9490871 79
-1.0412729 -0.1664252 1.9989488 81
-1.3622434 -0.21771885 2.0987501 29
-1.5879149 -0.25378218 2.0012317 74
-0.12429746 -0.018257448 2.0060561 64
-0.21863964 -0.030969258 2.0132346 109
-0.48793823 -0.076874055 1.9380071 39
-0.50205284 -0.079268768 1.4364011 56
-0.92655987 -0.14660259 2.0026236 93
-1.1685901 -0.18489051 2.0054085 85
-1.4345416 -0.22696292 1.9972607 84
-1.7557734 -0.27778101 2.0053556 86
-1.9334714 -0.31108451 2.0042477 73
-2.3551922 -0.37893265 2.0051763 66
-3.007673 -0.48337194 2.0818331 48
-3.6362832 -0.58439398 2.0135961 61
-4.6788263 -0.75110471 2.0028906 39
-6.4565864 -1.0353364 2.0107758 31
-9.7781763 -1.5679638 1.9716343 103
-10.036143 -1.607533 1.0036457 32
-2.1350086 -0.34044972 2.006058 75
-2.6091433 -0.41558737 2.0073245 71
-3.2460449 -0.51703 2.0163815 65
-4.1201935 -0.65552634 2.0160861 57
-5.4573493 -0.86729163 2.0112832 8
-7.8585911 -1.247494 2.0098369 29
-10.021702 -1.5890778 1.5056331 89
-7.2780266 -1.1527293 0.3909235 15
-0.031040326 -0.0044003669 1.9991974 51
-0.31026885 -0.047442414 1.9958843 93
-0.4089683 -0.063494273 2.0131991 95
-0.48530436 -0.075672999 1.6164496 38
-0.79824936 -0.1245926 1.9628948 81
-1.0442145 -0.16315931 2.0033376 83
-1.3629951 -0.21296242 2.0987501 29
-1.588791 -0.2482378 2.0012317 76
-0.12436044 -0.017823458 2.0060561 64
-0.21874642 -0.030205876 2.0132346 108
-0.48820359 -0.075170368 1.9380071 39
-0.50232649 -0.077515796 1.4364011 56
-0.92706597 -0.14336739 2.0026236 92
-1.1692284 -0.18081026 2.0054085 85
-1.4353251 -0.22195406 1.9972607 84
-1.7567325 -0.27165052 2.0053556 83
-1.9345456 -0.30433354 2.0042477 73
-2.3565006 -0.37070918 2.0051763 66
-3.0134726 -0.4735193 2.0845745 26
-3.6383009 -0.57169741 2.0135961 61
-4.6814198 -0.73476797 2.0028906 40
-6.4601607 -1.0127923 2.0107758 31
-9.778738 -1.5330611 1.9707017 101
-10.041694 -1.5724906 1.0036457 54
-2.136184 -0.33299506 2.006058 75
-2.6105778 -0.40647724 2.0073245 69
-3.2478299 -0.505696 2.0163815 55
-4.1224566 -0.64114022 2.0160861 56
-5.4650097 -0.84896147 2.0129259 8
-7.8677015 -1.2208 2.0110092 29
-10.027187 -1.554086 1.5056331 88
-7.2820063 -1.1273172 0.3909235 10
-0.031012196 -0.0042866184 1.9941976 51
-0.31043255 -0.046359077 1.9958843 95
-0.40918744 -0.06206632 2.0131991 93
-0.48556551 -0.073978513 1.6164496 38
-0.80640477 -0.12298344 1.9813049 82
-1.0447778 -0.15951331 2.0033376 83
-1.3637302 -0.20820339 2.0987501 29
-1.5896478 -0.24269037 2.0012317 76
-0.12413506 -0.017349651 2.0010643 64
-0.21885052 -0.029442126 2.0132346 108
-0.48846301 -0.073465765 1.9380071 39
-0.50088763 -0.07550472 1.4317083 52
-0.92756075 -0.14013046 2.0026236 92
-1.1698525 -0.17672777 2.0054085 87
-1.4360911 -0.21694249 1.9972607 82
-1.7576699 -0.2655167 2.0053556 83
-1.9355962 -0.29757887 2.0042477 73
-2.3577802 -0.36248121 2.0051763 66
-3.0192401 -0.46363211 2.087316 21
-3.6402743 -0.55899388 2.0135961 61
-4.6839557 -0.71842235 2.0028906 52
-6.468399 -0.99096256 2.0121851 31
-9.784029 -1.4989177 1.9707017 101
-10.042198 -1.5366756 1.0031995 54
-2.1373332 -0.32553637 2.006058 75
-2.6119809 -0.39736217 2.0073245 71
-3.2495754 -0.49435595 2.0163815 26
-4.12467 -0.6267463 2.0160861 57
-5.4679394 -0.82987988 2.0129259 8
-7.8719149 -1.1933292 2.0110092 28
-10.027655 -1.5183337 1.5049433 88
nan nan nan 0
-0.031026971 -0.0041783396 1.9941976 51
-0.3105925 -0.045275185 1.9958843 95
-0.4094016 -0.060637616 2.0131991 91
-0.48582083 -0.072283126 1.6164496 38
-0.80682915 -0.12016782 1.9813049 80
-1.0453281 -0.15586539 2.0033376 83
-1.3644487 -0.2034418 2.0987501 27
-1.5936562 -0.23761271 2.0050688 76
-0.12419486 -0.016916236 2.0010643 66
-0.21895196 -0.028678013 2.0132346 108
-0.48871651 -0.07176026 1.9380071 39
-0.5011481 -0.073755838 1.4317083 52
-0.92804432 -0.1368918 2.0026236 92
-1.1704621 -0.17264315 2.0054085 87
-1.4368396 -0.21192826 1.9972607 82
-1.758586 -0.25937968 2.0053556 86
-1.9366231 -0.29082057 2.0042477 75
-2.3590312 -0.35424882 2.0051763 66
-3.0249753 -0.45371038 2.0900574 19
-3.6422033 -0.5462836 2.0135961 62
-4.6864352 -0.70206791 2.0028906 53
-6.4718184 -0.96837759 2.0121851 31
-9.7746277 -1.4625753 1.967904 93
-10.037651 -1.5001403 1.0023072 61
-2.1384568 -0.31807369 2.006058 75
-2.6133518 -0.38824221 2.0073245 71
-3.251281 -0.48300979 2.0163815 16
-4.1268325 -0.61234468 2.0160861 55
-5.4754753 -0.81148046 2.0145686 8
-7.8808398 -1.1665554 2.0121813 28
-10.027994 -1.482597 1.5042534 88
-9.637311 -1.4231176 0.48665068 10
-0.031041365 -0.0040700096 1.9941976 49
-0.31074864 -0.044190742 1.9958843 95
-0.40961078 -0.059208162 2.0131991 91
-0.48459211 -0.070372291 1.6116779 38
-0.80917704 -0.11763174 1.9859076 81
-1.0458659 -0.15221556 2.0033376 83
-1.3651505 -0.19867775 2.0987501 27
-1.5944759 -0.23204838 2.0050688 74
-0.12425315 -0.01648261 2.0010643 66
-0.21905072 -0.027913556 2.0132346 107
-0.48771888 -0.069875568 1.9331679 39
-0.5014025 -0.072006054 1.4317083 52
-0.92851645 -0.13365149 2.0026236 92
-1.1710577 -0.16855644 2.0054085 87
-1.4375707 -0.20691147 1.9972607 82
-1.7594808 -0.25323951 2.0053556 85
-1.9376265 -0.28405872 2.0042477 75
-2.3602536 -0.34601209 2.0051763 66
-3.0306778 -0.44375426 2.0927989 19
-3.6397042 -0.53292471 2.0112782 62
-4.6888571 -0.68570495 2.0028906 54
-6.4751596 -0.94578087 2.0121851 32
-9.891469 -1.4447757 1.9893541 36
-10.037899 -1.4643744 1.0018609 62
-2.1395538 -0.31060717 2.006058 77
-2.6146913 -0.37911755 2.0073245 71
-3.2529473 -0.47165772 2.0163815 16
-4.1289444 -0.59793562 2.0160861 56
-5.4782743 -0.79236257 2.0145686 8
-7.8848643 -1.139039 2.0121813 28
-10.028208 -1.4468768 1.5035636 86
nan nan nan 0
-0.031055385 -0.0039616306 1.9941976 49
-0.31167063 -0.04321228 2.0008237 95
-0.40981495 -0.057777993 2.0131991 95
-0.48483485 -0.068680316 1.6116779 38
-0.811517 -0.11508071 1.99051 79
-1.0463908 -0.14856388 2.0033376 83
-1.3686216 -0.19430679 2.1028829 30
-1.5952761 -0.22648121 2.0050688 73
-0.12402269 -0.016012192 1.9960728 66
-0.21861689 -0.027083777 2.0082631 106
-0.48795983 -0.068172686 1.9331679 39
-0.50165081 -0.070255399 1.4317083 54
-0.92897731 -0.13040955 2.0026236 93
-1.1742216 -0.16483016 2.0096743 87
-1.4382842 -0.20189215 1.9972607 84
-1.760354 -0.24709621 2.0053556 85
-1.9386061 -0.27729338 2.0042477 75
-2.3614469 -0.33777118 2.0051763 66
-3.0363479 -0.4337638 2.0955403 19
-3.6371572 -0.51959008 2.0089602 60
-4.6912227 -0.66933352 2.0028906 54
-6.483171 -0.9238494 2.0135944 32
-9.9742622 -1.4213271 2.004276 36
-10.033089 -1.4279232 1.0009685 83
-2.1406252 -0.30313686 2.006058 75
-2.6200006 -0.37055427 2.0102675 71
-3.2545738 -0.46029997 2.0163815 40
-4.1310067 -0.58351922 2.0160861 58
-5.485683 -0.77389467 2.0162113 7
-7.888792 -1.1115088 2.0121813 27
-10.028293 -1.4111729 1.5028739 79
-9.6321688 -1.3537163 0.48604608 17
-0.031069025 -0.0038532028 1.9941976 49
-0.31181961 -0.042124081 2.0008237 95
-0.41001415 -0.056347121 2.0131991 93
-0.48507163 -0.066987507 1.6116779 38
-0.81191373 -0.1122473 1.99051 79
-1.046903 -0.1449104 2.0033376 83
-1.3692915 -0.18952823 2.1028829 30
-1.5960571 -0.22091128 2.0050688 73
-0.12407783 -0.015579174 1.9960728 66
-0.21871008 -0.026320498 2.0082631 106
-0.48819482 -0.066468976 1.9331679 39
