# .PCD v0.7 - Point Cloud Data file format
VERSION 0.7
FIELDS x y z intensity
SIZE 4 4 4 4
TYPE F F F F
COUNT 1 1 1 1
WIDTH 1408
HEIGHT 1
VIEWPOINT 0 0 0 1 0 0 0
POINTS 1408
DATA ascii
-5.7958531 3.6075974 2.0953276 13
-9.1372604 5.6874394 2.1348429 15
-7.1949639 4.4802089 0.85238057 14
nan nan nan 0
-2.2518389 1.4049139 2.0161538 24
-2.8106663 1.7535688 2.0315762 38
-3.6046808 2.2498276 2.051753 36
-4.8474274 3.0266531 2.0769906 24
-7.0825701 4.4239583 2.1047945 16
-7.1561708 4.4716678 1.2676467 30
-7.0405684 4.4011402 0.42860979 50
-0.026274074 0.017023645 1.9941976 69
-0.26591516 0.16821125 2.0008237 93
-0.3511315 0.22099116 2.0180943 89
-0.49299973 0.30983061 1.9075248 38
-0.49883446 0.31338245 1.447412 53
-0.8990804 0.56463307 2.012115 83
-1.1253585 0.70674521 2.0243571 81
-1.4350876 0.90126693 2.1048291 17
-0.1050514 0.067839682 1.9960728 88
-0.18399246 0.12016114 2.0032918 93
-0.43474051 0.27437347 2.0154345 95
-0.49268144 0.31071427 1.6381902 40
-0.56518161 0.35617116 1.4445202 43
-1.0097657 0.63636041 2.0224724 87
-1.249132 0.7872172 2.0291767 34
-1.5096124 0.95138037 2.0127058 66
-1.8861525 1.1817962 2.2670887 14
-2.0049655 1.2562438 1.9894875 79
-2.5031824 1.5690198 2.0215206 39
-3.169385 1.9866067 2.0437305 38
-4.1521912 2.6036515 2.0684466 19
-5.7669692 3.6176097 2.0896909 14
-9.1173525 5.7193003 2.1348429 15
-7.1708441 4.5000024 0.85148811 16
-1.7830364 1.1206597 1.9561851 33
-2.2503431 1.4149173 2.0190971 25
-2.8008783 1.7610743 2.0290439 38
-3.5968056 2.2623968 2.051753 35
-4.8408298 3.0460703 2.0786333 18
-7.0629706 4.4460645 2.1036222 14
-7.0818505 4.4596753 1.2579892 32
-7.0336156 4.431015 0.42901284 50
-0.02621449 0.017115254 1.9941976 69
-0.26532635 0.16913845 2.0008237 92
-0.35035798 0.22221549 2.0180943 89
-0.4919152 0.3115496 1.9075248 38
-0.49773753 0.3151218 1.447412 51
-0.89912832 0.56904924 2.0165036 83
-1.1228848 0.71066916 2.0243571 81
-1.4319328 0.90627086 2.1048291 20
-0.10481395 0.068205968 1.9960728 88
-0.18357189 0.12080266 2.0032918 93
-0.43378016 0.27588934 2.0154345 95
-0.49305028 0.31335786 1.6428828 39
-0.56393492 0.35814187 1.4445202 43
-1.0097396 0.64127946 2.0267382 89
-1.2438322 0.78995681 2.025187 38
-1.5062822 0.95664418 2.0127058 66
-1.9634321 1.2397823 2.3617113 17
-2.0005684 1.2632349 1.9894875 87
-2.4976904 1.5777479 2.0215206 46
-3.1586857 1.9952918 2.0414124 31
-4.1430779 2.6181293 2.0684466 13
-5.7502513 3.6351545 2.0882816 12
-9.1014843 5.753716 2.1357756 10
nan nan nan 0
-1.7980421 1.1388661 1.9761342 39
-2.2453904 1.4227638 2.0190971 24
-2.7983556 1.7731478 2.0315762 39
-3.5888863 2.2749379 2.051753 34
-4.8301678 3.0629492 2.0786333 16
-7.0474081 4.4706917 2.1036222 9
-7.0913281 4.5002899 1.2621281 11
-7.0476303 4.4742837 0.43042359 28
-0.026154587 0.017206658 1.9941976 69
-0.26473433 0.17006359 2.0008237 92
-0.34872228 0.22288869 2.0131991 93
-0.49208361 0.31406838 1.9122965 39
-0.49663451 0.31685734 1.447412 53
-0.89713651 0.57218426 2.0165036 83
-1.1203972 0.71458441 2.0243571 79
-1.4260577 0.90953976 2.1009922 25
-0.10457522 0.068571426 1.9960728 88
-0.1831491 0.12144271 2.0032918 93
-0.43281448 0.27740183 2.0154345 93
-0.49195346 0.31507701 1.6428828 40
-0.56268132 0.36010817 1.4445202 43
-1.0074949 0.64480025 2.0267382 89
-1.2410672 0.79429376 2.025187 46
-1.5029337 0.96189624 2.0127058 64
-1.8598037 1.1834477 2.2460613 19
-1.9961466 1.2702104 1.9894875 87
-2.4921679 1.5864569 2.0215206 43
-3.1517015 2.0063057 2.0414124 30
-4.1339135 2.6325755 2.0684466 9
-5.725389 3.6474712 2.084054 13
-9.0813446 5.7854505 2.1357756 24
nan nan nan 0
nan nan nan 0
-2.2438171 1.4327683 2.0220401 24
-2.7921493 1.7829051 2.0315762 38
-3.5847483 2.2898951 2.0538511 36
-4.8234262 3.082334 2.080276 10
-7.0276647 4.4926472 2.1024497 13
-10.250455 6.5554347 1.7870779 11
-7.0319691 4.498857 0.43042359 24
-0.026094366 0.017297849 1.9941976 69
-0.26413909 0.17098662 2.0008237 95
-0.34794211 0.2241046 2.0131991 93
-0.49224043 0.3165921 1.9170682 38
-0.49552542 0.318589 1.447412 53
-0.89513379 0.57531232 2.0165036 83
-1.1155287 0.71696943 2.0202241 79
-1.4201772 0.91277862 2.0971551 26
-0.10433523 0.068936035 1.9960728 88
-0.18316764 0.12237846 2.0082631 95
-0.43184352 0.27891091 2.0154345 93
-0.49230051 0.31772816 1.6475756 39
-0.56142092 0.36207011 1.4445202 42
-1.0052381 0.64831311 2.0267382 89
-1.238287 0.79862112 2.025187 67
-1.496718 0.96529925 2.0090308 66
-1.6665323 1.0686535 2.025275 23
-1.9917006 1.2771707 1.9894875 83
-2.4866149 1.5951467 2.0215206 40
-3.1446791 2.0172949 2.0414124 34
-4.1286006 2.6494932 2.0703199 8
-5.7126222 3.6674345 2.084054 11
-9.0652285 5.8197689 2.136708 15
-10.236718 6.5743752 1.183022 25
-1.3723298 0.88270587 1.5339293 6
-2.2354031 1.4384048 2.0190971 25
-2.7895341 1.7949736 2.0341086 39
-3.5767331 2.3023942 2.0538511 36
-4.8166075 3.1017089 2.0819185 10
-7.0119395 4.5171509 2.1024497 13
nan nan nan 0
-7.1673841 4.620831 0.43767866 30
-0.026033826 0.017388828 1.9941976 69
-0.26354063 0.17190762 2.0008237 93
-0.34715775 0.22531779 2.0131991 91
-0.49238566 0.31912079 1.92184 39
-0.49441031 0.32031673 1.447412 53
-0.89312011 0.57843339 2.0165036 83
-1.1130192 0.72085899 2.0202241 79
-1.4169823 0.91773039 2.0971551 26
-0.10409396 0.069299817 1.9960728 88
-0.18273936 0.12301709 2.0082631 93
-0.43086731 0.28041664 2.0154345 95
-0.49263501 0.32038552 1.6522684 40
-0.5601536 0.36402762 1.4445202 42
-1.002969 0.6518181 2.0267382 89
-1.2354918 0.80293864 2.025187 84
-1.4933394 0.97051793 2.0090308 71
-1.6388294 1.0589801 1.9972385 34
-1.9872302 1.2841151 1.9894875 85
-2.4810317 1.6038166 2.0215206 40
-3.1376181 2.0282593 2.0414124 34
-4.1193271 2.6638885 2.0703199 9
-5.7481213 3.7186222 2.1009643 6
-9.0448589 5.8513775 2.136708 11
-10.176079 6.5857158 1.1790062 23
-1.3504382 0.87530398 1.5139803 5
-2.2303684 1.4461989 2.0190971 23
-2.7832515 1.8046999 2.0341086 39
-3.5686743 2.3148654 2.0538511 32
-4.8057513 3.1185031 2.0819185 10
-7.0002055 4.5442457 2.1036222 13
-10.250125 6.6565051 1.7946659 37
-7.1512108 4.6458211 0.43767866 20
-0.02597297 0.017479599 1.9941976 69
-0.26293898 0.1728265 2.0008237 93
-0.34636912 0.22652821 2.0131991 89
-0.49251914 0.32165429 1.9266117 39
-0.4932892 0.32204059 1.447412 53
-0.89109552 0.5815475 2.0165036 81
-1.1104962 0.72473979 2.0202241 79
-1.4057161 0.91741461 2.0856445 26
-0.10385142 0.069662757 1.9960728 88
-0.18230882 0.12365421 2.0082631 93
-0.42988586 0.28191894 2.0154345 96
-0.4915137 0.3221032 1.6522684 39
-0.55705774 0.36478761 1.4400194 42
-1.0006876 0.6553151 2.0267382 89
-1.2326815 0.80724639 2.025187 84
-1.4871063 0.97386724 2.0053556 69
-1.6171918 1.0530183 1.9762113 37
-1.9827359 1.291044 1.9894875 85
-2.4754183 1.6124673 2.0215206 35
-3.1305192 2.0391994 2.0414124 36
-4.1177707 2.6833134 2.0740657 13
-5.763237 3.7570028 2.1108286 5
-9.0284929 5.8855963 2.1376407 17
-10.198914 6.6511211 1.1839145 16
-1.3473747 0.88001263 1.5139803 5
-2.2219226 1.4517647 2.0161538 22
-2.780544 1.8167624 2.0366411 39
-3.5643711 2.3297911 2.055949 34
-4.794836 3.1352594 2.0819185 18
-6.9843006 4.5686536 2.1036222 17
-10.272409 6.7220716 1.802254 25
-7.1349506 4.6707554 0.43767866 14
-0.025911797 0.017570155 1.9941976 69
-0.26233408 0.17374328 2.0008237 92
-0.34557626 0.22773588 2.0131991 93
-0.49264094 0.32419261 1.9313834 39
-0.49216205 0.32376054 1.447412 49
-0.88906014 0.58465445 2.0165036 81
-1.1103109 0.73015791 2.0243571 75
-1.4132196 0.92936194 2.1009922 27
-0.10360762 0.070024833 1.9960728 89
-0.18187608 0.12428983 2.0082631 93
-0.42994857 0.28411135 2.0202737 96
-0.49182636 0.32476789 1.6569612 39
-0.55578101 0.36672992 1.4400194 40
-0.99839401 0.65880418 2.0267382 89
-1.2298561 0.81154436 2.025187 84
-1.4808682 0.97718513 2.0016804 69
-1.5896523 1.0430059 1.948175 50
-1.9814719 1.3000927 1.9926252 85
-2.4697747 1.6210983 2.0215206 31
-3.1233819 2.0501146 2.0414124 36
-4.1122546 2.7002158 2.0759389 12
-5.7901835 3.803436 2.1249206 3
-9.003788 5.9143786 2.136708 14
nan nan nan 0
-1.3505334 0.88881642 1.52063 6
-2.2134657 1.4572893 2.0132108 21
-2.7705846 1.8240868 2.0341086 28
-3.5600069 2.3447151 2.0580471 34
-4.7838631 3.1519773 2.0819185 14
-6.9723682 4.5956802 2.1047945 15
-10.257151 6.76334 1.8036335 32
-7.1561365 4.7203913 0.43949243 28
-0.025850307 0.017660497 1.9941976 69
-0.26172602 0.17465794 2.0008237 93
-0.34477922 0.22894078 2.0131991 93
-0.492751 0.32673571 1.9361551 39
-0.49265736 0.326556 1.4520147 40
-0.88701385 0.58775431 2.0165036 83
-1.1077553 0.73402917 2.0243571 75
-1.4153117 0.93783104 2.1086662 29
-0.10336256 0.070386067 1.9960728 88
-0.18144111 0.12492394 2.0082631 93
-0.42895418 0.28561038 2.0202737 96
-0.49212638 0.32743868 1.6616539 40
-0.55449748 0.36866769 1.4400194 40
-0.99391657 0.66084129 2.0224724 87
-1.2270159 0.81583244 2.025187 84
-1.4746251 0.98047137 1.9980052 59
-1.5919517 1.0524821 1.9551841 60
-1.9769218 1.3070015 1.9926252 89
-2.4641008 1.6297097 2.0215206 15
-3.1162066 2.0610049 2.0414124 36
-4.1105366 2.7196696 2.0796847 7
-5.8088751 3.8448069 2.1361942 2
-8.9585104 5.9295049 2.1311123 13
nan nan nan 0
-1.3474226 0.89352518 1.52063 6
-2.2049971 1.4627723 2.0102675 21
-2.7606077 1.8313633 2.0315762 15
-3.5518007 2.3571277 2.0580471 32
-4.7688971 3.1660452 2.080276 15
-6.9643831 4.6253691 2.1071391 16
-10.258228 6.815546 1.8077725 35
-7.1437759 4.748107 0.43969399 23
-0.025788501 0.017750625 1.9941976 69
-0.26111475 0.17557046 2.0008237 93
-0.34397796 0.23014289 2.0131991 91
-0.49284929 0.32928351 1.9409268 39
-0.4915145 0.32827368 1.4520147 39
-0.88495684 0.59084702 2.0165036 83
-1.1051863 0.73789155 2.0243571 81
-1.4173621 0.94632614 2.1163399 23
-0.10311624 0.070746437 1.9960728 88
-0.18100394 0.12555653 2.0082631 93
-0.42795455 0.28710595 2.0202737 96
-0.49241379 0.3301155 1.6663467 40
-0.55320722 0.37060103 1.4400194 40
-0.99160373 0.66430664 2.0224724 89
-1.2241606 0.82011056 2.025187 84
-1.4655606 0.98183894 1.9906548 62
-1.5942039 1.0619868 1.9621931 67
-1.9723475 1.3138943 1.9926252 87
-2.4583969 1.638301 2.0215206 11
-3.1089933 2.0718699 2.0414124 33
-4.101018 2.7340014 2.0796847 7
-5.8393216 3.8943396 2.1516953 1
-8.9500179 5.9689159 2.1339102 10
nan nan nan 0
-1.3442954 0.89822316 1.52063 6
-2.1965172 1.468214 2.0073245 19
-2.7506142 1.8385928 2.0290439 9
-3.5473247 2.3720343 2.0601451 33
-4.7617416 3.1852977 2.0819185 13
-6.9522343 4.6523547 2.1083114 15
-10.259066 6.8678422 1.8119113 17
-7.1437631 4.7841349 0.44050011 18
-0.025723271 0.017845023 1.9941976 71
-0.2604695 0.17652631 2.0008237 93
-0.34313214 0.2314021 2.0131991 91
-0.4928779 0.33192196 1.9456985 38
-0.49192858 0.33116406 1.4566172 36
-0.88278538 0.59408653 2.0165036 83
-1.1024745 0.74193728 2.0243571 81
-1.4192034 0.9550944 2.1240139 21
-0.10285626 0.071123898 1.9960728 88
-0.18010533 0.12591262 2.0032918 93
-0.42585748 0.28796795 2.0154345 96
-0.49120051 0.33191806 1.6663467 40
-0.5517801 0.37272245 1.4400194 42
-0.98688453 0.66664928 2.0182064 85
-1.2210025 0.82480484 2.025187 84
-1.4589705 0.98556131 1.9869798 64
-1.5932617 1.0698109 1.9656976 69
-1.9707505 1.3232846 1.9957631 83
-2.4523759 1.6473004 2.0215206 11
-3.0977011 2.0807805 2.0390942 33
-4.1294484 2.7748706 2.0984151 4
-5.7334375 3.8541591 2.1192839 2
nan nan nan 0
nan nan nan 0
-1.3222547 0.89085865 1.5006809 7
-2.1908636 1.4766372 2.0073245 18
-2.7399592 1.8467312 2.0265114 9
-3.5419533 2.3881748 2.0622432 36
-4.7455611 3.2009177 2.080276 11
-6.9383492 4.6817336 2.1094837 19
-10.250246 6.9164767 1.8146706 21
-7.1386027 4.8186707 0.44110468 12
-0.025660824 0.017934706 1.9941976 69
-0.25985172 0.17743446 2.0008237 93
-0.34232229 0.23259844 2.0131991 91
-0.49295211 0.33447903 1.9504702 39
-0.4923864 0.33397588 1.4612198 33
-0.88070619 0.59716439 2.0165036 81
-1.099878 0.74578112 2.0243571 81
-1.4211677 0.96364105 2.1316879 17
-0.10261983 0.071464598 1.9960728 89
-0.17968681 0.12650919 2.0032918 91
-0.42490017 0.28937855 2.0154345 95
-0.49152365 0.33451608 1.6710395 40
-0.55234158 0.37577513 1.4445202 43
-0.98251224 0.66845119 2.0139403 87
-1.2182608 0.82884932 2.025187 84
-1.453064 0.98823333 1.9833045 62
-1.5924714 1.0773642 1.9692022 69
-1.9661192 1.3301556 1.9957631 73
-2.4500735 1.6581943 2.0242622 16
-3.0904188 2.0915809 2.0390942 35
-4.1394205 2.8015413 2.1077805 2
-5.7682948 3.9054253 2.1361942 2
nan nan nan 0
nan nan nan 0
-1.7086424 1.1594427 1.9196117 21
-2.1859548 1.4838942 2.0073245 20
-2.734144 1.8553298 2.0265114 10
-3.538188 2.4018393 2.0643413 28
-4.7315745 3.2131574 2.0786333 7
-6.9276266 4.7062387 2.110656 20
-10.284595 6.9893999 1.8243281 32
-7.1391101 4.8535519 0.44191083 65
-0.025601208 0.018019702 1.9941976 67
-0.25926188 0.17829518 2.0008237 93
-0.3415491 0.23373233 2.0131991 93
-0.49430645 0.33779734 1.9600136 39
-0.49288934 0.33670893 1.4658222 29
-0.87872112 0.60008168 2.0165036 83
-1.0973986 0.7494244 2.0243571 81
-1.4179643 0.9683485 2.1316879 16
-0.10238228 0.071804509 1.9960728 88
-0.1792663 0.12710436 2.0032918 91
-0.42393824 0.29078597 2.0154345 95
-0.49183506 0.33711988 1.6757323 39
-0.55109239 0.37760472 1.4445202 43
-0.97813869 0.67023152 2.0096743 83
-1.2155055 0.83288467 2.025187 84
-1.446982 0.99113065 1.9796295 59
-1.5888901 1.0826391 1.9692022 67
-1.9649144 1.3388603 1.9989008 75
-2.4445612 1.6663101 2.0242622 31
-3.0944481 2.1093035 2.0460486 33
-4.1454301 2.8256972 2.1152725 2
-5.7672024 3.9326403 2.1404219 2
nan nan nan 0
nan nan nan 0
-1.72637 1.1798521 1.9428856 38
-2.1810219 1.491135 2.0073245 21
-2.7279766 1.8643863 2.0265114 16
-3.5339503 2.4161205 2.0664394 14
nan nan nan 0
-6.9159932 4.7319303 2.1118283 16
-10.294054 7.0458436 1.8298465 28
-7.1394649 4.8884892 0.44271693 46
-0.02553815 0.018108957 1.9941976 67
-0.25927651 0.17964174 2.0057628 92
-0.34073114 0.23492315 2.0131991 93
-0.49435437 0.34036776 1.9647853 39
-0.49171102 0.33842739 1.4658222 26
-0.87662107 0.6031453 2.0165036 81
-1.094776 0.75325036 2.0243571 79
-1.3908052 0.95693707 2.0971551 14
-0.10211841 0.072179265 1.9960728 88
-0.17923325 0.1280715 2.0082631 91
-0.42286962 0.29233783 2.0154345 96
-0.49201593 0.33990121 1.6804249 39
-0.54977095 0.37952608 1.4445202 45
-0.97150064 0.67067832 2.0011425 85
-1.2125907 0.8371225 2.025187 82
-1.4433395 0.99642754 1.9796295 59
-1.5880413 1.0901972 1.9727067 67
-1.9634386 1.3479143 2.0020387 66
-2.4421768 1.6772002 2.0270035 35
-3.1016743 2.1301246 2.0553207 23
nan nan nan 0
nan nan nan 0
nan nan nan 0
nan nan nan 0
-1.7437711 1.2006961 1.9661596 67
-2.1791322 1.501032 2.0102675 21
-2.7246754 1.8768182 2.0290439 25
-3.5250711 2.4290569 2.0664394 10
nan nan nan 0
-6.9026051 4.7600064 2.1130006 21
-10.341534 7.1341424 1.8422632 18
-7.1338358 4.9231372 0.44332156 46
-0.025474783 0.018197991 1.9941976 67
-0.25864786 0.18054569 2.0057628 92
-0.34074521 0.23669204 2.0180943 91
-0.49439046 0.34294266 1.9695572 39
-0.49213213 0.34125501 1.4704248 26
-0.87451035 0.60620159 2.0165036 81
-1.0921401 0.75706726 2.0243571 79
-1.337396 0.92708373 2.0242534 14
-0.10186584 0.072535291 1.9960728 88
-0.17878512 0.12869635 2.0082631 91
-0.42184663 0.29381213 2.0154345 96
-0.49224275 0.34260243 1.6851177 39
-0.54844284 0.38144284 1.4445202 49
-0.96701258 0.67257625 1.9968767 81
-1.2096611 0.8413502 2.025187 84
-1.4370694 0.99952382 1.9759542 57
-1.584226 1.0957338 1.9727067 71
-1.9651246 1.3591886 2.0083144 64
-2.4397459 1.6880941 2.0297451 37
-3.105149 2.1485004 2.0622747 14
-1.2242827 0.8474142 0.68989444 7
-1.230832 0.85226512 0.52971143 9
nan nan nan 0
-10.287607 7.1261296 1.2142568 18
-1.7487742 1.2131613 1.9761342 87
-2.1738794 1.5086292 2.0102675 23
-2.7216492 1.8887753 2.0315762 29
-3.5165706 2.4413469 2.0664394 11
-4.7868795 3.3244867 2.1164148 3
-6.8899388 4.7868452 2.1141729 17
-10.300303 7.1588931 1.8395039 26
-7.1330147 4.9594169 0.44412765 52
-0.025411105 0.018286802 1.9941976 67
-0.2573806 0.18100034 2.0008237 93
-0.33991691 0.23788002 2.0180943 91
-0.49441451 0.34552187 1.9743289 39
-0.49253941 0.34408972 1.4750273 28
-0.87238896 0.60925055 2.0165036 81
-1.0894908 0.76087493 2.0243571 77
-1.2789559 0.89319837 1.9436773 11
-0.10161202 0.072890431 1.9960728 89
-0.17833479 0.12931965 2.0082631 93
-0.42081845 0.29528287 2.0154345 95
-0.49245676 0.34530938 1.6898105 39
-0.54710805 0.3833549 1.4445202 55
-0.96252316 0.67445093 1.9926107 66
-1.206717 0.84556746 2.025187 84
-1.4307952 1.0025884 1.972279 57
-1.5803915 1.1012572 1.9727067 73
-1.9635621 1.3682655 2.011452 52
-2.4372687 1.6989913 2.0324864 28
-3.1048994 2.1643934 2.0669107 6
-1.213712 0.84637904 0.68614835 6
-1.231784 0.85930115 0.5311206 9
-1.2166914 0.84877241 0.37312341 7
-10.266753 7.1648455 1.214703 23
-1.7169809 1.2000049 1.9462105 91
-2.1719127 1.5185245 2.0132108 24
-2.722106 1.903205 2.0366411 38
-3.5043082 2.4510057 2.0643413 13
-4.7520299 3.3249319 2.1065588 3
-6.8731885 4.8108668 2.1141729 12
-10.295535 7.2090063 1.8429531 48
-7.1279354 4.9928842 0.44473225 62
-0.025347117 0.018375393 1.9941976 67
-0.25674722 0.18189764 2.0008237 95
-0.33908451 0.23906508 2.0180943 93
-0.49442658 0.34810546 1.9791006 40
-0.49293286 0.34693134 1.4796298 31
-0.87025702 0.61229205 2.0165036 81
-1.0868281 0.76467335 2.0243571 69
-1.2574768 0.88474393 1.9168189 12
-0.10135697 0.073244683 1.9960728 89
-0.17745155 0.12962589 2.0032918 93
-0.41978514 0.29674998 2.0154345 95
-0.49265784 0.34802201 1.6945033 39
-0.54576653 0.38526237 1.4445202 54
-0.960163 0.67780668 1.9926107 50
-1.2037581 0.84977454 2.025187 84
-1.4272867 1.0075767 1.972279 57
-1.5736191 1.104718 1.9692022 71
-1.9619602 1.3773481 2.0145898 36
-2.4381671 1.7122947 2.0379696 17
-3.1045763 2.1803105 2.0715468 4
-1.2145436 0.85327554 0.68802136 6
nan nan nan 0
-1.1936263 0.83889139 0.3684603 5
-10.266125 7.2178264 1.2173803 30
-1.7158351 1.208141 1.9495354 93
-2.1699035 1.5284244 2.0161538 27
-2.7224958 1.9176608 2.0417061 37
-3.4920216 2.4606094 2.0622432 27
-4.7249551 3.330616 2.0999882 3
-6.8523808 4.8320279 2.1130006 6
-10.282447 7.2534637 1.8450224 36
-7.1308727 5.0321379 0.44573992 57
-0.025282819 0.018463761 1.9941976 69
-0.25611073 0.18279275 2.0008237 95
-0.33824795 0.24024726 2.0180943 95
-0.49442667 0.35069332 1.9838723 39
-0.49490619 0.35090998 1.4888349 34
-0.86811441 0.61532611 2.0165036 81
-1.0864481 0.77008975 2.0284901 50
-1.2622271 0.89468962 1.9283296 13
-0.10110068 0.073598035 1.9960728 88
-0.17699799 0.13024452 2.0032918 93
-0.41874674 0.29821351 2.0154345 96
-0.49284598 0.35074019 1.699196 39
-0.54441839 0.38716507 1.4445202 52
-0.95566589 0.67964268 1.9883448 36
-1.2007846 0.8539713 2.025187 84
-1.4209983 1.010588 1.9686038 54
-1.5697534 1.1102041 1.9692022 71
-1.9571404 1.3841881 2.0145898 34
-2.4355891 1.7232103 2.0407109 14
-3.1041796 2.1962519 2.0761828 5
-1.1964215 0.84679693 0.68052924 6
-5.5403752 3.9228008 2.084054 2
-1.1906909 0.8430528 0.3684603 5
-10.297762 7.2939162 1.2236271 35
-1.6963781 1.2033199 1.932911 81
-2.1678517 1.5383285 2.0190971 27
-2.7228172 1.9321423 2.0467708 25
-3.4797103 2.4701567 2.0601451 36
-4.7556548 3.3771663 2.1180575 5
-6.8354716 4.8559179 2.1130006 4
-10.261103 7.292181 1.8457123 31
-7.1336231 5.0714726 0.44674757 44
-0.025218217 0.018551901 1.9941976 67
-0.25547111 0.18368565 2.0008237 92
-0.33657923 0.24083395 2.0131991 93
-0.4931995 0.35241702 1.9838723 38
-0.49526799 0.353771 1.4934374 36
-0.86596125 0.61835259 2.0165036 81
-1.0837533 0.77387744 2.0284901 36
-1.2956227 0.92517292 1.982047 13
-0.10084315 0.073950492 1.9960728 88
-0.17654227 0.13086155 2.0032918 93
-0.41770324 0.29967338 2.0154345 95
-0.4930211 0.35346398 1.7038888 39
-0.54306364 0.38906312 1.4445202 43
-0.95328766 0.68297446 1.9883448 35
-1.1977962 0.85815763 2.025187 84
-1.4174621 1.015542 1.9686038 52
-1.5629641 1.1136075 1.9656976 73
-1.955467 1.3932703 2.0177276 35
-2.4329638 1.7341284 2.0434525 13
-3.1001019 2.2096453 2.0785007 4
-4.0772862 2.9072227 2.1115263 2
-1.1914736 0.84986651 0.51984704 6
-1.1597468 0.82723606 0.36193198 5
-10.2844 7.3384953 1.2249658 29
-1.594942 1.1397558 1.826516 95
-2.1624687 1.5458865 2.0190971 27
-2.733592 1.9541712 2.059433 18
-3.4673746 2.4796479 2.0580471 33
-4.7899261 3.426718 2.1377697 2
-6.814527 4.8769197 2.1118283 3
-10.27585 7.3567824 1.8526105 55
-7.1158772 5.0963421 0.44674757 42
-0.025153305 0.018639816 1.9941976 67
-0.25482836 0.18457627 2.0008237 92
-0.33573654 0.24200736 2.0131991 93
-0.49317846 0.35500914 1.9886441 38
-0.49561581 0.35663879 1.4980398 38
-0.86379749 0.62137163 2.0165036 81
-1.0833298 0.77929908 2.0326231 18
-1.3236151 0.95215553 2.0280902 13
-0.10058441 0.074302047 1.9960728 88
-0.17608441 0.13147701 2.0032918 93
-0.41665462 0.30112961 2.0154345 95
-0.49318323 0.35619316 1.7085816 39
-0.54170221 0.39095637 1.4445202 40
-0.94878298 0.68477148 1.9840788 35
-1.1923497 0.86056966 2.0211978 84
-1.4111595 1.0184996 1.9649286 37
-1.5561701 1.116977 1.9621931 71
-1.9505917 1.4000876 2.0177276 34
-2.4268954 1.7426105 2.0434525 13
-3.0995672 2.225621 2.083137 4
-4.0407567 2.9025054 2.0984151 3
-5.5596046 3.9949775 2.1009643 2
nan nan nan 0
-10.287027 7.3946977 1.2280892 27
-1.4727563 1.0602262 1.6968468 40
-2.1603391 1.5557876 2.0220401 27
-2.7267542 1.9637011 2.059433 18
-3.4586978 2.4917362 2.0580471 33
-4.7549486 3.426851 2.1279137 4
-6.797462 4.9006767 2.1118283 6
-10.274207 7.4099874 1.8567493 43
nan nan nan 0
-0.025088087 0.018727504 1.9941976 66
-0.25418252 0.18546467 2.0008237 92
-0.33488974 0.24317783 2.0131991 93
-0.49314529 0.35760531 1.9934158 37
-0.49594963 0.35951331 1.5026424 38
-0.86162329 0.62438303 2.0165036 79
-1.080603 0.78307581 2.0326231 16
-1.3254752 0.96053243 2.0357642 13
-0.10032443 0.074652702 1.9960728 88
-0.17562439 0.13209085 2.0032918 93
-0.41560096 0.30258217 2.0154345 95
-0.49333227 0.35892785 1.7132742 39
-0.54033422 0.39284489 1.4445202 40
-0.94638693 0.68807918 1.9840788 31
-1.1893384 0.86472648 2.0211978 82
-1.3911438 1.0114574 1.9428777 30
-1.5522617 1.1224021 1.9621931 69
-1.9488472 1.4091688 2.0208654 34
-2.4207981 1.7510713 2.0434525 13
-3.1133168 2.2520061 2.0970449 4
-4.0343561 2.9193103 2.1002882 2
-5.6388893 4.0818715 2.1347849 2
nan nan nan 0
-10.285354 7.4480853 1.2307665 26
-1.4267234 1.0346676 1.650299 38
-2.1548953 1.563319 2.0220401 27
-2.7059243 1.9630808 2.0493033 29
-3.4499791 2.5037942 2.0580471 29
-4.7658868 3.4600744 2.1377697 4
-6.7803144 4.9243751 2.1118283 9
-10.280331 7.4690928 1.8622679 48
nan nan nan 0
-0.025022563 0.018814962 1.9941976 66
-0.25353357 0.18635081 2.0008237 93
-0.33403885 0.24434532 2.0131991 95
-0.49310005 0.36020553 1.9981875 37
-0.4962694 0.36239451 1.5072449 39
-0.85943848 0.62738681 2.0165036 77
-1.0778629 0.78684306 2.0326231 16
-1.3039888 0.95192146 2.0089054 13
-0.10006323 0.075002447 1.9960728 89
-0.17516224 0.1327031 2.0032918 95
-0.4145422 0.30403107 2.0154345 95
-0.49346823 0.3616679 1.7179672 39
-0.53895968 0.3947286 1.4445202 40
-0.94187534 0.68983746 1.979813 26
-1.1838812 0.86709189 2.0172081 80
-1.3575194 0.99427217 1.902451 19
-1.5396864 1.1215144 1.9516795 66
-1.9439164 1.4159631 2.0208654 32
-2.4146709 1.7595109 2.0434525 12
-3.1233389 2.2759051 2.1086352 3
-4.0129023 2.9251821 2.0946691 2
-5.5548363 4.050652 2.1094196 2
-1.1510205 0.83933526 0.36193198 5
-10.291478 7.5074224 1.2343361 22
-1.3899336 1.0154096 1.6137257 38
-2.1494253 1.5708315 2.0220401 26
-2.6920941 1.9674268 2.0442383 36
-3.4412181 2.5158215 2.0580471 30
-4.8376393 3.5380206 2.1739089 2
-6.759161 4.9451432 2.110656 10
-10.278173 7.5224814 1.8664067 56
-10.26274 7.5139356 0.60676312 19
-0.024991143 0.01892902 1.9991974 66
-0.25288153 0.18723466 2.0008237 93
-0.33318388 0.24550986 2.0131991 93
-0.49304259 0.36280984 2.0029593 37
-0.49500141 0.3641246 1.5072449 39
-0.85724324 0.63038301 2.0165036 71
-1.0751098 0.79060072 2.0326231 22
-1.2980752 0.95456815 2.0050688 13
-0.099800818 0.075351276 1.9960728 88
-0.17469795 0.13331372 2.0032918 93
-0.41347843 0.30547622 2.0154345 95
-0.49359104 0.36441323 1.7226599 39
-0.53757846 0.39660752 1.4445202 40
-0.93946159 0.69312102 1.979813 26
-1.178422 0.86942977 2.0132186 74
-1.3267603 0.97887737 1.8656992 15
-1.521386 1.1163335 1.9341568 42
-1.9421006 1.4250432 2.0240033 33
-2.4017727 1.7629803 2.0379696 11
-3.1332324 2.299901 2.1202252 4
nan nan nan 0
-5.5947909 4.1097789 2.1291482 2
-1.1520427 0.84625608 0.36286458 4
-10.297315 7.5668926 1.2379059 33
-1.3954039 1.0268955 1.6237003 38
-2.1406736 1.5759286 2.0190971 25
-2.674794 1.9691439 2.0366411 35
-3.4324155 2.5278182 2.0580471 33
-4.8290625 3.5576868 2.1755517 2
-6.741858 4.9687066 2.110656 8
-10.283741 7.5818229 1.8719252 46
-10.216345 7.5348868 0.60575545 13
-0.024924917 0.019016141 1.9991974 64
-0.25222641 0.18811625 2.0008237 95
-0.3331424 0.2472783 2.0180943 95
-0.49177313 0.36452869 2.0029593 37
-0.49529698 0.36701339 1.5118475 39
-0.85696268 0.63479757 2.0208921 66
-1.0723436 0.79434872 2.0326231 35
-1.284431 0.9514603 1.9897208 12
-0.099537186 0.075699188 1.9960728 88
-0.17423153 0.13392271 2.0032918 93
-0.41341862 0.30766872 2.0202737 96
-0.49370062 0.36716381 1.7273527 39
-0.53444296 0.39718258 1.4400194 39
-0.9349432 0.69484037 1.975547 27
-1.1729609 0.87174004 2.0092292 65
-1.3151724 0.97743589 1.8546739 15
-1.4945372 1.104679 1.9061204 36
-1.9371145 1.4318136 2.0240033 34
-2.3888803 1.7663814 2.0324864 11
-3.1572449 2.3345294 2.1410875 3
-4.0296545 2.9806952 2.1133995 2
nan nan nan 0
nan nan nan 0
-10.314869 7.6353836 1.2428142 29
-1.3918107 1.0317601 1.6237003 38
-2.1351597 1.5833913 2.0190971 22
-2.6679041 1.9784687 2.0366411 37
-3.4235706 2.5397842 2.0580471 30
nan nan nan 0
-6.724473 4.9922094 2.110656 22
-10.265163 7.6235781 1.8733048 40
-10.242115 7.6092353 0.60837537 10
-0.024858385 0.019103028 1.9991974 60
-0.25156826 0.18899553 2.0008237 95
-0.33227724 0.24843968 2.0180943 95
-0.49169436 0.36713669 2.007731 40
-0.49557841 0.36990875 1.5164499 39
-0.85474157 0.63778508 2.0208921 50
-1.0673088 0.79640418 2.0284901 39
-1.2836713 0.95785522 1.9935577 12
-0.099272333 0.076046169 1.9960728 88
-0.17376301 0.1345301 2.0032918 93
-0.41234213 0.30910993 2.0202737 96
-0.49379709 0.36991957 1.7320454 39
-0.53305328 0.39904574 1.4400194 39
-0.93251204 0.69809973 1.975547 28
-1.1699108 0.87582916 2.0092292 59
-1.3117526 0.9820208 1.8546739 15
nan nan nan 0
-1.9321047 1.4385667 2.0240033 34
-2.3726392 1.7672161 2.0242622 10
-3.1348648 2.3349509 2.1318154 4
-4.0155077 2.9919734 2.1115263 2
nan nan nan 0
nan nan nan 0
-10.284161 7.668365 1.242368 27
-1.4031616 1.047784 1.6403246 44
-2.1263814 1.5884156 2.0161538 22
-2.6609817 1.9877692 2.0366411 38
-3.4146843 2.5517192 2.0580471 34
nan nan nan 0
-6.7108984 5.0185623 2.1118283 17
-10.305901 7.709794 1.8850317 53
-10.227491 7.6539202 0.60897994 11
-0.024791554 0.019189684 1.9991974 62
-0.250907 0.18987252 2.0008237 95
-0.33059469 0.24898541 2.0131991 93
-0.49040982 0.36885077 2.007731 55
-0.49584565 0.37281048 1.5210525 39
-0.85442531 0.64220434 2.025281 39
-1.0645223 0.80012488 2.0284901 60
-1.244442 0.93536299 1.9398406 10
-0.099006288 0.076392233 1.9960728 89
-0.17329234 0.13513581 2.0032918 93
-0.41126063 0.31054738 2.0202737 96
-0.49388027 0.37268049 1.7367382 39
-0.52991825 0.39959276 1.4355185 39
-0.93006951 0.70135057 1.975547 7
-1.1668464 0.87990755 2.0092292 61
-1.3218505 0.99679959 1.8730495 15
-1.2357249 0.92678726 1.5977204 12
-1.9270715 1.4453022 2.0240033 34
-2.3564222 1.767959 2.0160377 10
-3.1231518 2.3432205 2.1294973 5
nan nan nan 0
-1.1473358 0.86144072 0.51139188 5
nan nan nan 0
-10.277241 7.719171 1.244599 27
-1.4293392 1.0751233 1.673573 81
-2.1208236 1.5958284 2.0161538 19
-2.6574721 1.999638 2.0391736 43
-3.4057562 2.563623 2.0580471 39
-4.629324 3.4859092 2.1049161 4
-6.7011042 5.0478067 2.1141729 17
-10.259151 7.7308207 1.8815827 55
-10.216669 7.7016039 0.60978609 14
-0.024724418 0.019276105 1.9991974 58
-0.25024268 0.1907472 2.0008237 95
-0.32972357 0.25013787 2.0131991 93
-0.48911929 0.37056035 2.007731 66
-0.49609867 0.37571856 1.525655 39
-0.85217839 0.64518291 2.025281 33
-1.0594794 0.80213732 2.0243571 75
-1.2181658 0.92228472 1.905308 10
-0.098739028 0.076737367 1.9960728 89
-0.17281957 0.13573989 2.0032918 93
-0.4101741 0.31198108 2.0202737 96
-0.49532402 0.3764908 1.7461238 39
-0.52852023 0.40144011 1.4355185 38
-0.9276157 0.70459282 1.975547 6
-1.166168 0.88579834 2.0132186 74
-1.326462 1.0075595 1.884075 15
-1.2211002 0.92249626 1.5837022 12
-1.9220147 1.4520203 2.0240033 36
-2.3602438 1.7837369 2.0242622 11
-3.114953 2.3541081 2.1294973 5
-3.9575422 2.9919763 2.0927961 2
-1.1404957 0.86254668 0.50998271 5
nan nan nan 0
-10.234347 7.74298 1.2428142 29
nan nan nan 0
-2.1152403 1.6032219 2.0161538 19
-2.6504757 2.0089021 2.0391736 47
-3.4004037 2.578238 2.0601451 35
-4.5983143 3.4877777 2.0967026 7
-6.6911883 5.0770435 2.1165175 16
-10.184767 7.7306547 1.8733048 42
-10.118104 7.682838 0.60615855 13
-0.024623044 0.019334871 1.9941976 55
-0.25019154 0.19209288 2.0057628 95
-0.32884839 0.25128731 2.0131991 93
-0.48782283 0.37226546 2.007731 77
-0.49633738 0.37863296 1.5302576 39
-0.84992105 0.64815366 2.025281 27
-1.0566729 0.80583072 2.0243571 79
-1.1945453 0.91097867 1.8746125 11
-0.098470561 0.077081569 1.9960728 89
-0.1723447 0.13634232 2.0032918 93
-0.40908259 0.31341094 2.0202737 96
-0.49537694 0.37926659 1.7508165 39
-0.5271157 0.40328252 1.4355185 38
-0.92515057 0.7078265 1.975547 6
-1.1654625 0.89169502 2.0172081 82
-1.3310143 1.0183638 1.8951007 15
-1.2519284 0.95266861 1.6257566 17
-1.9169345 1.4587206 2.0240033 35
-2.3573301 1.7944976 2.0270035 12
-3.1031916 2.3622835 2.1271794 6
-3.9433856 3.0029635 2.0909231 3
-1.1107649 0.84617269 0.50011832 5
nan nan nan 0
-10.199335 7.7726192 1.2419218 25
-1.6711611 1.2753831 1.9528601 87
-2.112844 1.6130484 2.0190971 22
-2.646874 2.0207579 2.0417061 44
-3.3913834 2.5900922 2.0601451 39
-4.5485864 3.4751379 2.080276 12
-6.6772876 5.1033211 2.1176901 16
-10.153787 7.7631516 1.8726151 37
-10.111065 7.7332854 0.60716617 11
-0.024555402 0.019420702 1.9941976 55
-0.24951945 0.19296503 2.0057628 93
-0.32796925 0.25243369 2.0131991 91
-0.48652038 0.37396601 2.007731 84
-0.49656183 0.38155362 1.53486 39
-0.84575349 0.64965701 2.0208921 24
-1.0538536 0.80951428 2.0243571 79
-1.1913581 0.91514283 1.8746125 11
-0.098200895 0.077424817 1.9960728 89
-0.17228487 0.13727632 2.0082631 93
-0.40699032 0.3140685 2.0154345 96
-0.49541655 0.38204733 1.7555093 39
-0.5274297 0.40644941 1.4400194 38
-0.9247399 0.71264362 1.979813 7
-1.1623428 0.89575785 2.0172081 84
-1.314025 1.0126565 1.8767247 14
-1.2570868 0.96354139 1.6362704 27
-1.9149204 1.4677711 2.0271409 36
-2.3543704 1.8052598 2.0297451 12
-3.1089895 2.383884 2.1364515 5
nan nan nan 0
nan nan nan 0
-8.6789532 6.6595907 2.1684172 8
nan nan nan 0
-1.6726203 1.2857605 1.9595098 93
-2.1072006 1.6204139 2.0190971 24
-2.6363864 2.0273569 2.0391736 39
-3.3823216 2.6019146 2.0601451 37
-4.5476561 3.4996345 2.0852039 16
-6.6632838 5.1295624 2.1188624 17
-10.067773 7.7532244 1.8622679 42
nan nan nan 0
-0.024487462 0.019506298 1.9941976 53
-0.24884437 0.19383484 2.0057628 92
-0.32708609 0.25357696 2.0131991 91
-0.48521209 0.37566197 2.007731 88
-0.49677187 0.38448042 1.5394626 40
-0.84348059 0.65260518 2.0208921 24
-1.0510215 0.81318796 2.0243571 79
-1.1906921 0.92125773 1.8784494 11
-0.097930029 0.077767126 1.9960728 89
-0.17180465 0.13787688 2.0082631 91
-0.40589157 0.31548727 2.0154345 96
-0.49544275 0.38483298 1.7602021 39
-0.52600777 0.40828803 1.4400194 39
-0.92430681 0.71746635 1.9840788 25
-1.1615897 0.90165788 2.0211978 84
-1.2944142 1.0047646 1.8546739 14
-1.2678299 0.97882044 1.653793 31
-1.9097853 1.4744463 2.0271409 35
-2.3513637 1.816023 2.0324864 12
-3.1111679 2.4028461 2.1434057 5
-3.9773529 3.0729351 2.1190186 2
nan nan nan 0
-8.6478815 6.6838369 2.1665518 10
-10.038448 7.7613893 1.229874 24
-1.6976492 1.3144537 1.9927584 85
-2.1047268 1.6302346 2.0220401 26
-2.6292934 2.0365472 2.0391736 36
-3.3732185 2.6137052 2.0601451 34
-4.5354123 3.5154874 2.0852039 19
-6.649178 5.1557689 2.1200345 19
-10.005431 7.7610035 1.8560594 29
-10.01736 7.773057 0.60515088 53
-0.024419222 0.019591656 1.9941976 47
-0.24755506 0.19422252 2.0008237 92
-0.32619894 0.25471717 2.0131991 91
-0.48389781 0.3773534 2.007731 88
-0.49696752 0.38741326 1.5440651 39
-0.84119737 0.65554553 2.0208921 24
-1.0481765 0.81685174 2.0243571 79
-1.1899977 0.92737901 1.8822863 11
-0.097657979 0.078108497 1.9960728 91
-0.17132232 0.13847576 2.0082631 91
-0.40478781 0.31690213 2.0154345 96
-0.4940964 0.38656005 1.7602021 39
-0.52457935 0.41012165 1.4400194 40
-0.92385143 0.72229493 1.9883448 39
-1.1584352 0.90570706 2.0211978 82
-1.2668622 0.99048358 1.8215972 13
-1.2615902 0.98105079 1.6502886 37
-1.9046268 1.4811038 2.0271409 34
-2.3450105 1.8242197 2.0324864 11
-3.1132519 2.4218519 2.1503596 5
-3.9300168 3.0583291 2.1002882 2
nan nan nan 0
-8.5663538 6.6687202 2.1525626 26
-10.003437 7.7902632 1.2289817 26
-1.6959952 1.3226681 1.9960833 87
-2.0990236 1.6375715 2.0220401 25
-2.6187694 2.0430605 2.0366411 36
-3.3640747 2.625464 2.0601451 34
-4.5268354 3.5342038 2.0868468 26
-6.6388025 5.1849313 2.1223791 20
-9.9353533 7.7623439 1.8484716 36
-9.9941025 7.8110533 0.6053524 46
-0.024350688 0.019676777 1.9941976 47
-0.24687557 0.19508547 2.0008237 93
-0.32530782 0.25585428 2.0131991 89
-0.48257765 0.37904024 2.007731 88
-0.49561217 0.38914567 1.5440651 40
-0.83890402 0.65847784 2.0208921 25
-1.0453187 0.82050556 2.0243571 79
-1.1842315 0.92954779 1.8784494 11
-0.097609922 0.078630947 2.0010643 89
-0.17083791 0.13907292 2.0082631 91
-0.40367916 0.31831315 2.0154345 95
-0.49409941 0.3893505 1.7648948 39
-0.52314454 0.41195026 1.4400194 43
-0.92337346 0.72712886 1.9926107 56
-1.1552668 0.90974522 2.0211978 84
-1.263397 0.99489969 1.8215972 13
-1.2581581 0.9854486 1.6502886 38
-1.9025099 1.4901437 2.0302787 35
-2.3386283 1.8323942 2.0324864 10
-3.1152403 2.4409013 2.1573136 5
-3.995939 3.1320868 2.139622 2
-5.3610101 4.2035646 2.0911002 2
-8.5314264 6.6894889 2.1497648 18
-9.9213247 7.782104 1.2227347 33
-1.6796212 1.319353 1.9827838 91
-2.0932946 1.6448884 2.0220401 22
-2.6082323 2.0495257 2.0341086 35
-3.3548894 2.6371908 2.0601451 29
-4.5144715 3.5499837 2.0868468 23
-6.6206632 5.2080736 2.1223791 22
-9.8692799 7.7663527 1.8415735 33
-9.880414 7.7779069 0.60091871 48
-0.024315307 0.019789668 1.9991974 42
-0.2461931 0.19594605 2.0008237 95
-0.32441276 0.25698823 2.0131991 91
-0.4812516 0.3807224 2.007731 88
-0.49578306 0.39208519 1.5486677 39
-0.83660036 0.66140217 2.0208921 26
-1.0424483 0.82414943 2.0243571 79
-1.1809795 0.93367589 1.8784494 11
-0.097334862 0.078971185 2.0010643 89
-0.1703514 0.13966842 2.0082631 91
-0.40256557 0.3197203 2.0154345 95
-0.49408901 0.39214572 1.7695875 39
-0.52340961 0.41512713 1.4445202 50
-0.92491633 0.73358893 2.0011425 77
-1.1520841 0.91377234 2.0211978 80
-1.2838215 1.0182642 1.8546739 12
-1.2519106 0.98762554 1.6467839 38
-1.8942404 1.4943644 2.0271409 34
-2.3322177 1.8405464 2.0324864 8
-3.1101789 2.4545054 2.1596317 5
-3.9995358 3.1575058 2.147114 2
-5.3425388 4.2192788 2.0896909 4
-8.5234451 6.7314067 2.1534953 10
-9.8628378 7.7919908 1.2191651 34
-1.6574337 1.3113056 1.9628347 87
-2.0875399 1.6521854 2.0220401 20
-2.6010621 2.0586181 2.0341086 33
-3.3456635 2.6488855 2.0601451 28
-4.5020523 3.5657206 2.0868468 22
-6.6291118 5.2522812 2.1305854 15
-9.795537 7.7638431 1.8332956 41
-9.8258009 7.7906218 0.59950799 41
-0.024246082 0.019874424 1.9991974 44
-0.24550761 0.19680423 2.0008237 95
-0.32430959 0.25875416 2.0180943 93
-0.4799197 0.38239998 2.007731 84
-0.49593949 0.39503062 1.5532701 40
-0.83616078 0.66581094 2.025281 28
-1.0395652 0.82778323 2.0243571 79
-1.1626655 0.92581028 1.8554276 11
-0.097058602 0.079310469 2.0010643 89
-0.16986284 0.14026222 2.0082631 91
-0.40144712 0.32112357 2.0154345 95
-0.49406502 0.39494559 1.7742803 39
-0.5219574 0.41695169 1.4445202 54
-0.92438763 0.73844081 2.0054085 81
-1.1394683 0.91026366 2.0052397 70
-1.2723129 1.0163914 1.8436482 12
-1.2484556 0.99198949 1.6467839 38
-1.8951083 1.505811 2.0334165 37
-2.325779 1.8486761 2.0324864 8
-3.1189327 2.4791305 2.171222 5
-1.0819716 0.86032748 0.6468147 10
-5.3240237 4.2349157 2.0882816 5
-8.5498714 6.8008709 2.1656194 16
-9.7732286 7.7767577 1.2120256 36
-1.6265619 1.296138 1.932911 96
-2.0817602 1.6594621 2.0220401 21
-2.5904891 2.0649972 2.0315762 35
-3.3363967 2.660548 2.0601451 28
-4.4895782 3.581414 2.0868468 24
-6.591742 5.260231 2.1247239 17
-9.7412863 7.7763619 1.8284669 50
-9.7673159 7.7999325 0.59789574 38
-0.024176557 0.019958936 1.9991974 40
-0.24481915 0.19766001 2.0008237 95
-0.3234044 0.25988466 2.0180943 93
-0.47974676 0.38500774 2.0125027 82
-0.49608144 0.39798194 1.5578727 39
-0.83383155 0.66872555 2.025281 32
-1.0366693 0.83140695 2.0243571 79
-1.1619278 0.93186891 1.8592646 11
-0.096781172 0.079648785 2.0010643 89
-0.16937219 0.14085427 2.0082631 93
-0.40032369 0.32252297 2.0154345 95
-0.49402753 0.39775002 1.7789731 39
-0.52049875 0.41877109 1.4445202 50
-0.92383641 0.74329799 2.0096743 79
-1.1221945 0.90289938 1.9813027 53
-1.2449855 1.0016996 1.8105719 12
-1.242201 0.99411315 1.6432794 38
-1.853368 1.4832283 1.9957631 30
-2.3193116 1.8567833 2.0324864 9
-3.0929677 2.4761586 2.1596317 5
-1.0717248 0.85830301 0.64306861 10
-5.271769 4.2234793 2.0741897 5
-8.5989208 6.88903 2.1833391 8
-9.6799603 7.7578802 1.2044401 29
-1.6220276 1.301808 1.932911 96
-2.072803 1.6641884 2.0190971 20
-2.5832651 2.0740273 2.0315762 37
-3.3270893 2.6721778 2.0601451 27
-4.4770494 3.597064 2.0868468 20
-6.569551 5.2801628 2.1235516 18
-9.6368933 7.7482562 1.8146706 41
-9.716671 7.8151917 0.5966866 37
-0.0241399 0.020071568 2.0041974 40
-0.24473043 0.19900374 2.0057628 93
-0.32249525 0.26101196 2.0180943 93
-0.47839993 0.38668004 2.0125027 86
-0.49620876 0.40093911 1.5624752 40
-0.82776469 0.66862118 2.0165036 35
-1.0337609 0.83502054 2.0243571 77
-1.1985706 0.96815103 1.9206557 14
-0.09650255 0.079986125 2.0010643 89
-0.16847061 0.1411013 2.0032918 93
-0.39919546 0.3239184 2.0154345 93
-0.49397644 0.40055904 1.7836659 39
-0.51903379 0.42058545 1.4445202 47
-0.92326236 0.74816024 2.0139403 79
-1.0979614 0.88973308 1.9453971 35
-1.2967932 1.0508622 1.8877504 11
-1.2387233 0.99844319 1.6432794 38
-1.8239323 1.4701449 1.9706609 25
-2.3160713 1.8674924 2.035228 12
-3.0463693 2.4563513 2.1341336 6
nan nan nan 0
-5.2607274 4.2448683 2.075599 8
-8.4907169 6.8511405 2.1628215 21
-9.6528215 7.7916222 1.2044401 27
-1.6174735 1.307462 1.932911 97
-2.0669811 1.6714137 2.0190971 21
-2.5793622 2.0857427 2.0341086 39
-3.3142126 2.6809206 2.0580471 29
-4.4607944 3.609699 2.0852039 17
-6.5435238 5.296946 2.1212068 22
-9.5751514 7.7537999 1.8084623 37
-9.6388655 7.8081803 0.59406668 43
-0.024069689 0.020155709 2.0041974 39
-0.24403429 0.1998568 2.0057628 92
-0.32158217 0.2621361 2.0180943 91
-0.47704723 0.3883476 2.0125027 86
-0.49783677 0.40513512 1.5716803 39
-0.8198505 0.66697085 2.0033376 39
-1.0308397 0.83862394 2.0243571 79
-1.2026446 0.97839862 1.9321666 18
-0.096222766 0.080322497 2.0010643 89
-0.16797704 0.14168851 2.0032918 93
-0.39806235 0.32530984 2.0154345 95
-0.49524832 0.4044641 1.7930514 39
-0.51756257 0.42239463 1.4445202 42
-0.92266572 0.7530275 2.0182064 81
-1.0948491 0.89356023 1.9453971 35
-1.2931172 1.0553823 1.8877504 11
-1.2324617 1.0005132 1.6397748 38
-1.8036779 1.4642347 1.9549719 11
-2.3127842 1.8782017 2.0379696 13
-2.98963 2.4278703 2.101681 9
nan nan nan 0
-5.2756615 4.2874098 2.0868723 7
-8.4476891 6.8652458 2.1581583 23
-9.5869226 7.7938542 1.199978 26
-1.6273797 1.3248885 1.9495354 97
-2.0580003 1.676066 2.0161538 24
-2.5720658 2.0947337 2.0341086 40
-3.3048341 2.6924732 2.0580471 33
-4.4481673 3.625248 2.0852039 18
-6.5061584 5.3043985 2.1153452 21
-9.5518646 7.7903061 1.809152 30
-9.5767117 7.8133545 0.59225291 39
-0.023999186 0.020239605 2.0041974 39
-0.24333517 0.20070741 2.0057628 93
-0.32066518 0.26325703 2.0180943 93
-0.47568873 0.39001045 2.0125027 88
-0.49793053 0.40810889 1.5762829 40
-0.79342657 0.65008944 1.9462849 54
-1.0279062 0.84221715 2.0243571 79
-1.2215401 1.0008774 1.9666992 27
-0.095941797 0.080657884 2.0010643 89
-0.16748142 0.14227399 2.0032918 93
-0.39692435 0.32669735 2.0154345 95
-0.49516618 0.40728664 1.7977442 39
-0.51608497 0.42419869 1.4445202 40
-0.92204624 0.75789976 2.0224724 85
-1.0987083 0.90311813 1.9573658 37
-1.3339471 1.0964863 1.950228 13
-1.2262009 1.002552 1.6362704 37
-1.7955418 1.4680578 1.9518343 9
-2.3126874 1.8915578 2.0434525 13
-2.9262691 2.3934145 2.0645928 11
-3.8110659 3.1182067 2.077812 7
-5.2792253 4.3209925 2.0939183 7
-8.3970642 6.8729134 2.1516299 23
-9.5750713 7.8398914 1.2017629 39
-1.6371837 1.3424 1.9661596 98
-2.0552623 1.6858029 2.0190971 24
-2.5680711 2.1064329 2.0366411 40
-3.2954154 2.7039926 2.0580471 33
-4.4354858 3.640753 2.0852039 19
-6.5138979 5.3486686 2.1235516 14
-9.5552263 7.8487473 1.8146706 44
-9.5802593 7.8721094 0.59386516 30
-0.023928391 0.020323254 2.0041974 38
-0.24263307 0.20155559 2.0057628 95
-0.31974429 0.26437473 2.0180943 93
-0.47432446 0.39166856 2.0125027 86
-0.4980095 0.41108823 1.5808854 40
-0.71908718 0.59338552 1.7751272 95
-1.02496 0.84580004 2.0243571 79
-1.2279297 1.0132972 1.982047 36
-0.095659666 0.080992296 2.0010643 89
-0.16698378 0.14285775 2.0032918 93
-0.39578155 0.32808092 2.0154345 95
-0.49507034 0.41011351 1.8024368 39
-0.51460105 0.42599759 1.4445202 40
-0.92140388 0.76277673 2.0267382 87
-1.1001922 0.9107917 1.9653447 44
-1.358837 1.1249167 1.9906548 14
-1.2199408 1.004559 1.6327658 37
-1.7904065 1.4743165 1.9518343 9
-2.3125255 1.9049364 2.0489354 13
-2.8905411 2.3810802 2.0460486 23
-3.8037357 3.134439 2.0796847 6
-5.282619 4.354651 2.1009643 25
-8.3768129 6.9053073 2.1525626 23
-9.5783844 7.8986144 1.2053325 41
-1.652644 1.3647516 1.9894335 96
-2.0555975 1.6981153 2.0249834 26
-2.5607028 2.1153843 2.0366411 41
-3.2859569 2.7154794 2.0580471 32
-4.42275 3.6562135 2.0852039 18
-6.5101709 5.3837638 2.1282408 18
-9.5430346 7.89468 1.8174298 42
-9.552722 7.9055037 0.59386516 25
-0.023857303 0.020406656 2.0041974 38
-0.24192806 0.20240133 2.0057628 96
-0.31881949 0.26548925 2.0180943 93
-0.47295436 0.39332184 2.0125027 84
-0.49807379 0.41407308 1.5854878 40
-0.64331174 0.53464013 1.5995806 89
-1.0220013 0.84937268 2.0243571 73
-1.2367128 1.027823 2.0012317 39
-0.095376365 0.081325725 2.0010643 89
-0.1664841 0.14343975 2.0032918 95
-0.39463392 0.32946044 2.0154345 96
-0.49496081 0.4129447 1.8071296 39
-0.51311094 0.42779124 1.4445202 40
-0.91873568 0.76598835 2.0267382 83
-1.1016361 0.91848665 1.9733237 44
-1.3809404 1.1513628 2.0274065 17
-1.2136818 1.0065348 1.6292613 35
-1.7732632 1.4706168 1.939283 15
-2.3155165 1.9210066 2.0571599 15
-2.8753927 2.3854983 2.0414124 31
-3.799906 3.1536186 2.083431 6
-5.2969146 4.3975792 2.1122379 16
-8.3564377 6.9376435 2.1534953 18
-9.5775728 7.9542727 1.208456 31
-1.644999 1.3681244 1.9861088 95
-2.0527649 1.7078655 2.0279264 25
-2.5566175 2.1270676 2.0391736 40
-3.2729697 2.7240295 2.055949 32
-4.4063311 3.668608 2.0835612 24
-6.5062785 5.4188986 2.13293 12
-9.557271 7.9628134 1.8250178 39
-9.5557709 7.9643893 0.5954774 26
-0.023785926 0.02048981 2.0041974 36
-0.24122006 0.20324455 2.0057628 97
-0.31789082 0.26660052 2.0180943 95
-0.47157857 0.39497039 2.0125027 84
-0.49812329 0.41706339 1.5900904 40
-0.6102103 0.51074123 1.5249735 54
-1.0190302 0.85293496 2.0243571 73
-1.2306592 1.0300759 1.9973947 47
-0.095091902 0.081658147 2.0010643 89
-0.16598238 0.14402004 2.0032918 93
-0.39348152 0.33083597 2.0154345 95
-0.49615863 0.4168902 1.8165152 39
-0.5116145 0.42957976 1.4445202 40
-0.91605639 0.76919067 2.0267382 75
-1.1007313 0.92426461 1.9773132 53
-1.395087 1.1714367 2.0531328 23
-1.2074238 1.008479 1.6257566 36
-1.8189112 1.5192214 1.9926252 30
-2.3023789 1.9237154 2.0516768 17
-2.8772471 2.404042 2.0483663 37
-3.7746465 3.1549714 2.0759389 15
-5.2704906 4.4068103 2.1080103 22
-8.3359375 6.9699216 2.154428 15
-9.5726681 8.0068274 1.2111332 27
-1.6430761 1.376256 1.9894335 95
-2.0560851 1.7228086 2.036756 24
-2.5491769 2.1359787 2.0391736 38
-3.2634411 2.7354379 2.055949 33
-4.3934984 3.6839666 2.0835612 33
-6.5171151 5.4665666 2.1423085 6
-9.5559721 8.0184078 1.8298465 44
-9.5585241 8.0233917 0.59708965 30
-0.0236817 0.020543665 1.9991974 36
-0.24050914 0.20408535 2.0057628 97
-0.31695828 0.26770854 2.0180943 95
-0.46905535 0.39565101 2.007731 86
-0.49815792 0.42005906 1.5946929 40
-0.59376961 0.50051516 1.4898641 38
-1.0160468 0.8564868 2.0243571 79
-1.2295072 1.0364318 2.0012317 50
-0.094806284 0.081989579 2.0010643 89
-0.16547866 0.14459854 2.0032918 93
-0.3923243 0.33220744 2.0154345 95
-0.49601769 0.41973433 1.8212079 39
-0.51011193 0.43136299 1.4445202 40
-0.91336578 0.77238363 2.0267382 60
-1.1021011 0.9319936 1.9852921 59
-1.3987551 1.1828666 2.0641582 27
-1.1984379 1.0080962 1.6187476 35
-1.8195552 1.5305731 1.9989008 37
-2.2828524 1.9209718 2.0407109 24
-2.8654482 2.4112189 2.0460486 37
-3.7707038 3.174099 2.0796847 18
-5.2514067 4.422091 2.1066012 26
-8.3153143 7.002141 2.1553607 18
-9.5675135 8.0594444 1.2138106 29
-1.6182812 1.3651278 1.9661596 91
-2.0469699 1.7273685 2.0338128 17
-2.5384107 2.1420836 2.0366411 36
-3.2538726 2.7468128 2.055949 33
-4.3806124 3.69928 2.0835612 19
-6.4534364 5.451642 2.1282408 9
-9.5619669 8.0804834 1.8360549 41
-9.5647964 8.0857363 0.59890342 35
-0.023613445 0.020622084 1.9991974 35
-0.23983105 0.20488179 2.0057628 97
-0.3160688 0.26875815 2.0180943 93
-0.46774074 0.39720431 2.007731 84
-0.49825156 0.4229731 1.5992955 39
-0.5811469 0.49318033 1.4635322 38
-1.0132009 0.85985148 2.0243571 79
-1.2260636 1.0405034 2.0012317 52
-0.09454824 0.082287021 2.0010643 89
-0.16502357 0.1451177 2.0032918 93
-0.39127868 0.33343834 2.0154345 95
-0.49601036 0.42240947 1.8259007 39
-0.50867862 0.43305221 1.4445202 40
-0.9107995 0.77540815 2.0267382 38
-1.1012994 0.93759698 1.9892817 61
-1.3976139 1.1894522 2.0678334 28
-1.1923668 1.0097601 1.615243 35
-1.7996162 1.5240198 1.983212 37
-2.2700887 1.9231256 2.035228 29
-2.8608167 2.4235711 2.0483663 37
-3.7571764 3.1829329 2.077812 24
-5.2338281 4.4354653 2.1051919 29
-8.2957954 7.0328531 2.1562932 26
-9.5673227 8.1136742 1.216934 8
-1.5938208 1.3535655 1.9428856 97
-2.0289087 1.7236789 2.0220401 13
-2.5316684 2.1500478 2.0366411 35
-3.2486861 2.7599599 2.0580471 36
-4.368969 3.7130239 2.0835612 20
-6.4436841 5.4781857 2.1305854 6
-9.5667124 8.1361485 1.8415735 42
-9.5697889 8.1416435 0.60051566 14
-0.023537703 0.020708492 1.9991974 34
-0.23907849 0.20575944 2.0057628 97
-0.31508163 0.26991481 2.0180943 93
-0.4662818 0.39891601 2.007731 86
-0.49818262 0.42606625 1.6038979 40
-0.57387257 0.49063638 1.4503663 38
-1.0079037 0.86173052 2.0202241 77
-1.2222416 1.0449901 2.0012317 61
-0.094231591 0.082649447 2.0010643 89
-0.16446513 0.14575027 2.0032918 93
-0.38999549 0.33493829 2.0154345 95
-0.49569422 0.42543483 1.8305935 39
-0.50701207 0.43500221 1.4445202 42
-0.90979481 0.78059804 2.0310042 28
-1.0976911 0.94181877 1.9892817 63
-1.3722447 1.1773925 2.0384321 25
-1.1832319 1.0094943 1.6082339 36
nan nan nan 0
-2.2534831 1.9232893 2.0270035 23
-2.8519146 2.4340403 2.0483663 37
-3.7449272 3.1973357 2.077812 34
-5.2131104 4.4524131 2.1037827 19
-8.2687311 7.0646553 2.1562932 15
-9.5625973 8.1729994 1.2200575 4
-1.5857747 1.357247 1.9395608 96
-2.0284159 1.7367141 2.0279264 12
-2.5197425 2.1573892 2.0341086 32
-3.2375805 2.7729788 2.0580471 36
-4.3576155 3.7336049 2.0852039 27
-6.4253321 5.5071716 2.1317577 7
-9.5692425 8.201829 1.8477818 27
-9.5687981 8.2043447 0.60212791 7
-0.023465274 0.020790529 1.9991974 33
-0.23835883 0.20659271 2.0057628 97
-0.31413752 0.27101299 2.0180943 93
-0.46488646 0.40054119 2.007731 86
-0.49817261 0.42907768 1.6085005 39
-0.57215643 0.49263659 1.4503663 38
-1.0048896 0.86524355 2.0202241 75
-1.2185866 1.04925 2.0012317 64
-0.093942508 0.082977884 2.0010643 89
-0.16435328 0.14667948 2.0082631 95
-0.38882399 0.33629757 2.0154345 95
-0.49681729 0.42941955 1.8399791 39
-0.50556678 0.43668112 1.4445202 42
-0.90720129 0.78361076 2.0310042 22
-1.0968428 0.94742382 1.9932711 70
-1.355505 1.1708561 2.0200562 23
-1.1959305 1.0275632 1.6292613 36
-0.93535167 0.8036707 1.0763943 8
-2.2467558 1.9311438 2.0270035 12
-2.843401 2.4439805 2.0483663 37
-3.7337437 3.2103889 2.077812 33
