# .PCD v0.7 - Point Cloud Data file format
VERSION 0.7
FIELDS x y z intensity
SIZE 4 4 4 4
TYPE F F F F
COUNT 1 1 1 1
WIDTH 1376
HEIGHT 1
VIEWPOINT 0 0 0 1 0 0 0
POINTS 1376
DATA ascii
-1.7491692 0.3695564 2.016381 85
-1.9240762 0.40125155 2.0112567 73
-2.3504841 0.49018013 2.0177276 66
-3.0188403 0.63011324 2.1065061 12
-3.6529489 0.76247245 2.0390942 51
-4.3753891 0.91406351 1.8942546 7
-6.5509133 1.3697473 2.0558703 12
-10.145439 2.1213374 2.0593007 41
-9.6609602 2.021796 0.9773193 33
-2.1304495 0.44739753 2.0193572 75
-2.6092727 0.54842782 2.0249834 69
-3.2588689 0.68496662 2.0417061 66
-4.1315098 0.86913657 2.0391645 37
-4.0717707 0.85731155 1.5365472 5
-8.0237961 1.6908758 2.0684528 4
-10.131988 2.1369879 1.5346054 21
-9.6588497 2.0389569 0.49189049 3
-0.03060776 0.0069833882 2.0041974 40
-0.3075152 0.066635579 2.0008237 93
-0.40468061 0.086719163 2.0131991 91
-0.48763606 0.10416038 1.6403083 38
-0.76527834 0.16334459 1.903062 92
-1.0359812 0.22094741 2.0077264 79
-1.3546917 0.28892663 2.1070161 30
-1.5821009 0.33743247 2.0127425 74
-0.1230913 0.027885009 2.0160391 23
-0.21511206 0.049891785 2.0132346 101
-0.49146861 0.10596098 1.9718815 39
-0.49520418 0.10659359 1.4317083 52
-0.91927415 0.19756298 2.0071244 92
-1.1592634 0.24914625 2.0096743 85
-1.4317467 0.30771348 2.0132186 38
-1.7478685 0.37565985 2.016381 85
-1.9261523 0.40870565 2.0147614 73
-2.3487589 0.49838182 2.0177276 64
-3.0166225 0.64064711 2.1065061 11
-3.6545985 0.77613932 2.0414124 59
-4.5716953 0.97174084 1.9766681 16
-6.5507841 1.393604 2.0572793 12
-10.142777 2.1577606 2.0602334 43
-9.6830683 2.0617294 0.97999662 14
-2.1288748 0.45483145 2.0193572 75
-2.6073425 0.55753255 2.0249834 67
-3.2564583 0.696338 2.0417061 64
-4.1195745 0.88165331 2.0349686 33
-4.0733709 0.87250859 1.5381899 5
-8.0225983 1.7198927 2.0696251 3
-10.13415 2.1744204 1.535985 73
-9.5881739 2.0590241 0.4892706 2
-0.030583195 0.0070901867 2.0041974 40
-0.30728069 0.067708597 2.0008237 93
-0.4043754 0.088131234 2.0131991 93
-0.48872897 0.10617907 1.64508 38
-0.74370253 0.16145518 1.8524343 95
-1.0352036 0.22456232 2.0077264 79
-1.356425 0.29425022 2.1111491 30
-1.5809133 0.34295297 2.0127425 76
-0.12327529 0.028379939 2.0210309 20
-0.21441706 0.050519262 2.0082631 100
-0.49109575 0.10767588 1.9718815 39
-0.49482906 0.10832153 1.4317083 52
-0.91857892 0.20077065 2.0071244 93
-1.1583866 0.25319132 2.0096743 85
-1.4277194 0.31206572 2.0092292 38
-1.7465466 0.38175881 2.016381 83
-1.924714 0.41542667 2.0147614 75
-2.3470049 0.50657755 2.0177276 64
-3.0102808 0.65029037 2.1037648 11
-3.6518672 0.78889161 2.0414124 60
-4.6815562 1.0121852 2.023494 17
-6.5458798 1.4164621 2.0572793 12
-10.144787 2.1952305 2.0620987 22
-9.6904135 2.0986793 0.98133516 7
-2.1272743 0.46225986 2.0193572 75
-2.6053803 0.56663048 2.0249834 67
-3.2540076 0.70770091 2.0417061 41
-4.1164718 0.89602792 2.0349686 33
-3.8765032 0.84450275 1.4691972 10
-8.0165462 1.7478863 2.0696251 13
-10.136174 2.2118931 1.5373646 66
-10.059255 2.1969476 0.50902063 54
-0.030558258 0.0071968986 2.0041974 39
-0.30704248 0.068780795 2.0008237 93
-0.40406531 0.089542225 2.0131991 91
-0.48835534 0.1078844 1.64508 39
-0.71451879 0.15773246 1.7833964 96
-1.0344133 0.22817448 2.0077264 81
-1.3553896 0.29898322 2.1111491 30
-1.5797065 0.34846932 2.0127425 76
-0.12345732 0.028876495 2.0260224 18
-0.2142394 0.051267408 2.0082631 100
-0.49194455 0.1096632 1.9767207 39
-0.49444795 0.11004814 1.4317083 52
-0.91787255 0.20397584 2.0071244 93
-1.1574959 0.25723329 2.0096743 87
-1.4266214 0.31704748 2.0092292 37
-1.7452034 0.38785306 2.016381 83
-1.9232523 0.42214265 2.0147614 75
-2.3452225 0.51476699 2.0177276 64
-3.0079927 0.6607942 2.1037648 12
-3.6490912 0.80163413 2.0414124 61
-4.6779947 1.0285208 2.023494 17
-6.5455804 1.4403337 2.0586886 9
-10.141858 2.2316844 2.0630312 16
-9.6587124 2.1271369 0.97910416 11
-2.1256475 0.4696826 2.0193572 75
-2.6033866 0.5757215 2.0249834 67
-3.2515173 0.71905524 2.0417061 18
-4.1399064 0.91627622 2.0475569 58
-3.8735318 0.85802907 1.4691972 10
-8.0056496 1.7748066 2.0684528 4
-10.13806 2.2494071 1.5387442 66
-10.075911 2.2374625 0.5100283 28
-0.030532951 0.0073035229 2.0041974 39
-0.30604297 0.069679491 1.9958843 93
-0.4037503 0.090952136 2.0131991 93
-0.48943302 0.10991576 1.6498517 39
-0.68537033 0.15380803 1.7143586 97
-1.0336107 0.23178387 2.0077264 79
-1.3543377 0.30371261 2.1111491 29
-1.5784806 0.35398141 2.0127425 76
-0.12363738 0.029374665 2.031014 17
-0.21405914 0.052014928 2.0082631 101
-0.49155876 0.11137974 1.9767207 39
-0.49406078 0.11177342 1.4317083 54
-0.91715497 0.20717859 2.0071244 93
-1.1565909 0.26127216 2.0096743 87
-1.4225663 0.32136127 2.0052397 37
-1.7438389 0.39394256 2.016381 83
-1.921767 0.42885348 2.0147614 73
-2.3434112 0.52295023 2.0177276 64
-3.0015864 0.67037851 2.1010232 12
-3.6462708 0.81436694 2.0414124 61
-4.6788993 1.0458549 2.0253668 19
-6.5451946 1.4642208 2.0600977 7
-10.148389 2.2702899 2.065829 23
-9.6609478 2.1630156 0.97999662 59
-2.1239953 0.47709963 2.0193572 75
-2.601361 0.58480555 2.0249834 69
-3.2489877 0.7304008 2.0417061 18
-4.1101165 0.92474425 2.0349686 38
nan nan nan 0
-7.9994054 1.8027407 2.0684528 4
-10.13981 2.2869611 1.5401238 28
-10.072912 2.2737203 0.51022983 21
-0.03050727 0.0074100588 2.0041974 39
-0.3057979 0.070747361 1.9958843 95
-0.40343037 0.092360929 2.0131991 93
-0.48904634 0.11162353 1.6498517 39
-0.65244889 0.14881311 1.6361156 98
-1.0327953 0.23539042 2.0077264 77
-1.3532693 0.30843827 2.1111491 29
-1.5772353 0.35948917 2.0127425 76
-0.12353408 0.029806061 2.031014 16
-0.21387628 0.052761819 2.0082631 100
-0.49116698 0.11309493 1.9767207 39
-0.49366763 0.11349732 1.4317083 58
-0.91642618 0.21037878 2.0071244 93
-1.1556717 0.26530784 2.0096743 87
-1.4214358 0.326325 2.0052397 37
-1.7424532 0.4000273 2.016381 85
-1.9202583 0.43555909 2.0147614 73
-2.3415713 0.5311271 2.0177276 66
-2.9910729 0.67900062 2.0955403 14
-3.6434059 0.82708991 2.0414124 61
-4.6707006 1.061154 2.023494 20
-6.5400434 1.4870586 2.0600977 6
-10.149982 2.3078787 2.0676944 37
-9.6533384 2.1967251 0.97999662 62
-2.1223168 0.48451087 2.0193572 73
-2.599304 0.59388238 2.0249834 67
-3.2464182 0.74173737 2.0417061 33
-3.8635252 0.88344318 1.9195756 9
-3.7385509 0.85555273 1.423202 6
-7.9978023 1.8317381 2.0696251 9
-10.141418 2.3245542 1.5415035 23
-10.055175 2.3066335 0.50982672 16
-0.030481219 0.0075165038 2.0041974 40
-0.30554909 0.071814358 1.9958843 93
-0.4031055 0.093768604 2.0131991 87
-0.48865372 0.11332995 1.6498517 39
-0.63479668 0.14711945 1.5946929 97
-1.0319673 0.23899412 2.0077264 81
-1.3521844 0.31316018 2.1111491 31
-1.5759708 0.36499256 2.0127425 74
-0.12371042 0.030306458 2.0360055 15
-0.2136908 0.053508066 2.0082631 100
-0.49199393 0.11509531 1.9815599 40
-0.49326843 0.11521986 1.4317083 60
-0.91568619 0.21357642 2.0071244 92
-1.1572784 0.26993269 2.0139403 87
-1.420288 0.33128473 2.0052397 37
-1.7410462 0.40610716 2.016381 83
-1.9187262 0.44225937 2.0147614 73
-2.3397033 0.53929746 2.0177276 66
-2.9846103 0.68849742 2.0927989 14
-3.6361797 0.83880687 2.0390942 61
-4.6985869 1.0847512 2.0366051 23
-6.5348125 1.5098786 2.0600977 13
-10.14665 2.3444006 2.0686269 29
-9.6456118 2.2304082 0.97999662 58
-2.1206126 0.49191621 2.0193572 73
-2.5972149 0.60295206 2.0249834 67
-3.2438092 0.75306499 2.0417061 61
-3.8559971 0.89589685 1.9174775 10
-3.6803443 0.85576296 1.4034897 5
-7.9913592 1.8596444 2.0696251 9
-10.142889 2.3621869 1.5428832 24
-10.051928 2.3428524 0.5100283 13
-0.030454796 0.0076228576 2.0041974 40
-0.30605224 0.073061079 2.0008237 95
-0.40277573 0.095175132 2.0131991 87
-0.48825517 0.11503497 1.6498517 39
-0.62286931 0.14664772 1.5670776 97
-1.0311267 0.24259491 2.0077264 81
-1.351083 0.31787828 2.1111491 31
-1.5746871 0.3704915 2.0127425 74
-0.12360388 0.030738104 2.0360055 15
-0.21350273 0.05425366 2.0082631 100
-0.49158922 0.11681199 1.9815599 40
-0.49454227 0.11733945 1.4364011 62
-0.91493511 0.21677145 2.0071244 92
-1.1563293 0.27397072 2.0139403 87
-1.4220556 0.33693534 2.0092292 37
-1.7396179 0.41218209 2.016381 85
-1.9171708 0.44895428 2.0147614 73
-2.3378067 0.54746121 2.0177276 66
-2.9699752 0.69604903 2.0845745 17
-3.6289165 0.8504836 2.0367765 61
-4.699285 1.1022044 2.0384781 25
-6.5295029 1.5326803 2.0600977 14
-10.147968 2.3820498 2.070492 27
-9.6426153 2.2652028 0.98044276 13
-2.1188827 0.49931553 2.0193572 75
-2.5950944 0.61201435 2.0249834 67
-3.2411609 0.76438344 2.0417061 66
-4.1002069 0.96773386 2.0349686 30
-3.5808194 0.84580702 1.3689934 6
-7.9895482 1.888646 2.0707972 10
-10.149038 2.4009979 1.5449525 54
-9.9950733 2.3664157 0.50801295 27
-0.030428 0.0077291178 2.0041974 40
-0.30579534 0.074128948 2.0008237 93
-0.40244102 0.096580498 2.0131991 89
-0.48785067 0.1167386 1.6498517 39
-0.61285335 0.14654899 1.5440651 95
-1.0302737 0.24619272 2.0077264 81
-1.3499652 0.3225925 2.1111491 31
-1.5733843 0.37598592 2.0127425 76
-0.12377647 0.0312407 2.0409973 15
-0.21331204 0.054998595 2.0082631 99
-0.49117845 0.11852724 1.9815599 39
-0.49412966 0.119065 1.4364011 62
-0.91417289 0.21996386 2.0071244 92
-1.1553658 0.27800536 2.0139403 87
-1.4208709 0.34189716 2.0092292 38
-1.7381686 0.41825196 2.016381 85
-1.915592 0.45564371 2.0147614 73
-2.3358812 0.55561841 2.0177276 66
-2.9512568 0.70253873 2.0736086 22
-3.617306 0.86109382 2.0321403 61
nan nan nan 0
-6.5241127 1.5554631 2.0600977 9
-10.14437 2.4185975 2.0714247 21
-9.6443367 2.3011596 0.98133516 7
-2.1171267 0.50670874 2.0193572 75
-2.5929425 0.62106913 2.0249834 67
-3.2384729 0.77569252 2.0417061 66
-4.1100445 0.98521417 2.0412626 29
-3.5778451 0.85830128 1.3689934 6
-7.9876332 1.9176579 2.0719695 10
-10.150227 2.438724 1.5463322 49
-9.8458843 2.3674195 0.5021686 12
-0.030399468 0.0078405906 2.0041974 40
-0.30552158 0.075249255 2.0008237 93
-0.40208435 0.098054871 2.0131991 91
-0.48887074 0.11887883 1.6546235 39
-0.60471845 0.14694871 1.525655 88
-1.0293645 0.24996722 2.0077264 81
-1.3487738 0.32753819 2.1111491 31
-1.5719956 0.38175014 2.0127425 78
-0.12366114 0.031694155 2.0409973 15
-0.21362537 0.055915896 2.0132346 99
-0.49074072 0.1203267 1.9815599 39
-0.49368998 0.12087528 1.4364011 62
-0.91332155 0.2234724 2.0071244 92
-1.15429 0.28243962 2.0139403 85
-1.4224753 0.34806678 2.0132186 38
-1.7398427 0.42572871 2.0200562 85
-1.9139091 0.46266168 2.0147614 71
-2.3338289 0.56417602 2.0177276 67
-2.932405 0.70941788 2.0626428 30
-3.6141255 0.87434608 2.0321403 39
-3.5378075 0.85653639 1.5589817 2
-6.5230308 1.5804944 2.061507 7
-10.139783 2.458689 2.0723574 18
-9.6160736 2.3334768 0.97955036 10
-2.1151657 0.51483417 2.0193572 73
-2.5905385 0.63102078 2.0249834 67
-3.2354705 0.78812158 2.0417061 66
-4.0621371 0.99023938 2.020282 19
-5.4785023 1.336525 2.0507076 2
-7.9849339 1.9494669 2.0731418 8
-10.150841 2.4782591 1.5477118 33
-9.817729 2.3987474 0.50136244 7
-0.030373301 0.007941355 2.0041974 40
-0.30527037 0.076261982 2.0008237 92
-0.40175697 0.09938769 2.0131991 93
-0.4884738 0.12049934 1.6546235 39
-0.59664041 0.14708255 1.5072449 84
-1.0285299 0.25337934 2.0077264 83
-1.3476801 0.33200911 2.1111491 30
-1.570721 0.38696098 2.0127425 76
-0.12328081 0.032009255 2.0360055 16
-0.21344867 0.05658675 2.0132346 98
-0.49036029 0.12186782 1.9815599 38
-0.4933078 0.12242565 1.4364011 62
-0.912615 0.22634058 2.0071244 92
-1.1533968 0.28606454 2.0139403 87
-1.4213748 0.35253391 2.0132186 39
-1.738572 0.4308891 2.0200562 86
-1.9123644 0.46900588 2.0147614 71
-2.3319454 0.57191223 2.0177276 66
-2.9137926 0.71515143 2.0516768 31
-3.6069036 0.88527012 2.0298221 35
-3.535099 0.86764657 1.5589817 2
-6.5180335 1.6009792 2.061507 14
-10.141549 2.492877 2.0742226 31
nan nan nan 0
-2.1135375 0.52147663 2.0193572 73
-2.5924673 0.64012498 2.0279264 69
-3.2373035 0.7987507 2.0442383 66
-4.0679936 1.0044636 2.0244782 20
-5.5020194 1.3595712 2.0605636 3
-7.9838333 1.974317 2.0743141 8
-10.157427 2.5137055 1.5497813 20
-9.8683376 2.4439912 0.50378084 4
-0.030301979 0.0080408482 1.9991974 39
-0.30498883 0.077380344 2.0008237 92
-0.40139002 0.10085954 2.0131991 89
-0.48947763 0.12265196 1.6593952 39
-0.59041196 0.14784452 1.4934374 71
-1.0275943 0.25714737 2.0077264 81
-1.3437245 0.33626318 2.1070161 30
-1.5692922 0.39271533 2.0127425 76
-0.12315699 0.032482386 2.0360055 17
-0.21322982 0.057405911 2.0132346 99
-0.49110821 0.12405788 1.9863992 38
-0.49450731 0.12474106 1.4410939 66
-0.91173917 0.22984309 2.0071244 92
-1.15229 0.29049113 2.0139403 87
-1.4200107 0.35798898 2.0132186 39
-1.7368282 0.43786466 2.0200562 86
-1.9106325 0.4760119 2.0147614 73
-2.3298335 0.58045536 2.0177276 66
-2.8868086 0.71975672 2.035228 28
-3.6036346 0.89848411 2.0298221 35
-3.4012992 0.84866679 1.5046637 2
-6.5164919 1.627157 2.062916 15
-10.136668 2.53299 2.0751553 23
-10.121326 2.5310333 1.0277411 27
-2.1115198 0.52958816 2.0193572 75
-2.5899906 0.6500746 2.0279264 69
-3.2340713 0.81173956 2.0442383 66
-4.0683308 1.021891 2.0265765 24
-5.4736185 1.3758905 2.0523503 3
-7.9805574 2.0075357 2.0754867 8
-10.162107 2.5563126 1.5518507 12
-10.028448 2.5245514 0.5108344 9
-0.030273726 0.0081465729 1.9991974 39
-0.30471683 0.078444481 2.0008237 93
-0.40103549 0.10226004 2.0131991 87
-0.48904651 0.12435982 1.6593952 39
-0.58610535 0.14894207 1.4842323 69
-1.0266905 0.2607328 2.0077264 79
-1.3425424 0.34095162 2.1070161 30
-1.5679119 0.3981908 2.0127425 76
-0.12276898 0.032815371 2.031014 18
-0.21252334 0.05797153 2.0082631 97
-0.49069414 0.12568578 1.9863992 38
-0.49409091 0.12638022 1.4410939 66
-0.910972 0.23286526 2.0071244 90
-1.1513203 0.29431063 2.0139403 87
-1.4158957 0.36194941 2.0092292 39
-1.7354442 0.44331887 2.0200562 85
-1.9089592 0.48267832 2.0147614 73
-2.3277931 0.58858448 2.0177276 66
-2.8721175 0.72675192 2.0270035 25
-3.6133614 0.91431808 2.0367765 59
-3.3625121 0.85084349 1.4896795 3
-6.5157108 1.6499352 2.0643253 13
-10.137737 2.5690041 2.0770206 18
-10.132185 2.5694792 1.0295259 21
-2.1097519 0.5365873 2.0193572 75
-2.5878203 0.6586597 2.0279264 69
-3.2315049 0.82189572 2.0442383 66
-4.0694985 1.0357865 2.0286746 22
-5.5470672 1.4128954 2.080276 2
-7.9789214 2.0337982 2.076659 10
-10.163172 2.5924456 1.5532304 34
-10.174924 2.5973351 0.51728338 65
-0.030246545 0.0082469191 1.9991974 40
-0.30445504 0.079454534 2.0008237 93
-0.40069419 0.10358936 2.0131991 87
-0.48863143 0.12598087 1.6593952 39
-0.5818246 0.14990985 1.4750273 58
-1.0258201 0.26413599 2.0077264 81
-1.3414043 0.34540179 2.1070161 30
-1.5696872 0.40418741 2.0165794 78
-0.12210076 0.033069979 2.0210309 20
-0.21232994 0.058675967 2.0082631 97
-0.49027464 0.12731229 1.9863992 38
-0.49366912 0.12801799 1.4410939 66
-0.91019475 0.23588489 2.0071244 90
-1.1503381 0.29812697 2.0139403 87
-1.4146876 0.36664271 2.0092292 39
-1.7339644 0.44907135 2.0200562 85
-1.9073482 0.48900601 2.0147614 73
-2.3258288 0.59630048 2.0177276 66
-2.8737421 0.73731142 2.0297451 20
-3.6146002 0.9273963 2.0390942 60
-4.6978331 1.2053216 2.0478432 20
-6.5102034 1.671533 2.0643253 8
-10.143435 2.6062751 2.0798182 12
-10.181488 2.6179469 1.0348804 11
-2.1079609 0.54358047 2.0193572 75
-2.5856221 0.66723764 2.0279264 69
-3.2287619 0.83260721 2.0442383 66
-4.066041 1.0492756 2.0286746 22
-5.5194883 1.4253782 2.0720625 2
-7.9768395 2.0614622 2.0778313 9
-10.164108 2.6286137 1.55461 33
-10.195274 2.638572 0.51849258 59
-0.030217573 0.0083524492 1.9991974 40
-0.30417582 0.080516793 2.0008237 93
-0.40033016 0.10498741 2.0131991 91
-0.48818871 0.12768576 1.6593952 38
-0.57751745 0.15095168 1.4658222 55
-1.024892 0.26771516 2.0077264 81
-1.3401905 0.35008207 2.1070161 30
-1.5682669 0.40966418 2.0165794 78
-0.12169965 0.033440091 2.0160391 24
-0.21211345 0.059453797 2.0082631 96
-0.49102101 0.12942904 1.9912384 37
-0.49319661 0.12982652 1.4410939 66
-0.90936583 0.23906061 2.0071244 92
-1.1492904 0.30214056 2.0139403 87
-1.4133991 0.37157866 2.0092292 39
-1.7323068 0.45542368 2.0200562 85
-1.9056295 0.49566096 2.0147614 73
-2.3237329 0.60441554 2.0177276 66
-2.871151 0.74733812 2.0297451 20
-3.5470312 0.92326838 2.004324 37
-4.6799254 1.2190263 2.0422242 16
-6.5086761 1.696593 2.0657346 7
-10.148536 2.6453836 2.0826163 25
-10.172287 2.653471 1.0348804 7
-2.1060507 0.55093539 2.0193572 75
-2.583277 0.67625904 2.0279264 67
-3.2215178 0.84334385 2.0417061 66
-4.0577774 1.0630213 2.0265765 18
-5.5279312 1.4491913 2.0769906 3
-7.9739308 2.0919182 2.0790036 9
-10.163985 2.6683643 1.5559896 32
-10.209695 2.6822693 0.51950026 44
-0.030186757 0.0084631462 1.9991974 40
-0.30387869 0.081631109 2.0008237 93
-0.39994267 0.10645399 2.0131991 91
-0.48916095 0.12985748 1.6641669 38
-0.57318366 0.15206531 1.4566172 51
-1.0239037 0.2714698 2.0077264 79
-1.3388984 0.35499173 2.1070161 30
-1.5667548 0.41540942 2.0165794 76
-0.12157626 0.033885919 2.0160391 26
-0.21189411 0.060230833 2.0082631 96
-0.49054331 0.13122785 1.9912384 37
-0.49271744 0.13163331 1.4410939 66
-0.90844119 0.24255055 2.0071244 92
-1.1481217 0.30655128 2.0139403 87
-1.414874 0.3777805 2.0132186 39
-1.7305454 0.46207187 2.0200562 85
-1.9038001 0.5026421 2.0147614 73
-2.3215022 0.61292839 2.0177276 66
-2.8724353 0.75892454 2.0324864 27
-3.4793749 0.91928756 1.9695536 16
-4.6664624 1.2338009 2.0384781 13
-6.5024137 1.7204369 2.0657346 13
-10.157298 2.6893609 2.0863466 34
-10.181278 2.6976118 1.0366652 48
-2.1075287 0.55997688 2.022682 75
-2.5806615 0.68617314 2.0279264 67
-3.2182558 0.85570735 2.0417061 66
-4.0536661 1.0785942 2.0265765 18
-5.522326 1.4704064 2.0769906 3
-7.9705372 2.1237721 2.0801759 9
-10.163707 2.7081492 1.5573692 35
-10.219105 2.7248201 0.52030635 21
-0.030158525 0.0085632019 1.9991974 40
-0.30360633 0.082638353 2.0008237 95
-0.39958745 0.10777966 2.0131991 91
-0.48872763 0.13147888 1.6641669 39
-0.57078958 0.15345792 1.4520147 49
-1.0229979 0.27486369 2.0077264 79
-1.3349962 0.35869953 2.1028829 30
-1.5653687 0.42060268 2.0165794 78
-0.12119065 0.034188606 2.0110476 29
-0.21170385 0.060896222 2.0082631 95
-0.49012867 0.13276829 1.9912384 37
-0.49230146 0.13318057 1.4410939 66
-0.90767473 0.24540332 2.0071244 93
-1.147153 0.31015673 2.0139403 87
-1.4136801 0.38222361 2.0132186 37
-1.7291667 0.46720448 2.0200562 86
-1.9021227 0.5089525 2.0147614 73
-2.3194568 0.62062335 2.0177276 66
-2.8699026 0.76844579 2.0324864 35
-3.4805865 0.93196636 1.9718715 16
-4.6759977 1.2520522 2.0440972 12
-6.4969769 1.7408565 2.0657346 14
-10.167777 2.7263463 2.0900772 28
-10.172754 2.729584 1.0366652 26
-2.1057591 0.56659508 2.022682 75
-2.5784931 0.69427717 2.0279264 67
-3.2115393 0.86413211 2.0391736 66
-4.0285358 1.0847169 2.0160861 15
-5.5224991 1.4880137 2.0786333 3
-7.9642005 2.1474118 2.0801759 7
-10.155149 2.7400658 1.5573692 37
-10.215317 2.7582133 0.52050787 11
-0.030128451 0.0086684227 1.9991974 40
-0.303316 0.083697639 2.0008237 95
-0.39920878 0.10917383 2.0131991 91
-0.48826572 0.13318406 1.6641669 39
-0.56836557 0.15493552 1.447412 44
-1.0197207 0.27780318 2.0033376 77
-1.3337359 0.36335734 2.1028829 30
-1.5638911 0.42606425 2.0165794 78
-0.12106453 0.034632564 2.0110476 29
-0.21147922 0.061671745 2.0082631 95
-0.49085155 0.1348972 1.9960775 37
-0.49181002 0.13498405 1.4410939 64
-0.90681255 0.24857019 2.0071244 93
-1.1460633 0.31415913 2.0139403 87
-1.4152439 0.38795277 2.0172081 37
-1.7274427 0.47353905 2.0200562 86
-1.9003346 0.51558906 2.0147614 73
-2.3210332 0.62973535 2.0208654 66
-2.8672028 0.77845889 2.0324864 40
-3.5628209 0.9673264 2.0182323 32
-4.6713777 1.2691821 2.0440972 9
-6.495182 1.765916 2.0671437 13
-10.162939 2.7631109 2.0910099 26
-10.167969 2.7663841 1.0371114 21
-2.1037683 0.57394212 2.022682 75
-2.5760539 0.70327348 2.0279264 67
-3.2041914 0.87476164 2.0366411 65
-4.0508013 1.1066513 2.0286746 15
-5.5261183 1.5107353 2.0819185 3
-7.9609637 2.17787 2.0813482 7
-10.149815 2.7785757 1.5580591 40
-10.185864 2.7903559 0.51970178 9
-0.030098008 0.0087735374 1.9991974 40
-0.303022 0.084755905 2.0008237 95
-0.39882529 0.11056665 2.0131991 91
-0.48923731 0.13528574 1.6689386 39
-0.5678212 0.15691854 1.447412 40
-1.021054 0.28199878 2.0077264 79
-1.3297472 0.36726156 2.0987501 29
-1.5623943 0.43152064 2.0165794 78
-0.12094291 0.035054944 2.0110476 31
-0.21126267 0.062409569 2.0082631 95
-0.49037766 0.13660978 1.9960775 37
-0.49133587 0.13669997 1.4410939 64
-0.9059394 0.25173402 2.0071244 88
-1.1449598 0.3181577 2.0139403 87
-1.4167851 0.39369747 2.0211978 34
-1.7257793 0.47956604 2.0200562 86
-1.9019617 0.52316517 2.018266 73
-2.318821 0.63783348 2.0208654 66
-2.8684995 0.78957224 2.035228 50
-3.5380661 0.97387838 2.0066421 32
-4.6669183 1.2854805 2.0440972 9
-6.4936028 1.7898523 2.068553 13
-10.086933 2.7802949 2.0779531 21
-10.153449 2.8005359 1.0366652 15
-2.101752 0.58128214 2.022682 75
-2.5735831 0.71226132 2.0279264 69
-3.1969635 0.88479114 2.0341086 48
nan nan nan 0
-5.5299134 1.5325383 2.0852039 3
-7.9579978 2.2069445 2.0825205 8
-10.063704 2.7928004 1.547022 18
nan nan nan 0
-0.030067202 0.0088785458 1.9991974 40
-0.30272427 0.085813135 2.0008237 93
-0.3984369 0.11195815 2.0131991 91
-0.48876208 0.13699265 1.6689386 38
-0.56538886 0.15837264 1.4428096 40
-1.0200635 0.2855612 2.0077264 81
-1.325747 0.37114236 2.0946171 29
-1.5608784 0.43697184 2.0165794 78
-0.1208198 0.035476904 2.0110476 33
-0.21104354 0.063146636 2.0082631 95
-0.49110827 0.13866252 2.0009167 37
-0.49085572 0.13841422 1.4410939 64
-0.90505511 0.25489482 2.0071244 92
-1.1438422 0.32215244 2.0139403 87
-1.4183031 0.39945766 2.025187 31
-1.7240947 0.48558721 2.0200562 83
-1.900124 0.52980107 2.018266 73
-2.3165805 0.64592379 2.0208654 67
-2.865726 0.7995804 2.035228 58
-3.5517139 0.99098521 2.0159142 32
-4.6668682 1.3030099 2.0459704 9
-6.4919357 1.8137994 2.069962 7
-10.010931 2.796982 2.0648963 14
-10.071671 2.8158476 1.0299721 10
-2.0997105 0.58861506 2.022682 75
-2.5710816 0.72124046 2.0279264 62
-3.1938558 0.89594525 2.0341086 40
nan nan nan 0
-5.5336227 1.5543861 2.0884893 2
-7.9596043 2.2373407 2.0848651 7
-9.9823856 2.8077989 1.5366749 9
-9.8198843 2.7639403 0.50519156 21
-0.030036025 0.0089834463 1.9991974 40
-0.30242291 0.086869307 2.0008237 93
-0.39804369 0.11334827 2.0131991 89
-0.48828092 0.13869792 1.6689386 38
-0.56483257 0.16034527 1.4428096 39
-1.0190605 0.28912017 2.0077264 81
-1.3217365 0.37499973 2.0904844 27
-1.5624278 0.44329274 2.0204165 78
-0.12069523 0.035898425 2.0110476 35
-0.21082182 0.063882925 2.0082631 95
-0.4906213 0.14037597 2.0009167 37
-0.49036956 0.14012676 1.4410939 62
-0.90415984 0.2580525 2.0071244 92
-1.1427108 0.32614321 2.0139403 87
-1.4197985 0.40523326 2.0291767 29
-1.7223892 0.49160248 2.0200562 85
-1.898263 0.53643054 2.018266 73
-2.3143117 0.65400618 2.0208654 67
-2.8629177 0.80957872 2.035228 61
-3.5524962 1.0045825 2.0182323 32
-4.662291 1.3192924 2.0459704 9
-6.490181 1.8377565 2.0713713 5
-9.9254837 2.8104966 2.0499744 10
-9.9851179 2.8292646 1.0228328 8
-2.0976429 0.59594083 2.022682 73
-2.568548 0.73021084 2.0279264 40
-3.1907086 0.90708834 2.0341086 40
-3.026237 0.86090147 1.5419261 2
-5.5327053 1.5749854 2.090132 2
-7.9610949 2.2677743 2.0872097 7
-9.8820381 2.8168337 1.5235683 18
-9.8534145 2.8105345 0.50700533 9
-0.030002898 0.0090934727 1.9991974 40
-0.30210248 0.087977156 2.0008237 93
-0.39762554 0.11480641 2.0131991 89
-0.4892045 0.14090005 1.6737103 38
-0.56424111 0.16241439 1.4428096 39
-1.017994 0.29285327 2.0077264 79
-1.3149445 0.37828562 2.0822184 27
-1.5607927 0.4490163 2.0204165 78
-0.12056284 0.036340553 2.0110476 36
-0.21058625 0.0646552 2.0082631 95
-0.49131146 0.14252372 2.0057559 37
-0.48985267 0.14192313 1.4410939 62
-0.90316236 0.26152232 2.0071244 95
-1.1389449 0.32980308 2.0096743 87
-1.421127 0.41152024 2.0331662 27
-1.7204889 0.49821234 2.0200562 85
-1.8962841 0.54338443 2.018266 73
-2.3156416 0.66355664 2.0240033 67
-2.859931 0.82006639 2.035228 63
-3.5530484 1.0188172 2.0205503 34
-4.6618805 1.3376503 2.0478432 9
-6.4834018 1.8615319 2.0713713 4
-9.8862925 2.8404481 2.0443788 37
-9.9023886 2.8469439 1.0161396 21
-2.0953393 0.60399079 2.022682 75
-2.5657256 0.7400679 2.0279264 27
-3.1872022 0.91933304 2.0341086 56
-3.0229094 0.87251496 1.5419261 2
-5.5311537 1.5975283 2.0917747 3
-7.9569983 2.2996755 2.0883822 7
-9.8859196 2.8571591 1.5256377 32
-9.8286486 2.8424661 0.5064007 5
-0.029970974 0.0091981478 1.9991974 40
-0.30179355 0.08903116 2.0008237 93
-0.3972224 0.11619367 2.0131991 91
-0.48870966 0.14260684 1.6737103 38
-0.56554621 0.16492999 1.447412 39
-1.0169655 0.29640493 2.0077264 77
-1.3082128 0.38129839 2.0739524 27
-1.5592157 0.45446178 2.0204165 73
-0.12015845 0.03667618 2.0060561 37
-0.21035931 0.065389894 2.0082631 95
-0.49081099 0.14423786 2.0057559 38
-0.48935428 0.14363217 1.4410939 62
-0.90229017 0.26451588 2.0071244 92
-1.137845 0.33357814 2.0096743 85
-1.4226469 0.41707852 2.0371556 26
-1.7188275 0.50391495 2.0200562 85
-1.8943759 0.55000037 2.018266 73
-2.3133113 0.67163569 2.0240033 67
-2.8570509 0.83004451 2.035228 63
-3.5494704 1.0312136 2.0205503 34
-4.6616344 1.3552092 2.0497162 8
-6.4768643 1.8841518 2.0713713 14
-9.8909674 2.8773327 2.0471766 33
-9.9024563 2.8825493 1.017032 18
-2.0933247 0.61093587 2.022682 75
-2.5632572 0.74857211 2.0279264 27
-3.1841362 0.92989719 2.0341086 52
-2.915448 0.85198128 1.491573 3
-5.525826 1.6158615 2.0917747 3
-7.9539938 2.327414 2.0895545 6
-9.8853912 2.8944333 1.5270175 35
-9.8426399 2.883781 0.50740838 3
-0.029980164 0.0093162367 2.0041974 42
-0.30148092 0.090084068 2.0008237 93
-0.39681435 0.11757953 2.0131991 91
-0.48820889 0.14431188 1.6737103 38
-0.56496704 0.16690311 1.447412 39
-1.0159247 0.29995301 2.0077264 79
-1.3014761 0.38426891 2.0656867 27
-1.554545 0.45899385 2.0165794 73
-0.1200297 0.037095387 2.0060561 38
-0.21012977 0.066123784 2.0082631 93
-0.4903045 0.14595023 2.0057559 39
-0.48719582 0.14484762 1.4364011 62
-0.90136135 0.26766387 2.0071244 92
-1.1366737 0.33754793 2.0096743 85
-1.4240717 0.42290002 2.0411453 25
-1.7203078 0.51087689 2.0237315 86
-1.8924445 0.55660963 2.018266 73
-2.3109529 0.67970657 2.0240033 67
-2.8541362 0.84001237 2.035228 63
-3.5458491 1.0435973 2.0205503 37
-4.6613226 1.3727829 2.0515895 8
-6.4702482 1.9067487 2.0713713 14
-9.8855762 2.9132297 2.0481093 34
-9.9114408 2.9227319 1.0188168 14
-2.0911794 0.61823916 2.022682 73
-2.5606284 0.75751501 2.0279264 36
-3.1808705 0.94100624 2.0341086 52
-2.942919 0.87117076 1.5062593 4
-5.5246797 1.6364815 2.0934174 3
-7.9504809 2.3565457 2.0907266 7
-9.8894711 2.9331465 1.5290868 31
-9.9187241 2.9437063 0.51103598 2
-0.029947463 0.0094208308 2.0041974 42
-0.30116466 0.091135897 2.0008237 95
-0.39640152 0.11896396 2.0131991 91
-0.48913297 0.14644361 1.6784821 38
-0.56438094 0.16887419 1.447412 39
-1.0148714 0.3034974 2.0077264 79
-1.2920386 0.38639066 2.0532877 27
-1.5529333 0.4644174 2.0165794 76
-0.11989947 0.037514143 2.0060561 39
-0.20989767 0.066856869 2.0082631 93
-0.48979205 0.14766082 2.0057559 40
-0.48668727 0.14654735 1.4364011 62
-0.90042156 0.27080858 2.0071244 95
-1.1354885 0.3415136 2.0096743 87
-1.425473 0.42873648 2.0451348 23
-1.718514 0.51687872 2.0237315 86
-1.8904899 0.56321204 2.018266 71
-2.3085659 0.68776917 2.0240033 67
-2.8511865 0.84996998 2.035228 63
-3.5421848 1.0559682 2.0205503 38
-4.6653876 1.3916961 2.0553353 8
-6.4589553 1.9279503 2.069962 14
-9.8894682 2.9519341 2.0509071 40
-9.9059486 2.9587367 1.019263 12
-2.0890086 0.62553501 2.022682 73
-2.5579689 0.76644862 2.0279264 46
-3.1940861 0.9570536 2.0442383 62
-4.0614696 1.2177236 2.0475569 31
-5.5189342 1.6557565 2.0934174 3
-7.9468622 2.3856816 2.0918989 7
-9.8886566 2.9704988 1.5304664 30
-9.8605442 2.9639297 0.50902063 3
-0.029914394 0.0095253084 2.0041974 42
-0.30084467 0.0921866 2.0008237 95
-0.39598384 0.12034693 2.0131991 91
-0.48861879 0.1481501 1.6784821 38
-0.56378806 0.17084321 1.447412 39
-1.0138059 0.30703816 2.0077264 81
-1.2852957 0.389267 2.0450218 27
-1.5513029 0.46983531 2.0165794 76
-0.11976779 0.037932441 2.0060561 40
-0.20966302 0.067589141 2.0082631 93
-0.48927364 0.14936963 2.0057559 45
-0.48617274 0.14824533 1.4364011 58
-0.89947075 0.27394995 2.0071244 92
-1.1342894 0.34547511 2.0096743 87
-1.4268508 0.43458784 2.0491242 21
-1.7166994 0.5228743 2.0237315 85
-1.8885124 0.56980771 2.018266 67
-2.3061512 0.69582337 2.0240033 67
-2.8482022 0.85991728 2.035228 63
-3.5384772 1.0683262 2.0205503 38
-4.6649389 1.4093134 2.0572085 8
-6.4521866 1.9504846 2.069962 14
-9.8932114 2.9907014 2.053705 40
-9.9003277 2.9947388 1.0197092 11
-2.0868125 0.63282317 2.022682 73
-2.5552776 0.77537298 2.0279264 67
-3.1535962 0.95693052 2.0214465 35
-4.0528522 1.230575 2.045459 25
-5.5176392 1.6763839 2.0950599 3
-7.9384861 2.4134066 2.0918989 7
-9.8924417 3.0093224 1.5325359 35
-9.8262396 2.9910569 0.50801295 9
-0.029839624 0.0096157119 1.9991974 40
-0.30052105 0.093236186 2.0008237 92
-0.39556134 0.12172845 2.0131991 91
-0.48952645 0.15029322 1.6832538 39
-0.56132066 0.17223702 1.4428096 39
-1.012728 0.31057513 2.0077264 81
-1.275858 0.39127588 2.0326231 26
-1.5496533 0.47524753 2.0165794 76
-0.11963465 0.038350277 2.0060561 44
-0.20942579 0.068320587 2.0082631 93
-0.48874927 0.1510766 2.0057559 55
-0.4856523 0.14994147 1.4364011 58
-0.89850897 0.27708802 2.0071244 90
-1.1330765 0.34943241 2.0096743 85
-1.4282051 0.44045407 2.0531137 21
-1.7148635 0.52886355 2.0237315 85
-1.886512 0.57639629 2.018266 67
-2.3037083 0.70386904 2.0240033 67
-2.8411846 0.86863166 2.0324864 64
-3.5347266 1.0806713 2.0205503 36
-4.6688571 1.428301 2.0609546 8
-6.4453387 1.9729948 2.069962 12
-9.8921041 3.0280924 2.0555701 37
-9.8993368 3.0321963 1.0206017 47
-2.0845907 0.6401037 2.022682 73
-2.5525556 0.78428781 2.0279264 67
-2.9771507 0.91475075 1.9150846 13
-4.048532 1.2447146 2.045459 25
-5.5162673 1.6970223 2.0967026 2
-7.934659 2.4425325 2.0930712 7
-9.8960752 3.0482085 1.5346054 52
-9.7632217 3.0091527 0.50579613 16
-0.029805876 0.0097198123 1.9991974 42
-0.30019379 0.094284616 2.0008237 92
-0.39513403 0.12310848 2.0131991 93
-0.49042502 0.15244447 1.6880255 39
-0.56071597 0.17419535 1.4428096 39
-1.0116377 0.31410831 2.0077264 79
-1.2717969 0.3948926 2.0284901 26
-1.547985 0.48065391 2.0165794 76
-0.11950006 0.038767647 2.0060561 44
-0.20918605 0.069051206 2.0082631 93
-0.48821893 0.15278172 2.0057559 60
-0.48512593 0.15163583 1.4364011 50
-0.89753628 0.28022274 2.0071244 92
-1.13185 0.35338545 2.0096743 85
-1.429536 0.44633508 2.0571032 20
-1.7097712 0.53383589 2.0200562 85
-1.8844885 0.58297801 2.018266 73
-2.297518 0.71075565 2.0208654 64
-2.838135 0.87854391 2.0324864 59
-3.5351648 1.0943133 2.0228682 36
-4.6726999 1.4473327 2.0647006 8
-6.4384122 1.9954813 2.069962 12
-9.8908577 3.0655122 2.0574355 37
-9.8982058 3.0696831 1.021494 43
-2.0823436 0.64737636 2.022682 75
-2.5498023 0.7931931 2.0279264 67
-2.9698229 0.92385674 1.9125521 13
-4.0398288 1.2574902 2.0433607 26
-5.5103102 1.7162673 2.0967026 2
-7.9307261 2.4716611 2.0942435 6
-9.8948298 3.0856824 1.535985 51
-9.7717342 3.0491667 0.50660223 71
-0.029771768 0.0098237954 1.9991974 42
-0.29986283 0.095331922 2.0008237 92
-0.3947019 0.124487 2.0131991 87
-0.48988989 0.15415545 1.6880255 39
-0.56010455 0.17615156 1.4428096 39
-1.010535 0.31763765 2.0077264 79
-1.2650416 0.39764184 2.0202241 25
-1.5462978 0.48605445 2.0165794 76
-0.11908904 0.039093766 2.0010643 47
-0.20894372 0.069780983 2.0082631 91
-0.48888171 0.15486489 2.0105951 67
-0.48459369 0.1533283 1.4364011 48
-0.89655268 0.28335401 2.0071244 92
-1.1330963 0.35812023 2.0139403 87
-1.430843 0.45223066 2.0610926 19
-1.7078972 0.53980088 2.0200562 85
-1.8858454 0.59061843 2.0217705 73
-2.295023 0.71877116 2.0208654 64
-2.8350511 0.8884455 2.0324864 51
-3.5228686 1.1039971 2.0182323 38
-4.6764665 1.4664091 2.0684466 7
-6.4314075 2.0179436 2.069962 12
-9.8941584 3.1044314 2.0602334 37
-9.8969326 3.1071992 1.0223866 38
-2.0800712 0.65464115 2.022682 73
-2.5470183 0.80208874 2.0279264 67
-3.1022811 0.97695214 1.9961221 29
-4.0397434 1.272948 2.045459 28
-5.50879 1.7369115 2.0983455 3
-7.9313197 2.502254 2.0965884 6
-9.8981667 3.1246755 1.5380545 34
-9.7657957 3.0847628 0.50680381 29
-0.029737296 0.0099276584 1.9991974 42
-0.29952821 0.096378058 2.0008237 92
-0.39426494 0.125864 2.0131991 87
-0.49077189 0.15631787 1.6927972 38
-0.56134778 0.17869827 1.447412 39
-1.0094202 0.32116315 2.0077264 81
-1.2609645 0.40120208 2.0160913 25
-1.5445917 0.49144909 2.0165794 76
-0.11895186 0.039509226 2.0010643 49
-0.20869888 0.070509903 2.0082631 91
-0.48833814 0.15657048 2.0105951 73
-0.48569897 0.15554528 1.4410939 42
-0.89555812 0.28648183 2.0071244 93
-1.1318393 0.36207324 2.0139403 87
-1.4292557 0.45722243 2.0610926 19
-1.7060025 0.5457592 2.0200562 85
-1.8837723 0.59719765 2.0217705 73
-2.2925 0.72677791 2.0208654 56
-2.8319328 0.89833629 2.0324864 39
-3.531662 1.1203061 2.0251863 36
-4.6845746 1.4869316 2.0740657 7
-6.424324 2.0403807 2.069962 13
-9.8926258 3.141923 2.0620987 37
-9.8907728 3.1432354 1.0228328 34
-2.0813317 0.66303152 2.0260069 75
-2.5442028 0.8109746 2.0279264 67
-3.1481431 1.003487 2.0265114 36
-4.0352755 1.2870415 2.045459 28
-5.5071921 1.757566 2.0999882 2
-7.9271674 2.5314031 2.0977607 5
-9.8966331 3.1622217 1.5394341 30
-9.7644863 3.1218755 0.50720686 23
-0.02970246 0.0100314 1.9991974 42
-0.29918998 0.097423017 2.0008237 93
-0.39382318 0.12723948 2.0131991 91
-0.49022326 0.15803003 1.6927972 38
-0.5607205 0.18065666 1.447412 39
-1.0082929 0.32468471 2.0077264 79
-1.2595564 0.4056012 2.0160913 24
-1.5428668 0.49683771 2.0165794 76
-0.11881322 0.039924204 2.0010643 55
-0.20845148 0.071237974 2.0082631 91
-0.48778862 0.15827414 2.0105951 80
-0.48515305 0.15723975 1.4410939 40
-0.89455259 0.28960615 2.0071244 93
-1.1305685 0.3660219 2.0139403 87
-1.4305185 0.46313709 2.0650823 19
-1.704087 0.55171096 2.0200562 85
-1.8816762 0.60376966 2.0217705 71
-2.2936561 0.73596531 2.0240033 40
-2.8287797 0.90821618 2.0324864 39
-3.5192935 1.1299185 2.0205503 27
-4.6881838 1.5061107 2.077812 7
-6.4171634 2.0627935 2.069962 13
-9.895627 3.1809454 2.0648963 36
-9.8892221 3.1807909 1.0237252 39
-2.0790048 0.67029268 2.0260069 73
-2.5413563 0.81985056 2.0279264 67
-3.1446211 1.01447 2.0265114 36
-4.0307584 1.3011194 2.045459 30
-5.505517 1.7782304 2.1016307 2
-7.904408 2.5545745 2.0942435 7
-9.8949585 3.1997955 1.5408137 41
-9.7582827 3.1574793 0.50740838 53
-0.029667262 0.010135019 1.9991974 45
-0.29884812 0.098466791 2.0008237 93
-0.39337665 0.1286134 2.0131991 91
-0.48966864 0.15974028 1.6927972 38
-0.56008649 0.18261284 1.447412 39
-1.0071534 0.32820237 2.0077264 81
-1.2554574 0.40912348 2.0119584 24
-1.5441713 0.50321364 2.0204165 76
-0.11867314 0.040338699 2.0010643 56
-0.20820156 0.071965173 2.0082631 91
-0.48723319 0.15997587 2.0105951 84
-0.48624089 0.15947013 1.4457866 38
-0.89353627 0.29272696 2.0071244 92
-1.1292839 0.36996609 2.0139403 87
-1.4317572 0.46906605 2.0690715 19
-1.7021508 0.55765593 2.0200562 85
-1.8795573 0.61033422 2.0217705 71
-2.2910731 0.74396712 2.0240033 24
-2.8295689 0.91937697 2.035228 63
-2.6263051 0.85333526 1.5314465 5
-4.6961241 1.5267662 2.083431 8
-6.4099231 2.085181 2.069962 13
-9.8984776 3.2200272 2.0676944 44
-9.8922644 3.2199154 1.0250638 45
-2.0766523 0.67754573 2.0260069 73
-2.5384791 0.82871658 2.0279264 67
-3.1410611 1.0254406 2.0265114 39
-4.0305057 1.3165907 2.0475569 28
-5.5082541 1.8003719 2.1049161 2
-7.8815823 2.5776174 2.0907266 7
-9.8931417 3.237396 1.5421933 54
-9.7566977 3.1946321 0.50781149 63
-0.029631704 0.010238517 1.9991974 42
-0.29776552 0.099263467 1.9958843 93
-0.39292529 0.12998575 2.0131991 89
-0.48910809 0.16144855 1.6927972 38
-0.55944574 0.18456678 1.447412 39
-1.0060017 0.33171597 2.0077264 81
-1.2540216 0.41350335 2.0119584 24
-1.5424054 0.50860077 2.0204165 76
-0.11853161 0.040752698 2.0010643 62
-0.20794907 0.072691485 2.0082631 91
-0.48667181 0.16167565 2.0105951 86
-0.48568127 0.16116644 1.4457866 37
-0.89250904 0.2958442 2.0071244 92
-1.1279857 0.37390578 2.0139403 87
-1.4301112 0.47406095 2.0690715 19
-1.7001939 0.56359416 2.0200562 85
-1.8774152 0.61689138 2.0217705 71
-2.2884622 0.75195992 2.0240033 24
-2.8263423 0.92924845 2.035228 64
-2.6317275 0.86526501 1.5360825 3
-4.6995735 1.5460469 2.087177 8
-6.4071627 2.1090431 2.0713713 15
-9.8965092 3.2576315 2.0695596 53
-9.8904247 3.2575421 1.0259562 52
-2.0742745 0.68479049 2.0260069 75
-2.5355709 0.83757252 2.0279264 69
-3.133369 1.0350465 2.0239789 44
-4.0258851 1.3306518 2.0475569 28
-5.5064197 1.8210711 2.1065588 2
-7.8633084 2.6020598 2.0883822 8
-9.8911839 3.2750235 1.543573 63
-9.7549715 3.231812 0.50821447 23
-0.029595785 0.010341888 1.9991974 45
-0.29741719 0.10030226 1.9958843 93
-0.39246917 0.13135654 2.0131991 89
-0.48995811 0.16362804 1.6975689 38
-0.55879802 0.18651851 1.447412 39
-1.0048376 0.33522555 2.0077264 79
-1.2525705 0.41787815 2.0119584 25
-1.5406206 0.5139817 2.0204165 76
-0.11838862 0.041166205 2.0010643 62
-0.2071909 0.07323835 2.0032918 93
-0.48610446 0.16337347 2.0105951 89
-0.48675168 0.1634101 1.4504794 36
-0.89147091 0.29895782 2.0071244 92
-1.1266737 0.37784088 2.0139403 87
-1.4313053 0.48000842 2.0730612 18
-1.6982162 0.56952554 2.0200562 85
-1.8752505 0.62344104 2.0217705 71
-2.2858236 0.7599436 2.0240033 27
-2.8191137 0.93778872 2.0324864 58
-2.5824502 0.85906392 1.5105842 3
-4.7029457 1.5653702 2.0909231 7
-6.3997617 2.1313956 2.0713713 15
-9.9037199 3.2983656 2.0732899 52
-9.8931684 3.2967699 1.0272949 54
-2.0718715 0.69202679 2.0260069 73
-2.5326316 0.84641814 2.0279264 69
-3.1297367 1.0459776 2.0239789 39
-4.0212159 1.3446966 2.0475569 30
-5.508986 1.8432778 2.1098442 2
-7.8403502 2.6248629 2.0848651 9
-9.8937788 3.314249 1.5456424 58
-9.7531042 3.2690189 0.50861758 16
-0.029559504 0.010445134 1.9991974 45
-0.29706529 0.10133983 1.9958843 92
-0.39200824 0.1327257 2.0131991 93
-0.48938397 0.16533731 1.6975689 38
-0.55629259 0.18784288 1.4428096 39
-1.0036613 0.33873105 2.0077264 81
-1.2511042 0.42224795 2.0119584 26
-1.538817 0.51935631 2.0204165 76
-0.11824422 0.041579206 2.0010643 66
-0.20693398 0.073961131 2.0032918 91
-0.48553124 0.1650693 2.0105951 95
-0.48617828 0.16510817 1.4504794 34
-0.89042193 0.30206785 2.0071244 92
-1.1253479 0.38177139 2.0139403 87
-1.4324752 0.48596999 2.0770507 18
-1.6962179 0.57544988 2.0200562 85
-1.8730628 0.62998301 2.0217705 69
-2.2831566 0.76791793 2.0240033 39
-2.7563777 0.92761791 1.9913646 38
-2.5836349 0.86948615 1.5129023 3
-4.7062397 1.5847359 2.0946691 6
-6.392283 2.1537218 2.0713713 14
-9.9014568 3.3360527 2.0751553 53
-9.8957577 3.3360558 1.0286335 57
-2.0694432 0.69925475 2.0260069 73
-2.5296617 0.85525352 2.0279264 69
-3.1260664 1.0568961 2.0239789 38
-4.0164976 1.3587251 2.0475569 25
-5.5025187 1.8624965 2.1098442 2
-7.8311396 2.6522145 2.0848651 8
-9.8962193 3.3535326 1.5477118 62
-9.755827 3.3078563 0.50922215 16
-0.029522862 0.010548252 1.9991974 45
-0.29670972 0.10237616 1.9958843 93
-0.39154255 0.13409325 2.0131991 93
-0.48880383 0.16704458 1.6975689 38
-0.55563354 0.18978354 1.4428096 39
-1.0024728 0.34223241 2.0077264 79
-1.2522858 0.42752174 2.0160913 28
-1.5369948 0.5247246 2.0204165 74
-0.11809836 0.041991703 2.0010643 66
-0.20667456 0.074683011 2.0032918 93
-0.48495206 0.16676311 2.0105951 95
-0.48723108 0.16736493 1.4551722 33
-0.88936204 0.30517414 2.0071244 93
-1.1240083 0.38569731 2.0139403 85
-1.4336208 0.49194556 2.0810401 18
-1.6941988 0.58136731 2.0200562 85
-1.8708524 0.63651747 2.0217705 67
-2.2767766 0.774629 2.0208654 64
-2.6818726 0.91297823 1.9420182 18
-2.5512266 0.86850548 1.4966761 4
-4.709456 1.6041437 2.0984151 7
-6.3892665 2.1775696 2.0727806 12
-9.9129992 3.3785181 2.0798182 44
-9.8981924 3.3754003 1.0299721 57
-2.0669899 0.70647424 2.0260069 73
-2.5266609 0.86407852 2.0279264 69
-3.1182787 1.0664065 2.0214465 38
-4.0117302 1.3727371 2.0475569 25
-5.442369 1.8633363 2.090132 7
-7.8172359 2.677959 2.0836928 8
-9.8985081 3.3928738 1.5497813 73
-9.7442217 3.3418906 0.50922215 7
-0.029485863 0.010651242 1.9991974 45
-0.29635057 0.10341126 1.9958843 95
-0.39107212 0.13545918 2.0131991 89
-0.48962933 0.16923776 1.7023406 39
-0.5549677 0.19172192 1.4428096 39
-1.0012721 0.34572959 2.0077264 79
-1.2507858 0.4318904 2.0160913 30
-1.5351539 0.53008652 2.0204165 78
-0.11795105 0.042403687 2.0010643 67
-0.2064126 0.075403988 2.0032918 93
-0.48436701 0.1684549 2.0105951 97
-0.48664391 0.16906467 1.4551722 31
-0.88829142 0.30827674 2.0071244 93
-1.1226553 0.38961846 2.0139403 85
-1.4318949 0.49694684 2.0810401 18
-1.6921592 0.58727765 2.0200562 85
-1.8686191 0.64304405 2.0217705 58
-2.2740591 0.78257173 2.0208654 73
-2.6786695 0.92233419 1.9420182 19
-2.5188577 0.86730933 1.48045 5
-4.7125936 1.6235931 2.1021612 7
-6.3816266 2.1998589 2.0727806 11
-9.8918571 3.4098988 2.0779531 41
-9.9051819 3.4164262 1.031757 73
-2.0645113 0.7136851 2.0260069 75
-2.5236294 0.87289298 2.0279264 69
-3.1145375 1.0772848 2.0214465 38
-4.0069137 1.3867322 2.0475569 31
-5.3822823 1.8637791 2.0704198 4
-7.8078399 2.7052298 2.0836928 8
-9.9006395 3.4322712 1.5518507 76
-9.7749777 3.390619 0.51103598 6
-0.029448505 0.010754101 1.9991974 47
-0.29598778 0.10444508 1.9958843 93
-0.39059693 0.13682345 2.0131991 91
-0.48903558 0.17094587 1.7023406 39
-0.55613929 0.19430235 1.447412 40
-1.0000591 0.3492226 2.0077264 79
-1.2492707 0.43625385 2.0160913 31
-1.5332942 0.53544199 2.0204165 78
-0.11753034 0.042715784 1.9960728 67
-0.20664875 0.076309629 2.0082631 93
-0.48377603 0.17014462 2.0105951 97
-0.48767889 0.17133442 1.459865 30
-0.88720995 0.31137556 2.0071244 93
-1.1212883 0.3935349 2.0139403 87
-1.4329953 0.50294018 2.0850296 18
-1.6900989 0.59318078 2.0200562 85
-1.8697311 0.65073502 2.025275 48
-2.2713134 0.79050487 2.0208654 71
-2.7228198 0.94818044 1.9749157 31
-2.4823446 0.86444098 1.4619058 5
-4.7112761 1.6415588 2.1040342 6
-6.373909 2.2221217 2.0727806 12
-9.8798952 3.4444072 2.0779531 46
-9.9073029 3.4559014 1.0330956 74
-2.0620074 0.72088724 2.0260069 73
-2.5205672 0.88169676 2.0279264 64
-3.1107581 1.08815 2.0214465 39
-4.002049 1.4007105 2.0475569 31
-5.3757439 1.8825554 2.0704198 4
-7.7937622 2.7308605 2.0825205 9
-9.9072933 3.4733639 1.55461 66
-9.7395105 3.4164503 0.5100283 3
-0.029370068 0.010841152 1.9941976 47
-0.29635313 0.1057389 2.0008237 93
-0.39011693 0.13818604 2.0131991 91
-0.48984408 0.17314969 1.7071123 39
-0.55545771 0.19624247 1.447412 40
-0.99883407 0.35271135 2.0077264 81
-1.2477403 0.44061196 2.0160913 35
-1.5314158 0.54079098 2.0204165 71
-0.11738051 0.043125782 1.9960728 69
-0.20638113 0.077030502 2.0082631 93
-0.48317915 0.17183229 2.0105951 97
-0.48707786 0.17303568 1.459865 29
-0.88611758 0.31447065 2.0071244 95
-1.1199079 0.39744651 2.0139403 87
-1.431231 0.50793922 2.0850296 19
-1.691213 0.60021067 2.0237315 85
-1.8674482 0.65725768 2.025275 38
-2.2685401 0.79842842 2.0208654 73
-2.7392135 0.96462369 1.988623 42
-2.4625974 0.8672145 1.4526336 6
-4.7098894 1.6595346 2.1059072 7
-6.3706374 2.2459524 2.0741897 13
-9.8585453 3.4756069 2.076088 31
-9.9092684 3.4954336 1.0344342 72
-2.0594785 0.72808057 2.0260069 73
-2.5174739 0.89048982 2.0279264 62
-3.1110053 1.1004399 2.0239789 49
-3.9971356 1.4146717 2.0475569 32
-5.3735914 1.9028852 2.0720625 16
-7.7841821 2.758049 2.0825205 9
-9.9091101 3.5128891 1.5566794 65
-9.7604856 3.4621184 0.51143897 61
-0.029372711 0.010959428 1.9991974 47
-0.29598224 0.10677273 2.0008237 93
-0.38963217 0.13954698 2.0131991 91
-0.49064302 0.17536123 1.711884 38
-0.55476934 0.19818017 1.447412 40
-0.99759674 0.35619575 2.0077264 81
-1.2461945 0.44496468 2.0160913 38
-1.5295187 0.54613328 2.0204165 71
-0.11722926 0.043535255 1.9960728 67
-0.20611098 0.077750437 2.0082631 93
-0.4825764 0.17351785 2.0105951 97
-0.48809493 0.17531827 1.4645576 29
-0.88501447 0.31756184 2.0071244 93
-1.1185136 0.4013533 2.0139403 89
-1.4322861 0.51395005 2.0890193 19
-1.6891075 0.60611039 2.0237315 85
-1.8685025 0.66496801 2.0287795 35
-2.2657392 0.80634224 2.0208654 73
-2.7752213 0.98820603 2.0160377 42
-2.4094729 0.85797173 1.4248173 6
-4.7084351 1.6775211 2.1077805 8
-6.3672776 2.2697871 2.075599 11
-9.8417263 3.5083489 2.0751553 26
-9.9110785 3.5350211 1.0357729 48
-2.0569243 0.73526508 2.0260069 67
-2.5143504 0.89927202 2.0279264 58
-3.1071451 1.1112926 2.0239789 47
-3.9921727 1.4286157 2.0475569 34
-5.3624701 1.9200391 2.0704198 22
-7.7699313 2.7835648 2.0813482 9
-9.9107733 3.5524704 1.558749 59
nan nan nan 0
-0.029334275 0.01106189 1.9991974 47
-0.29560769 0.10780525 2.0008237 93
-0.38914269 0.14090618 2.0131991 91
-0.4900279 0.17707282 1.711884 38
-0.55407417 0.20011549 1.447412 40
-0.99409389 0.35886231 2.0033376 81
-1.2446338 0.449312 2.0160913 44
-1.5276031 0.55146897 2.0204165 76
-0.11707658 0.043944195 1.9960728 69
-0.20583834 0.078469425 2.0082631 91
-0.48196781 0.1752013 2.0105951 97
-0.48747998 0.17702097 1.4645576 29
-0.88390058 0.32064921 2.0071244 93
-1.1171058 0.40525523 2.0139403 87
-1.4304835 0.51894653 2.0890193 20
-1.6869816 0.61200285 2.0237315 85
-1.8661699 0.67148626 2.0287795 30
-2.2629108 0.81424624 2.0208654 73
-2.7717547 0.99788743 2.0160377 43
-2.3897903 0.86037451 1.4155452 6
-4.706912 1.6955175 2.1096535 7
-6.3638291 2.2936258 2.077008 10
-9.8710108 3.557672 2.0835488 47
-9.9127321 3.5746636 1.0371114 42
-2.057857 0.74370974 2.0293317 52
-2.5149972 0.90941775 2.0308697 58
-3.1113555 1.1250638 2.0290439 38
-3.9871616 1.4425422 2.0475569 31
-5.3557348 1.9387459 2.0704198 21
-7.7555981 2.8090148 2.0801759 11
-9.9076242 3.5904186 1.5601286 57
-9.7642584 3.5403922 0.51264822 5
-0.029295484 0.011164218 1.9991974 49
-0.29522958 0.10883646 2.0008237 95
-0.38864848 0.1422637 2.0131991 91
-0.49080968 0.17929482 1.7166559 38
-0.5533722 0.20204833 1.447412 40
-0.99283522 0.36233023 2.0033376 79
-1.2430578 0.45365387 2.0160913 56
-1.5256689 0.55679792 2.0204165 78
-0.11692247 0.044352602 1.9960728 71
-0.20556316 0.07918746 2.0082631 91
-0.48135331 0.17688261 2.0105951 97
-0.48685908 0.1787215 1.4645576 29
-0.88277596 0.32373261 2.0071244 93
-1.1156845 0.40915215 2.0139403 87
-1.4286633 0.52393669 2.0890193 20
-1.684835 0.61788779 2.0237315 85
-1.8638147 0.67799634 2.0287795 26
-2.2600548 0.82214034 2.0208654 73
-2.7643256 1.0061264 2.0132964 40
-2.3826094 0.8671959 1.4132272 6
-4.7053208 1.7135236 2.1115263 7
-6.3602915 2.3174682 2.0784173 12
-9.8816099 3.6005149 2.0882118 48
-9.9142313 3.6143613 1.0384501 54
-2.0552485 0.75088847 2.0293317 36
-2.5118074 0.91819119 2.0308697 69
-3.075016 1.124076 2.0087843 32
-3.9821022 1.4564514 2.0475569 30
-5.3445001 1.9558061 2.0687771 24
-7.7457457 2.8360701 2.0801759 11
-9.9089804 3.6300907 1.5621979 68
-9.7612219 3.5778925 0.51305121 23
-0.029256335 0.01126641 1.9991974 47
-0.29484791 0.10986634 2.0008237 92
-0.38814953 0.14361948 2.0131991 93
-0.49018085 0.18100698 1.7166559 38
-0.55266356 0.20397873 1.447412 40
-0.99156439 0.36579365 2.0033376 81
-1.2414668 0.45799017 2.0160913 69
-1.5237159 0.56212014 2.0204165 80
-0.11676694 0.044760466 1.9960728 71
-0.2052855 0.079904526 2.0082631 88
-0.48073292 0.17856178 2.0105951 97
-0.4878501 0.18102026 1.4692504 30
-0.88164049 0.32681209 2.0071244 93
-1.1166947 0.41395062 2.0182064 87
-1.4296515 0.52996808 2.0930085 21
-1.6826679 0.62376517 2.0237315 83
-1.8614366 0.68449813 2.0287795 26
-2.2571712 0.83002442 2.0208654 73
-2.7568724 1.0143256 2.0105548 40
-3.4647331 1.2747704 2.0182323 29
-4.7036614 1.7315392 2.1133995 6
-6.3566647 2.3413136 2.0798266 10
-9.8920298 3.6434753 2.092875 48
-9.9155722 3.6541121 1.0397887 67
-2.0561182 0.75935191 2.0326567 21
-2.5085871 0.92695343 2.0308697 69
-3.0468097 1.1258371 1.9935898 16
-3.9769936 1.4703424 2.0475569 30
-5.3376408 1.97445 2.0687771 22
-7.7357988 2.8630903 2.0801759 10
-9.9055367 3.6680973 1.5635777 69
-9.7533569 3.6136799 0.51325279 15
-0.02921683 0.011368467 1.9991974 51
-0.29446259 0.11089487 2.0008237 92
-0.38764581 0.14497349 2.0131991 93
-0.48954603 0.18271692 1.7166559 38
-0.55194819 0.20590664 1.447412 40
-0.99252623 0.37008965 2.0077264 81
-1.2398604 0.46232089 2.0160913 75
-1.5217444 0.56743544 2.0204165 78
-0.11660998 0.045167789 1.9960728 73
-0.20500533 0.080620617 2.0082631 89
-0.48010668 0.18023875 2.0105951 97
-0.48721525 0.18272206 1.4692504 33
-0.88253355 0.33065167 2.0116253 95
-1.115243 0.41784611 2.0182064 87
-1.4277929 0.5349552 2.0930085 23
