# .PCD v0.7 - Point Cloud Data file format
VERSION 0.7
FIELDS x y z intensity
SIZE 4 4 4 4
TYPE F F F F
COUNT 1 1 1 1
WIDTH 1369
HEIGHT 1
VIEWPOINT 0 0 0 1 0 0 0
POINTS 1369
DATA ascii
3.114929 -0.79050982 1.9733303 69
3.9468715 -1.002375 1.9699289 56
5.2548809 -1.3355434 1.975144 29
5.7188725 -1.4545312 1.5139464 100
5.9364562 -1.5109743 0.9455027 95
5.9546189 -1.5167038 0.34154844 86
0.030250859 -0.0082310829 1.9991974 36
0.30900785 -0.080471061 2.0304592 98
0.39877656 -0.10287072 2.0034087 87
0.58850044 -0.15140583 1.9886441 86
0.79571122 -0.20458142 1.9951125 86
1.0166767 -0.26121405 1.9901714 87
1.2652711 -0.32509118 1.9912933 87
1.6351047 -0.42011979 2.0971551 62
0.12099472 -0.032723099 2.0010643 38
0.22058247 -0.060884815 2.0878057 98
0.4927541 -0.12777275 1.9960775 93
0.68916863 -0.17846657 1.9901476 91
0.90188462 -0.23322731 1.9891212 96
1.1353441 -0.2936067 1.9883448 91
1.4061255 -0.36363819 1.9972607 15
1.7406853 -0.45016387 2.0274065 39
1.9732487 -0.50480109 2.0813477 52
2.2771125 -0.58254009 1.9769365 69
2.7809596 -0.71195465 1.9666914 67
3.5893347 -0.91891128 2.0251863 12
4.4871831 -1.1496061 1.9598107 7
5.7161484 -1.465528 1.8233528 97
5.9288988 -1.5200739 1.2535168 9
5.9523764 -1.5272005 0.64355433 91
2.0720799 -0.533171 1.9861088 79
2.5115993 -0.64673311 1.9720063 75
3.1121507 -0.80137813 1.9733303 68
3.9433486 -1.0161461 1.9699289 55
5.2547598 -1.3550575 1.9767867 27
5.7184668 -1.4756994 1.5151187 100
5.9359398 -1.5329252 0.94619244 88
5.9589629 -1.5399803 0.34195149 87
0.030221941 -0.0083366279 1.9991974 35
0.30947626 -0.081747822 2.0353985 103
0.39841503 -0.10426208 2.0034087 87
0.58796835 -0.15345916 1.9886441 86
0.79499227 -0.20735772 1.9951125 84
1.0157586 -0.26476133 1.9901714 87
1.2641287 -0.32950583 1.9912933 87
1.6367306 -0.42663345 2.1009922 66
0.12087975 -0.033145253 2.0010643 38
0.22036859 -0.061654419 2.0878057 96
0.4923051 -0.129492 1.9960775 93
0.68854147 -0.18087111 1.9901476 89
0.90106505 -0.23637405 1.9891212 95
1.1343125 -0.29756802 1.9883448 91
1.4048477 -0.36854428 1.9972607 15
1.7391033 -0.45623726 2.0274065 45
1.9714746 -0.51168597 2.0813477 48
2.2750652 -0.59048516 1.9769365 69
2.7784574 -0.72165763 1.9666914 67
3.5861053 -0.93143487 2.0251863 13
4.4831429 -1.1652622 1.9598107 7
5.715641 -1.4866799 1.824762 99
5.9330649 -1.5432336 1.2553821 78
5.951829 -1.5492234 0.64400053 91
2.0702059 -0.54040068 1.9861088 79
2.5093262 -0.6554963 1.9720063 75
3.1093342 -0.81223673 1.9733303 69
3.9441686 -1.0310526 1.9720269 56
5.2545662 -1.3745868 1.9784293 24
5.7226849 -1.4981134 1.5174633 100
5.9353437 -1.5548915 0.94688231 86
5.958384 -1.5620387 0.34215304 87
0.030192658 -0.0084420722 1.9991974 35
0.30993953 -0.083028845 2.0403376 102
0.39804867 -0.10565218 2.0034087 87
0.58742905 -0.15551062 1.9886441 86
0.7942636 -0.2101315 1.9951125 83
1.0148283 -0.26830539 1.9901714 87
1.2629707 -0.33391646 1.9912933 84
1.6228338 -0.42906624 2.0856445 39
0.12076332 -0.033566996 2.0010643 37
0.22015204 -0.062423278 2.0878057 86
0.49185011 -0.13120967 1.9960775 95
0.68623835 -0.18282916 1.9854547 89
0.9002344 -0.23951791 1.9891212 95
1.1332668 -0.30152571 1.9883448 91
1.4035527 -0.37344584 1.9972607 18
1.7375002 -0.4623051 2.0274065 64
1.9731251 -0.51947248 2.0848522 40
2.2729902 -0.59842306 1.9769365 69
2.7759216 -0.73135191 1.9666914 67
3.5828321 -0.94394702 2.0251863 13
4.4790483 -1.1809043 1.9598107 7
5.715055 -1.5078459 1.8261713 99
5.9371409 -1.5664406 1.2572473 77
5.9560151 -1.5725323 0.64489299 92
2.0683074 -0.54762375 1.9861088 79
2.5070229 -0.66425139 1.9720063 75
3.1064801 -0.82308531 1.9733303 70
3.9405456 -1.044814 1.9720269 58
5.2543006 -1.3941314 1.980072 24
5.7221193 -1.5193276 1.5186357 100
5.9394526 -1.5781435 0.94826198 87
5.9577227 -1.5841113 0.34235457 86
0.030163005 -0.0085474122 1.9991974 34
0.30964783 -0.084110215 2.0403376 102
0.39767742 -0.10704098 2.0034087 87
0.58688265 -0.15756017 1.9886441 84
0.79352522 -0.21290272 1.9951125 81
1.0138855 -0.27184618 1.9901714 89
1.2617974 -0.338323 1.9912933 84
1.6120366 -0.43223748 2.0741336 39
0.12064541 -0.033988338 2.0010643 37
0.21993278 -0.063191362 2.0878057 67
0.4913891 -0.13292575 1.9960775 95
0.68559599 -0.18522346 1.9854547 89
0.8993929 -0.24265887 1.9891212 95
1.1347253 -0.30615908 1.9926107 95
1.4022405 -0.3783429 1.9972607 25
1.735876 -0.46836728 2.0274065 71
1.9712995 -0.52635682 2.0848522 39
2.2708871 -0.60635364 1.9769365 71
2.7733517 -0.74103725 1.9666914 67
3.5795155 -0.95644772 2.0251863 12
4.4704194 -1.1953341 1.9579377 8
5.7190256 -1.530266 1.8289896 98
5.9411283 -1.5896952 1.2591126 75
5.9552999 -1.594601 0.64533913 82
2.0627761 -0.55387163 1.9827838 79
2.504689 -0.67299855 1.9720063 75
3.1035883 -0.833924 1.9733303 69
3.9368746 -1.0585628 1.9720269 57
5.253962 -1.4136909 1.9817147 20
5.7214742 -1.5405562 1.5198081 100
5.9386892 -1.6001549 0.94895172 88
5.9569807 -1.6061987 0.34255609 85
0.030132983 -0.008652648 1.9991974 34
0.31010136 -0.085397042 2.0452769 101
0.39730138 -0.10842849 2.0034087 87
0.5863291 -0.15960781 1.9886441 84
0.79277724 -0.21567133 1.9951125 81
1.0129304 -0.27538362 1.9901714 87
1.2633243 -0.34346375 1.9954264 78
1.5981436 -0.43449751 2.0587859 52
0.12052604 -0.034409259 2.0010643 36
0.22022335 -0.064108551 2.0927773 47
0.49092209 -0.1346402 1.9960775 95
0.68494529 -0.1876155 1.9854547 87
0.89854038 -0.24579683 1.9891212 95
1.1336497 -0.31011814 1.9926107 95
1.4009112 -0.38323528 1.9972607 33
1.7342304 -0.47442374 2.0274065 62
1.972893 -0.53416675 2.088357 38
2.2687569 -0.61427677 1.9769365 69
2.7707481 -0.75071353 1.9666914 67
3.5761549 -0.96893668 2.0251863 11
4.4662199 -1.2109315 1.9579377 8
5.7182794 -1.5514761 1.8303988 98
5.9450245 -1.6129965 1.2609777 75
5.9593096 -1.6179891 0.64623159 81
2.0608304 -0.56106871 1.9827838 77
2.5023243 -0.68173748 1.9720063 73
3.1006582 -0.84475249 1.9733303 69
3.9331553 -1.0722985 1.9720269 56
5.2581072 -1.434508 1.985 18
5.7254395 -1.5630786 1.5221527 100
5.9378443 -1.6221801 0.94964159 86
5.9561567 -1.6283001 0.34275761 86
0.030102598 -0.0087577794 1.9991974 33
0.31054974 -0.086688064 2.0502162 97
0.39692047 -0.10981466 2.0034087 89
0.5857684 -0.16165353 1.9886441 82
0.79201961 -0.21843733 1.9951125 81
1.011963 -0.2789177 1.9901714 87
1.2621177 -0.34787145 1.9954264 78
1.5873451 -0.43751776 2.0472748 42
0.1204052 -0.034829766 2.0010643 35
0.21999824 -0.064876877 2.0927773 37
0.49044913 -0.13635303 1.9960775 95
0.68428618 -0.19000527 1.9854547 87
0.89767689 -0.24893184 1.9891212 95
1.1325603 -0.31407344 1.9926107 95
1.3966606 -0.38731763 1.9932711 37
1.7292969 -0.47956851 2.0237315 38
1.9710163 -0.54105026 2.088357 36
2.2665989 -0.6221925 1.9769365 69
2.7640786 -0.75927305 1.9639498 66
3.5684788 -0.9802404 2.0228682 10
4.4574957 -1.2252855 1.9560646 8
5.7220793 -1.5739719 1.8332173 98
5.9440937 -1.6350415 1.2619104 76
5.9584274 -1.6401029 0.64667779 82
2.0588593 -0.56825894 1.9827838 79
2.4999297 -0.69046807 1.9720063 73
3.0976908 -0.85557061 1.9733303 69
3.9250138 -1.0848123 1.9699289 55
5.2576199 -1.4541123 1.9866428 15
5.7246332 -1.5843511 1.523325 99
5.9416909 -1.6455406 0.95102125 86
5.9552512 -1.6504154 0.34295917 85
0.030071845 -0.0088628046 1.9991974 33
0.3109929 -0.087983266 2.0551555 100
0.39653474 -0.1111995 2.0034087 93
0.58520055 -0.16369724 1.9886441 84
0.78937072 -0.2206746 1.99051 81
1.0109832 -0.28244844 1.9901714 85
1.2608958 -0.35227495 1.9954264 72
1.5765454 -0.44046795 2.0357642 39
0.12028288 -0.035249844 2.0010643 33
0.21977043 -0.065644421 2.0927773 23
0.48997018 -0.13806418 1.9960775 95
0.68361878 -0.19239271 1.9854547 91
0.89680248 -0.25206378 1.9891212 95
1.131457 -0.31802487 1.9926107 95
1.3953001 -0.39219049 1.9932711 39
1.7276125 -0.48560193 2.0237315 37
1.9691157 -0.54792702 2.088357 34
2.2606628 -0.62905699 1.9737986 69
2.7614114 -0.76891685 1.9639498 66
3.5650356 -0.99269074 2.0228682 10
4.4531918 -1.2408377 1.9560646 8
5.7211704 -1.5952245 1.8346263 98
5.947814 -1.6584191 1.2637757 75
5.9622593 -1.6635683 0.64757019 83
2.0568631 -0.57544219 1.9827838 79
2.497504 -0.6991902 1.9720063 75
3.0905337 -0.86521614 1.9707979 70
3.9212034 -1.0985065 1.9699289 55
5.2570596 -1.4737307 1.9882855 15
5.7237482 -1.6056371 1.5244973 98
5.9406781 -1.6676093 0.951711 86
5.9590735 -1.6738951 0.34336221 85
0.030040726 -0.00896772 1.9991974 32
0.31143072 -0.08928258 2.0600948 100
0.39614415 -0.112583 2.0034087 93
0.5846256 -0.16573897 1.9886441 84
0.78859562 -0.22342868 1.99051 81
1.0099912 -0.28597572 1.9901714 85
1.2596585 -0.35667416 1.9954264 57
1.5749981 -0.44596845 2.0357642 39
0.1201591 -0.035669494 2.0010643 33
0.21953996 -0.066411167 2.0927773 11
0.4882758 -0.13942823 1.9912384 93
0.68460256 -0.19525118 1.9901476 91
0.89591718 -0.25519267 1.9891212 95
1.13034 -0.32197246 1.9926107 95
1.391024 -0.3962329 1.9892817 51
1.7193861 -0.48977196 2.016381 35
1.967191 -0.55479723 2.088357 32
2.2584531 -0.63694435 1.9737986 69
2.7587104 -0.77855128 1.9639498 66
3.5572848 -1.0039257 2.0205503 10
4.448833 -1.2563745 1.9560646 8
5.7201843 -1.6164899 1.8360356 99
5.9467163 -1.6805066 1.2647083 75
5.9612083 -1.6857256 0.64801645 81
2.054842 -0.58261853 1.9827838 77
2.4950483 -0.70790386 1.9720063 75
3.0874949 -0.87599885 1.9707979 70
3.9129784 -1.1109476 1.9678308 57
5.2564263 -1.4933629 1.9899282 14
5.7227836 -1.6269362 1.5256697 98
5.9395847 -1.6896912 0.9524008 87
5.9579992 -1.6960537 0.34356374 86
0.030009238 -0.0090725273 1.9991974 32
0.31186327 -0.090586051 2.0650342 97
0.39574873 -0.1139651 2.0034087 91
0.5840435 -0.1677787 1.9886441 84
0.78781086 -0.22618003 1.99051 81
1.0089867 -0.28949949 1.9901714 87
1.2584057 -0.36106902 1.9954264 37
1.5888395 -0.45588452 2.0549488 45
0.12003386 -0.036088709 2.0010643 30
0.2193068 -0.067177102 2.0927773 7
0.48778614 -0.14113177 1.9912384 93
0.68391681 -0.1976397 1.9901476 89
0.8950209 -0.25831845 1.9891212 95
1.1292093 -0.32591611 1.9926107 93
1.3896325 -0.40108606 1.9892817 55
1.7144085 -0.49483055 2.0127058 35
1.9652425 -0.56166065 2.088357 29
2.2562163 -0.64482397 1.9737986 69
2.7559762 -0.7881763 1.9639498 66
3.5452404 -1.0139006 2.0159142 10
4.4399629 -1.2706207 1.9541916 8
5.723731 -1.6390887 1.8388541 99
5.9502587 -1.7039589 1.2665735 76
5.9648619 -1.7092673 0.64890885 81
2.0527956 -0.58978772 1.9827838 77
2.4925621 -0.71660888 1.9720063 75
3.0844183 -0.88677078 1.9707979 69
3.9090767 -1.1245998 1.9678308 57
5.2557192 -1.5130087 1.9915709 11
5.7217402 -1.6482477 1.5268419 98
5.9431667 -1.7131572 0.95378047 84
5.9616423 -1.71961 0.34396681 87
0.029977385 -0.0091772228 1.9991974 32
0.31154519 -0.091674097 2.0650342 97
0.39534852 -0.11534584 2.0034087 91
0.58345431 -0.16981636 1.9886441 88
0.78889251 -0.22947437 1.9951125 79
1.00797 -0.29301977 1.9901714 87
1.2571377 -0.3654595 1.9954264 14
1.5933956 -0.46321779 2.0626228 57
0.11990716 -0.036507487 2.0010643 30
0.21907096 -0.067942217 2.0927773 7
0.4872905 -0.14283359 1.9912384 93
0.68322283 -0.2000258 1.9901476 91
0.89411384 -0.26144111 1.9891212 95
1.1280648 -0.3298558 1.9926107 95
1.388224 -0.40593436 1.9892817 55
1.7094172 -0.49986053 2.0090308 37
1.9598441 -0.56752509 2.0848522 25
2.2539515 -0.65269566 1.9737986 71
2.7572243 -0.79895532 1.9666914 67
3.5076382 -1.0164055 1.9973699 11
4.4355001 -1.2861112 1.9541916 8
5.7225819 -1.660395 1.8402631 100
5.9489923 -1.7260877 1.2675061 76
5.9636416 -1.7314669 0.64935505 81
2.0507245 -0.5969497 1.9827838 77
2.4900455 -0.7253052 1.9720063 75
3.0813041 -0.89753211 1.9707979 69
3.9051273 -1.1382381 1.9678308 57
5.2504058 -1.5313454 1.9915709 10
5.7252841 -1.6709342 1.5291866 98
5.9419041 -1.7352803 0.95447028 84
5.9603992 -1.741811 0.34416834 86
0.029945169 -0.0092818085 1.9991974 32
0.31196785 -0.092983149 2.0699732 99
0.39494351 -0.11672515 2.0034087 87
0.58285797 -0.17185196 1.9886441 88
0.78621268 -0.23167446 1.99051 81
1.0069411 -0.29653645 1.9901714 87
1.2558544 -0.36984551 1.9954264 14
1.6040703 -0.47239974 2.0779707 52
0.11977899 -0.036925815 2.0010643 27
0.21883246 -0.068706505 2.0927773 10
0.48678896 -0.14453371 1.9912384 93
0.68252045 -0.20240948 1.9901476 91
0.89319575 -0.26456052 1.9891212 95
1.1244059 -0.33305079 1.9883448 91
1.3867985 -0.41077769 1.9892817 59
1.7076619 -0.50582439 2.0090308 39
1.9578511 -0.57436275 2.0848522 24
2.2516594 -0.66055948 1.9737986 69
2.7544186 -0.80857497 1.9666914 67
3.4870656 -1.0236517 1.9880978 11
4.430984 -1.3015863 1.9541916 8
5.7259564 -1.6830661 1.8430816 99
5.9476438 -1.7482282 1.2684388 74
5.9623394 -1.7536786 0.64980125 81
2.0486281 -0.60410446 1.9827838 77
2.4874985 -0.73399264 1.9720063 75
3.0781522 -0.9082824 1.9707979 69
3.9054835 -1.1531479 1.9699289 55
5.2450285 -1.5496633 1.9915709 10
5.7240782 -1.6922867 1.5303589 97
5.9453082 -1.7588205 0.95584989 86
5.9638643 -1.7654423 0.34457141 87
0.029912587 -0.0093862806 1.9991974 31
0.31164137 -0.094071552 2.0699732 97
0.39453363 -0.11810304 2.0034087 87
0.58225453 -0.17388546 1.9886441 86
0.78539914 -0.23441744 1.99051 83
1.0058998 -0.30004954 1.9901714 85
1.2545557 -0.37422699 1.9954264 15
1.6054835 -0.4789125 2.0818074 39
0.11964937 -0.037343699 2.0010643 26
0.2185913 -0.069469944 2.0927773 19
0.48628148 -0.14623204 1.9912384 93
0.68180972 -0.20479068 1.9901476 91
0.89226681 -0.26767677 1.9891212 95
1.1232365 -0.3369737 1.9883448 91
1.3853561 -0.41561601 1.9892817 59
1.7058858 -0.51178223 2.0090308 39
1.9558343 -0.58119351 2.0848522 24
2.2493401 -0.66841519 1.9737986 69
2.7515795 -0.81818479 1.9666914 67
3.4367599 -1.021928 1.9625994 14
4.4219708 -1.3157234 1.9523187 8
5.7246447 -1.7044123 1.8444909 99
5.9462128 -1.7703805 1.2693714 74
5.9657269 -1.777324 0.65069366 81
2.0465069 -0.61125177 1.9827838 77
2.4849212 -0.74267113 1.9720063 75
3.0749631 -0.91902161 1.9707979 69
3.9014344 -1.1667736 1.9699289 56
5.2395873 -1.5679624 1.9915709 10
5.7227917 -1.7136514 1.5315311 97
5.9438767 -1.7809844 0.95653975 86
5.9624505 -1.7876838 0.34477291 87
0.029879641 -0.0094906371 1.9991974 32
0.3120541 -0.095386103 2.0749123 99
0.39411899 -0.11947951 2.0034087 87
0.58164394 -0.17591685 1.9886441 88
0.78457606 -0.23715755 1.99051 83
1.0048463 -0.30355895 1.9901714 85
1.2532417 -0.37860394 1.9954264 33
1.603802 -0.48451379 2.0818074 39
0.11979424 -0.037848826 2.0060561 23
0.21834749 -0.070232555 2.0927773 36
0.48697132 -0.14829506 1.9960775 95
0.68109071 -0.2071694 1.9901476 91
0.89132702 -0.27078971 1.9891212 95
1.1220534 -0.34089246 1.9883448 91
1.3838969 -0.42044929 1.9892817 63
1.704089 -0.51773375 2.0090308 38
1.950379 -0.5869894 2.0813477 22
2.2469931 -0.6762628 1.9737986 71
2.7487066 -0.82778466 1.9666914 67
3.4501395 -1.0390283 1.9718715 17
4.4173512 -1.3311509 1.9523187 8
5.7232528 -1.7257695 1.8458999 99
5.9494033 -1.7939621 1.2712367 76
5.9642544 -1.799576 0.65113991 81
2.0479355 -0.61947298 1.9861088 79
2.4823136 -0.75134069 1.9720063 75
3.0717363 -0.92974967 1.9707979 69
3.8973379 -1.1803851 1.9699289 56
5.2295623 -1.5848727 1.9899282 10
5.721427 -1.735028 1.5327035 97
5.9471011 -1.8045973 0.95791936 86
5.9609547 -1.8099374 0.34497446 86
0.029846329 -0.0095948791 1.9991974 32
0.31171921 -0.096474797 2.0749123 97
0.3936995 -0.12085451 2.0034087 91
0.58102643 -0.17794609 1.9886441 88
0.7837435 -0.23989479 1.99051 81
1.0037806 -0.30706468 1.9901714 85
1.2519126 -0.38297626 1.9954264 39
1.5898384 -0.48635775 2.0664597 50
0.11966141 -0.038266756 2.0060561 20
0.21810099 -0.070994303 2.0927773 51
0.4864507 -0.149994 1.9960775 95
0.67871416 -0.20903757 1.9854547 89
0.89037639 -0.27389941 1.9891212 95
1.1208565 -0.34480706 1.9883448 91
1.3824209 -0.42527744 1.9892817 70
1.7022715 -0.52367896 2.0090308 36
1.948318 -0.59379387 2.0813477 22
2.240895 -0.68296719 1.9706609 71
2.7458003 -0.83737439 1.9666914 59
3.4380169 -1.0484806 1.9672356 26
4.4126782 -1.3465623 1.9523187 8
5.7217822 -1.747138 1.8473091 99
5.947803 -1.8161532 1.2721692 76
5.9674621 -1.8232948 0.65203232 81
2.0457606 -0.62661785 1.9861088 79
2.4796758 -0.760001 1.9720063 75
3.0684721 -0.94046634 1.9707979 68
3.893194 -1.1939821 1.9699289 57
5.2014246 -1.5961905 1.9817147 12
5.7199821 -1.7564156 1.5338758 97
5.9502335 -1.8282547 0.95929903 86
5.9641519 -1.8336704 0.34537753 85
0.029812656 -0.0096990038 1.9991974 32
0.31138057 -0.097562306 2.0749123 98
0.39327523 -0.12222805 2.0034087 91
0.58040172 -0.17997317 1.9886441 80
0.78290135 -0.24262911 1.99051 81
1.0027026 -0.31056663 1.9901714 87
1.2478799 -0.38651127 1.9912933 55
1.5789438 -0.4890587 2.0549488 47
0.11980243 -0.038773842 2.0110476 17
0.21734491 -0.071587525 2.0878057 69
0.48592415 -0.15169112 1.9960775 95
0.67798036 -0.21140547 1.9854547 87
0.88733554 -0.2763581 1.9846202 95
1.1221361 -0.34949303 1.9926107 93
1.3809279 -0.43010038 1.9892817 74
1.7036695 -0.53062588 2.0127058 36
1.9462335 -0.60059112 2.0813477 21
2.2384973 -0.69078517 1.9706609 71
2.7428606 -0.84695387 1.9666914 61
3.4343362 -1.0604751 1.9672356 33
4.4079504 -1.3619573 1.9523187 8
5.7248154 -1.7699341 1.8501276 100
5.9508128 -1.8398056 1.2740345 75
5.9658184 -1.8455857 0.65247852 81
2.043561 -0.63375503 1.9861088 79
2.4770079 -0.76865202 1.9720063 75
3.0651708 -0.95117158 1.9707979 68
3.8890023 -1.2075646 1.9699289 58
5.1777821 -1.6087323 1.975144 12
5.7230997 -1.7792575 1.5362206 97
5.9532723 -1.8519555 0.96067858 86
5.9624844 -1.8559626 0.34557903 85
0.029778618 -0.0098030102 1.9991974 32
0.31177875 -0.098883718 2.0798519 100
0.3928462 -0.12360009 2.0034087 91
0.57976991 -0.18199806 1.9886441 80
0.7820496 -0.24536046 1.99051 81
1.0016124 -0.31406483 1.9901714 87
1.246523 -0.39086482 1.9912933 76
1.56805 -0.49168956 2.0434382 45
0.11966636 -0.039191794 2.0110476 16
0.21709369 -0.072345763 2.0878057 82
0.48539168 -0.1533864 1.9960775 95
0.67723823 -0.21377076 1.9854547 89
0.88636547 -0.27945378 1.9846202 95
1.1209093 -0.35340786 1.9926107 89
1.3794181 -0.43491811 1.9892817 76
1.7082735 -0.53860849 2.0200562 36
1.9407209 -0.60631758 2.0778432 21
2.2360725 -0.69859481 1.9706609 71
2.7398875 -0.8565231 1.9666914 69
3.4263849 -1.0711349 1.9649175 38
4.4031696 -1.3773354 1.9523187 8
5.7277579 -1.7927724 1.8529459 99
5.9490428 -1.862034 1.2749671 75
5.9688449 -1.8693758 0.65337092 80
2.0413363 -0.64088458 1.9861088 79
2.4743099 -0.77729374 1.9720063 75
3.0618317 -0.96186525 1.9707979 68
3.8804333 -1.2197713 1.9678308 54
5.1541152 -1.6211286 1.9685733 14
5.7214899 -1.800683 1.5373927 96
5.9467711 -1.8727252 0.96067858 85
5.9607344 -1.8782659 0.34578058 86
0.029744219 -0.0099068973 1.9991974 32
0.31143168 -0.099971429 2.0798519 100
0.39241236 -0.12497063 2.0034087 91
0.57913113 -0.18402073 1.9886441 86
0.78118843 -0.24808884 1.99051 81
1.00051 -0.31755918 1.9901714 87
1.2451512 -0.39521363 1.9912933 80
1.5571569 -0.49425036 2.0319271 39
0.11952882 -0.039609268 2.0110476 14
0.2163341 -0.072931945 2.0828345 86
0.48365536 -0.15469652 1.9912384 93
0.67648792 -0.21613346 1.9854547 89
0.88538462 -0.28254607 1.9846202 95
1.1221535 -0.35811132 1.9968767 79
1.3778917 -0.4397305 1.9892817 80
1.7096128 -0.54559892 2.0237315 38
1.9385927 -0.61308825 2.0778432 22
2.2373321 -0.70756978 1.9737986 71
2.736881 -0.86608183 1.9666914 69
3.4226251 -1.0830885 1.9649175 39
4.3983355 -1.3926971 1.9523187 8
5.7260389 -1.8142042 1.8543551 99
5.9518728 -1.885756 1.2768323 75
5.96703 -1.8917046 0.65381718 81
2.0390866 -0.64800626 1.9861088 79
2.4715815 -0.78592587 1.9720063 75
3.0584555 -0.97254717 1.9707979 66
3.876152 -1.233309 1.9678308 54
5.1304264 -1.6333793 1.9620026 14
5.7198009 -1.8221192 1.5385652 96
5.9401984 -1.893472 0.96067858 85
5.9636612 -1.9020975 0.34618366 84
0.029709455 -0.010010663 1.9991974 33
0.31181973 -0.10129815 2.0847909 101
0.39197376 -0.12633963 2.0034087 91
0.579907 -0.18649846 1.9934158 86
0.78217763 -0.25141206 1.9951125 79
0.99939543 -0.32104966 1.9901714 89
1.243764 -0.39955762 1.9912933 78
1.5462656 -0.49674118 2.0204165 36
0.11938983 -0.040026262 2.0110476 12
0.21607821 -0.073686652 2.0828345 89
0.48311239 -0.15638387 1.9912384 93
0.67572933 -0.21849354 1.9854547 89
0.88439298 -0.28563493 1.9846202 95
1.1233783 -0.36282784 2.0011425 60
1.3763483 -0.44453761 1.9892817 84
1.7141501 -0.55364728 2.0310817 40
1.9364408 -0.61985141 2.0778432 22
2.2348485 -0.71537519 1.9737986 71
2.7298589 -0.87435472 1.9639498 66
3.4188235 -1.0950292 1.9649175 56
4.397861 -1.4094564 1.9541916 8
5.7288074 -1.8371104 1.8571734 99
5.9499311 -1.9080204 1.2777649 75
5.9698749 -1.915565 0.65470958 79
2.0368123 -0.65512007 1.9861088 79
2.468823 -0.79454857 1.9720063 75
3.0550423 -0.98321724 1.9707979 63
3.8718231 -1.2468318 1.9678308 53
5.1067138 -1.6454848 1.9554318 16
5.7226582 -1.845057 1.5409098 96
5.9429793 -1.9172366 0.96205825 84
5.9617395 -1.9244375 0.34638515 83
0.029676095 -0.010109128 1.9991974 33
0.31148207 -0.10233162 2.0847909 101
0.39155263 -0.12763877 2.0034087 91
0.57928538 -0.18842047 1.9934158 86
0.78133965 -0.25400448 1.9951125 79
0.99832535 -0.32436204 1.9901714 87
1.2424322 -0.40367991 1.9912933 78
1.538512 -0.49988472 2.0127425 32
0.1192635 -0.040401138 2.0110476 10
0.21584566 -0.074365117 2.0828345 95
0.48261869 -0.15790084 1.9912384 93
0.67503959 -0.22061533 1.9854547 89
0.88344091 -0.28856611 1.9846202 95
1.122169 -0.36655104 2.0011425 32
1.3748666 -0.44909927 1.9892817 84
1.7188478 -0.56113392 2.0384321 71
1.9343746 -0.62626952 2.0778432 23
2.2324638 -0.72278231 1.9737986 69
2.7269447 -0.88340241 1.9639498 66
3.4151735 -1.1063604 1.9649175 58
4.3934112 -1.4232656 1.9541916 8
5.7321348 -1.8580576 1.8599919 99
5.9529171 -1.9307717 1.2796302 75
5.9682264 -1.9368886 0.65515578 80
2.0346286 -0.66187078 1.9861088 79
2.4661746 -0.8027311 1.9720063 75
3.0519383 -0.99281001 1.9707979 61
3.8678873 -1.2589893 1.9678308 53
5.0835576 -1.6556699 1.9488611 18
5.7214541 -1.864532 1.5420821 95
nan nan nan 0
5.9651637 -1.9462568 0.34678823 82
0.029640626 -0.010212656 1.9991974 35
0.31112298 -0.10341828 2.0847909 101
0.3911047 -0.12900478 2.0034087 89
0.57862413 -0.19044141 1.9934158 86
0.78044826 -0.25673032 1.9951125 79
0.99718696 -0.32784489 1.9901714 87
1.2410154 -0.40801433 1.9912933 78
1.5367576 -0.50525206 2.0127425 32
0.11884087 -0.040743619 2.0060561 8
0.2150677 -0.074979343 2.077863 97
0.48323071 -0.16006422 1.9960775 95
0.67422652 -0.22308797 1.9854547 89
0.88242829 -0.29164812 1.9846202 95
1.1208827 -0.3704659 2.0011425 17
1.3704289 -0.45294982 1.9852921 84
1.7232174 -0.56955791 2.0457823 81
1.9287879 -0.6319077 2.0743387 23
2.2299273 -0.73057067 1.9737986 71
2.7238443 -0.89291584 1.9639498 69
3.4112906 -1.1182748 1.9649175 60
4.3837609 -1.437914 1.9523187 9
5.7298446 -1.8805504 1.8614012 99
5.950808 -1.9530712 1.2805628 76
5.9708924 -1.9608173 0.65604824 81
2.0323057 -0.66896898 1.9861088 79
2.4633574 -0.81133479 1.9720063 75
3.0482788 -1.0039892 1.9707979 57
3.8632467 -1.2731574 1.9678308 56
5.0729704 -1.6728119 1.9472184 23
5.7238145 -1.8885359 1.5444267 95
3.2070169 -1.0587542 0.56265491 10
5.9674778 -1.9712412 0.3471913 83
0.029645797 -0.010330989 2.0041974 35
0.31076011 -0.10450366 2.0847909 102
0.390652 -0.13036919 2.0034087 91
0.5765388 -0.1919881 1.9886441 86
0.77954727 -0.25945303 1.9951125 79
0.99603653 -0.33132368 1.9901714 87
1.2395837 -0.41234377 1.9912933 76
1.5349846 -0.51061326 2.0127425 30
0.11869793 -0.041158203 2.0060561 6
0.21430133 -0.07555148 2.0728917 98
0.48266906 -0.16175005 1.9960775 95
0.67508006 -0.22598797 1.9901476 89
0.88347018 -0.29541725 1.9891212 95
1.1195827 -0.37437627 2.0011425 17
1.3688395 -0.45773077 1.9852921 84
1.730864 -0.57879496 2.0568078 83
1.9265704 -0.63863653 2.0743387 23
2.2273636 -0.73835003 1.9737986 69
2.7207108 -0.90241832 1.9639498 69
3.4073665 -1.1301757 1.9649175 60
4.3743143 -1.4517472 1.9504455 9
5.7323508 -1.9035637 1.8642194 98
5.9532785 -1.976928 1.282428 76
5.9687366 -1.9832178 0.65649438 82
2.0299585 -0.67605889 1.9861088 79
2.4605103 -0.81992853 1.9720063 75
3.0447559 -1.0146236 1.9707979 43
3.858779 -1.2866349 1.9678308 55
5.0671 -1.6905098 1.9472184 28
5.7264075 -1.9115822 1.5467713 95
3.2033017 -1.0699425 0.56265491 83
5.9652982 -1.9936429 0.34739283 83
0.029609554 -0.01043441 2.0041974 35
0.31039342 -0.10558778 2.0847909 101
0.39019457 -0.13173203 2.0034087 91
0.57586515 -0.19399944 1.9886441 82
0.77863687 -0.26217258 1.9951125 79
0.99487388 -0.33479849 1.9901714 87
1.2381369 -0.41666821 1.9912933 76
1.5331929 -0.5159682 2.0127425 30
0.11855353 -0.041572288 2.0060561 5
0.21353361 -0.07611917 2.0679202 98
0.4821015 -0.16343389 1.9960775 95
0.67428714 -0.22834307 1.9901476 89
0.88243359 -0.29849935 1.9891212 96
1.118269 -0.37828207 2.0011425 17
1.3672333 -0.46250615 1.9852921 84
1.7384673 -0.58809239 2.0678334 81
1.9175668 -0.64308971 2.0673294 23
2.2247727 -0.74612057 1.9737986 71
2.7175441 -0.91190994 1.9639498 69
3.3992007 -1.1406533 1.9625994 62
4.3648257 -1.4655319 1.9485725 28
5.7302189 -1.9250894 1.8656287 98
5.9556537 -2.0008254 1.2842933 76
5.9617777 -2.0040407 0.65649438 81
2.0240469 -0.6819483 1.9827838 77
2.4576333 -0.82851231 1.9720063 75
3.0371099 -1.0238683 1.9682654 36
3.8542645 -1.3000966 1.9678308 53
5.0611682 -1.7081869 1.9472184 33
5.7243061 -1.9331146 1.5479436 93
3.1995473 -1.0811174 0.56265491 84
5.9677687 -2.0176539 0.3477959 85
0.029572951 -0.010537703 2.0041974 35
0.31075761 -0.10692357 2.0897303 101
0.38973236 -0.13309327 2.0034087 93
0.57518446 -0.19600838 1.9886441 86
0.77771699 -0.26488891 1.9951125 79
0.99369919 -0.33826923 1.9901714 85
1.2366749 -0.42098758 1.9912933 80
1.5313824 -0.52131689 2.0127425 33
0.1184077 -0.041985862 2.0060561 4
0.21276452 -0.076682426 2.0629487 99
0.48152807 -0.16511574 1.9960775 95
0.67348599 -0.23069538 1.9901476 89
0.88138628 -0.30157781 1.9891212 95
1.1144743 -0.38133892 1.9968767 29
1.3656106 -0.46727583 1.9852921 84
1.7267812 -0.59086448 2.0568078 50
1.9119333 -0.64863366 2.0638251 24
2.2221546 -0.75388193 1.9737986 71
2.7143445 -0.9213903 1.9639498 69
3.3951983 -1.1525117 1.9625994 62
4.3509045 -1.4777771 1.9448265 10
5.7280068 -1.9466237 1.8670379 99
5.9579358 -2.0247636 1.2861586 75
5.9783206 -2.0328553 0.65872544 75
2.0216541 -0.68900931 1.9827838 77
2.4547262 -0.83708602 1.9720063 75
3.0335174 -1.0344635 1.9682654 31
3.845408 -1.3120773 1.9657328 52
5.0507054 -1.7243176 1.9455757 36
5.7267227 -1.9562271 1.5502883 88
3.1957543 -1.0922793 0.56265491 84
5.9654169 -2.0400898 0.34799743 84
0.029535986 -0.010640867 2.0041974 36
0.31038249 -0.10800768 2.0897303 101
0.38830301 -0.13412037 1.9985133 91
0.57449681 -0.19801496 1.9886441 86
0.77494049 -0.26696566 1.99051 81
0.99251235 -0.34173578 1.9901714 85
1.2351977 -0.42530182 1.9912933 80
1.5295533 -0.52665931 2.0127425 35
0.11826041 -0.04239893 2.0060561 4
0.2119941 -0.077241242 2.0579772 99
0.47976041 -0.16638339 1.9912384 91
0.67267662 -0.23304488 1.9901476 89
0.88032818 -0.30465257 1.9891212 95
1.1131363 -0.38522682 1.9968767 39
1.3639711 -0.47203985 1.9852921 84
1.7150971 -0.59356219 2.0457823 49
1.8995379 -0.65183097 2.0533113 24
2.2195096 -0.76163411 1.9737986 69
2.7111118 -0.93085963 1.9639498 69
3.3911545 -1.1643562 1.9625994 61
4.3413348 -1.4914494 1.9429535 10
5.7302499 -1.9697251 1.8698562 99
5.9554772 -2.0471451 1.2870911 75
5.9570599 -2.048852 0.65738684 38
2.0192368 -0.69606203 1.9827838 73
2.4479682 -0.84433162 1.9690632 75
3.0258124 -1.0436405 1.9657331 27
3.8408043 -1.3254923 1.9657328 52
5.0446558 -1.7419373 1.9455757 38
5.724453 -1.9777923 1.5514605 88
3.1919219 -1.103428 0.56265491 87
5.9677019 -2.0641668 0.34840047 84
0.029498663 -0.010743902 2.0041974 36
0.31000358 -0.10909046 2.0897303 104
0.38783249 -0.13547498 1.9985133 91
0.5752123 -0.20051078 1.9934158 86
0.7740038 -0.26966909 1.99051 81
0.9913134 -0.34519824 1.9901714 85
1.2337056 -0.42961088 1.9912933 82
1.5307331 -0.53304946 2.0165794 35
0.1181117 -0.042811476 2.0060561 5
0.2112224 -0.077795625 2.0530059 99
0.47917673 -0.16805705 1.9912384 91
0.67185903 -0.23539156 1.9901476 91
0.87925941 -0.30772364 1.9891212 96
1.1093233 -0.38824847 1.9926107 58
1.3623152 -0.47679815 1.9852921 84
1.706615 -0.59730554 2.0384321 47
1.8871439 -0.65494978 2.0427978 24
2.2168376 -0.76937699 1.9737986 69
2.7078457 -0.94031745 1.9639498 69
3.3870695 -1.1761864 1.9625994 61
4.3317232 -1.5050727 1.9410803 15
5.7278705 -1.9912907 1.8712655 99
5.9575748 -2.0711472 1.2889564 76
5.9733901 -2.0778141 0.6596179 5
2.0167949 -0.70310622 1.9827838 69
2.4450061 -0.85287148 1.9690632 75
3.022151 -1.0541962 1.9657331 27
3.8361542 -1.338891 1.9657328 54
5.0385447 -1.7595358 1.9455757 39
5.7266917 -2.0009689 1.5538052 87
3.1880507 -1.1145631 0.56265491 84
5.969892 -2.0882845 0.34880355 84
0.029460981 -0.010846807 2.0041974 36
0.30962092 -0.11017191 2.0897303 105
0.38735723 -0.13682796 1.9985133 91
0.57450891 -0.20251742 1.9934158 86
0.77305782 -0.27236924 1.99051 83
0.99010241 -0.34865648 1.9901714 85
1.2321985 -0.43391469 1.9912933 82
1.5318871 -0.5394544 2.0204165 35
0.11823325 -0.04332358 2.0110476 7
0.21044941 -0.07834556 2.0480344 100
0.47858715 -0.16972865 1.9912384 93
0.67103326 -0.23773535 1.9901476 91
0.87817985 -0.31079096 1.9891212 95
1.1079612 -0.39211839 1.9926107 81
1.3606424 -0.48155063 1.9852921 84
1.698128 -0.60099697 2.0310817 47
1.8713861 -0.65680897 2.0287795 21
2.2141383 -0.77711052 1.9737986 71
2.7045469 -0.94976383 1.9639498 67
3.3829432 -1.1880023 1.9625994 62
4.3264432 -1.5201842 1.9410803 47
5.7299366 -2.0144548 1.874084 98
5.9595771 -2.0951891 1.2908217 74
3.2084496 -1.128612 0.39769268 37
2.0178502 -0.71138358 1.9861088 58
2.4420142 -0.8614009 1.9690632 75
3.0184526 -1.0647391 1.9657331 28
3.8314571 -1.3522736 1.9657328 54
5.0279188 -1.7755404 1.9439329 41
5.728838 -2.0241852 1.5561498 88
3.1841409 -1.1256846 0.56265491 83
5.9719863 -2.1124427 0.3492066 84
0.029422939 -0.010949578 2.0041974 36
0.30923444 -0.11125201 2.0897303 103
0.38687724 -0.13817926 1.9985133 91
0.57379848 -0.2045216 1.9934158 86
0.77210236 -0.27506602 1.99051 86
0.98887932 -0.35211048 1.9901714 85
1.2306763 -0.43821323 1.9912933 80
1.5360349 -0.54694927 2.0280902 35
0.1180813 -0.043736029 2.0110476 11
0.20967516 -0.078891046 2.0430632 99
0.47799176 -0.17139821 1.9912384 93
0.67019933 -0.24007623 1.9901476 91
0.87708974 -0.31385449 1.9891212 95
1.1065857 -0.39598352 1.9926107 89
1.3589532 -0.48629719 1.9852921 84
1.7024035 -0.60920531 2.0384321 64
1.8589993 -0.65975893 2.018266 21
2.2114122 -0.7848345 1.9737986 71
2.7012155 -0.95919865 1.9639498 67
3.3787758 -1.1998038 1.9625994 62
4.3254786 -1.5368291 1.9429535 52
5.7319098 -2.0376575 1.8769022 99
5.9799976 -2.1258512 1.2964174 43
3.2138746 -1.1431426 0.39858511 83
2.0153546 -0.71842289 1.9861088 46
2.4389925 -0.8699199 1.9690632 73
3.0147176 -1.0752689 1.9657331 32
3.8267133 -1.3656397 1.9657328 53
5.0216904 -1.7930801 1.9439329 42
5.7308917 -2.047441 1.5584946 71
3.1801922 -1.1367925 0.56265491 83
5.9739842 -2.136641 0.34960967 86
0.029384539 -0.011052216 2.0041974 37
0.30884424 -0.11233076 2.0897303 102
0.38639256 -0.13952886 1.9985133 91
0.57308108 -0.20652328 1.9934158 84
0.77113754 -0.27775946 1.99051 86
0.98764426 -0.35556015 1.9901714 83
1.2291392 -0.4425064 1.9912933 80
1.5401492 -0.5544796 2.0357642 34
0.11792792 -0.044147938 2.0110476 15
0.20939851 -0.079622462 2.0430632 101
0.47857305 -0.17349443 1.9960775 95
0.66935718 -0.24241421 1.9901476 89
0.87598878 -0.31691417 1.9891212 95
1.1051968 -0.39984378 1.9926107 89
1.3572476 -0.49103785 1.9852921 84
1.7034545 -0.61629742 2.0421071 74
1.8466151 -0.66263044 2.0077524 21
2.2086592 -0.79254901 1.9737986 69
2.6978505 -0.96862185 1.9639498 67
3.3745668 -1.2115905 1.9625994 62
4.3200879 -1.5519184 1.9429535 52
5.7337918 -2.0608985 1.8797207 98
nan nan nan 0
3.2004924 -1.1509835 0.39769268 84
2.0128348 -0.72545344 1.9861088 37
2.435941 -0.87842822 1.9690632 67
3.010946 -1.0857856 1.9657331 38
3.8219233 -1.3789891 1.9657328 52
5.0154004 -1.8105983 1.9439329 43
5.7374249 -2.0723867 1.5620115 68
3.1762047 -1.1478866 0.56265491 84
5.9758854 -2.1608787 0.35001272 85
0.029345781 -0.011154721 2.0041974 37
0.30845022 -0.11340815 2.0897303 101
0.38590315 -0.14087676 1.9985133 85
0.5723567 -0.20852245 1.9934158 82
0.77016324 -0.28044954 1.99051 88
0.98639709 -0.35900548 1.9901714 75
1.2275871 -0.44679418 1.9912933 80
1.5442293 -0.56204528 2.0434382 34
0.11777309 -0.044559319 2.0110476 19
0.20862113 -0.080160789 2.0380917 102
0.47796452 -0.17516389 1.9960775 89
0.66850698 -0.24474922 1.9901476 89
0.87487715 -0.31997004 1.9891212 96
1.1037943 -0.40369922 1.9926107 89
1.3555251 -0.49577257 1.9852921 84
1.7044767 -0.62340438 2.0457823 81
1.8342333 -0.66542369 1.9972385 21
2.2058792 -0.80025387 1.9737986 69
2.6944532 -0.97803319 1.9639498 67
3.3703172 -1.2233627 1.9625994 62
4.3146439 -1.5669889 1.9429535 52
5.7355804 -2.0841775 1.882539 98
3.1671784 -1.1508782 0.73124957 40
3.2011356 -1.1638501 0.39813891 87
2.0102901 -0.7324751 1.9861088 32
2.4328597 -0.88692588 1.9690632 62
3.0071375 -1.0962893 1.9657331 52
3.8170862 -1.3923216 1.9657328 52
5.0090504 -1.8280941 1.9439329 47
5.7392879 -2.0957358 1.5643561 67
3.1721783 -1.1589667 0.56265491 84
5.9776907 -2.1851559 0.3504158 84
0.029306665 -0.011257088 2.0041974 38
0.30805248 -0.11448415 2.0897303 101
0.38636425 -0.14257553 2.0034087 85
0.57162529 -0.21051908 1.9934158 82
0.76917958 -0.28313625 1.99051 90
0.98513794 -0.36244649 1.9901714 62
1.22602 -0.4510766 1.9912933 80
1.5452667 -0.56853926 2.0472748 38
0.11761683 -0.044970151 2.0110476 23
0.20784256 -0.080694668 2.0331202 103
0.47735018 -0.17683123 1.9960775 89
0.66764855 -0.24708125 1.9901476 89
0.87375498 -0.32302198 1.9891212 96
1.1023784 -0.40754974 1.9926107 89
1.3537863 -0.50050122 1.9852921 87
1.70547 -0.63052595 2.0494576 81
1.8285513 -0.67059439 1.9937341 21
2.2030723 -0.80794889 1.9737986 69
2.6910226 -0.98743272 1.9639498 59
3.3660264 -1.2351198 1.9625994 62
4.3047962 -1.5804425 1.9410803 52
5.7372766 -2.1074941 1.8853575 97
3.1723638 -1.1653144 0.73311478 71
3.1970534 -1.1750171 0.39813891 87
2.0077212 -0.73948783 1.9861088 27
2.4335415 -0.89681047 1.9720063 54
3.0032926 -1.1067795 1.9657331 58
3.8122029 -1.4056371 1.9657328 54
5.0026383 -1.8455678 1.9439329 44
5.7410564 -2.1191232 1.5667007 41
3.1681135 -1.1700325 0.56265491 84
5.9793992 -2.2094717 0.35081884 84
0.029267192 -0.011359319 2.0041974 38
0.30765098 -0.11555875 2.0897303 101
0.38586423 -0.14392334 2.0034087 93
0.57088703 -0.21251315 1.9934158 78
0.76818657 -0.28581944 1.99051 90
0.98386669 -0.36588305 1.9901714 38
1.2244381 -0.45535344 1.9912933 80
1.5462776 -0.57504725 2.0511119 39
0.11718921 -0.045275632 2.0060561 27
0.20755963 -0.081419684 2.0331202 103
0.47673002 -0.17849642 1.9960775 91
0.66678202 -0.24941027 1.9901476 89
0.87262207 -0.32606998 1.9891212 95
1.100949 -0.41139525 1.9926107 89
1.352031 -0.50522375 1.9852921 84
1.7032586 -0.63647527 2.0494576 62
1.8228554 -0.67573351 1.9902295 23
2.2002387 -0.81563419 1.9737986 69
2.6875596 -0.99682003 1.9639498 59
3.3616946 -1.2468619 1.9625994 62
4.299253 -1.5954596 1.9410803 53
5.7388797 -2.1308477 1.8881758 98
3.1682768 -1.1763808 0.73311478 71
3.1929326 -1.1861696 0.39813891 87
2.0051277 -0.74649155 1.9861088 22
2.4303963 -0.9052996 1.9720063 39
2.9994109 -1.117256 1.9657331 59
3.8072731 -1.4189358 1.9657328 54
4.9917412 -1.8613694 1.9422904 45
5.742733 -2.1425486 1.5690454 35
3.1686492 -1.1828159 0.56334472 83
5.9810104 -2.2338262 0.35122192 82
0.029227361 -0.011461412 2.0041974 38
0.30724573 -0.11663195 2.0897303 101
0.38535947 -0.14526938 2.0034087 91
0.57014173 -0.2145046 1.9934158 78
0.76901293 -0.28918689 1.9951125 91
0.98258358 -0.36931512 1.9901714 30
1.2202071 -0.45863467 1.9871606 80
1.5442609 -0.58044124 2.0511119 40
0.11703046 -0.04568442 2.0060561 30
0.20677802 -0.081946373 2.0281489 103
0.47610405 -0.18015943 1.9960775 91
0.66590732 -0.25173625 1.9901476 89
0.87351573 -0.3298834 1.9936218 95
1.0995063 -0.41523579 1.9926107 87
1.3502591 -0.50994015 1.9852921 84
1.7010266 -0.64241683 2.0494576 62
1.8204856 -0.68209243 1.9902295 23
2.1973782 -0.82330948 1.9737986 71
2.6840634 -1.0061953 1.9639498 67
3.3531735 -1.2570338 1.9602815 53
4.2893171 -1.6088289 1.9392073 53
5.735898 -2.1525526 1.889585 99
3.1641512 -1.187433 0.73311478 71
3.1841102 -1.1955571 0.39769268 86
2.0025096 -0.75348622 1.9861088 20
2.4272215 -0.91377771 1.9720063 33
2.9954925 -1.1277192 1.9657331 65
3.8022966 -1.432217 1.9657328 52
4.9852133 -1.8787823 1.9422904 44
5.735219 -2.1625814 1.5690454 35
3.1645012 -1.1938695 0.56334472 83
5.9825249 -2.2582188 0.35162497 82
0.029187175 -0.011563364 2.0041974 38
0.30683675 -0.11770374 2.0897303 101
0.38389862 -0.14625108 1.9985133 93
0.56938952 -0.21649349 1.9934158 84
0.76799875 -0.29186949 1.9951125 91
0.98128837 -0.37274274 1.9901714 28
1.2185987 -0.46289119 1.9871606 80
1.5452223 -0.58696663 2.0549488 43
0.11687028 -0.046092652 2.0060561 33
0.20599529 -0.082468607 2.0231774 104
0.47547227 -0.18182024 1.9960775 89
0.66341245 -0.25344327 1.9854547 91
0.87235898 -0.33293051 1.9936218 96
1.0956136 -0.41814131 1.9883448 89
1.348471 -0.51465034 1.9852921 84
1.6987737 -0.6483506 2.0494576 71
1.8180935 -0.68844289 1.9902295 24
2.1908503 -0.82959616 1.9706609 71
2.6805348 -1.0155582 1.9639498 67
3.3487654 -1.268731 1.9602815 53
4.2836752 -1.6237917 1.9392073 53
5.7373204 -2.1759639 1.8924034 98
3.159987 -1.1984708 0.73311478 71
3.1799173 -1.2066646 0.39769268 86
1.9963766 -0.75914437 1.9827838 20
2.4277952 -0.92368221 1.9749495 29
2.991538 -1.1381687 1.9657331 66
3.7972744 -1.4454808 1.9657328 52
4.9786243 -1.8961725 1.9422904 45
5.7458029 -2.1895111 1.5737346 37
3.1603143 -1.2049083 0.56334472 84
5.9839416 -2.2826493 0.35202804 84
0.029146634 -0.011665177 2.0041974 39
0.30642402 -0.11877408 2.0897303 101
0.38338572 -0.14759025 1.9985133 91
0.56863028 -0.21847971 1.9934158 84
0.76697528 -0.29454851 1.9951125 91
0.97998136 -0.37616584 1.9901714 27
1.2169756 -0.46714211 1.9871606 80
1.5461571 -0.59350586 2.0587859 45
0.11670868 -0.046500329 2.0060561 34
0.20521143 -0.08298637 2.0182061 104
0.47483471 -0.18347885 1.9960775 89
0.66252381 -0.25575745 1.9854547 89
0.8711915 -0.33597359 1.9936218 96
1.0941474 -0.42196316 1.9883448 91
1.3438543 -0.51826972 1.9813027 84
1.6965003 -0.65427649 2.0494576 73
1.8156793 -0.694785 1.9902295 24
2.1879411 -0.83723861 1.9706609 71
2.6769738 -1.0249089 1.9639498 69
3.3443162 -1.2804127 1.9602815 61
4.2779813 -1.6387346 1.9392073 48
5.7386489 -2.1994114 1.8952218 98
3.1557841 -1.2094939 0.73311478 66
3.1756859 -1.2177571 0.39769268 84
1.9937145 -0.76610839 1.9827838 20
2.424556 -0.93215114 1.9749495 28
2.9875467 -1.1486042 1.9657331 66
3.7879696 -1.4570974 1.9636347 52
4.9675684 -1.9118433 1.9406476 43
5.7381253 -2.2095542 1.5737346 30
3.1560891 -1.2159325 0.56334472 84
5.9805984 -2.30532 0.35222957 83
0.029105738 -0.011766845 2.0041974 39
0.30600756 -0.11984297 2.0897303 100
0.3828682 -0.14892761 1.9985133 93
0.56786424 -0.22046326 1.9934158 86
0.76594239 -0.29722399 1.9951125 91
0.97866237 -0.37958431 1.9901714 28
1.2153374 -0.4713873 1.9871606 82
1.5470649 -0.60005867 2.0626228 45
0.11654565 -0.046907432 2.0060561 35
0.2044265 -0.083499677 2.0132346 104
0.47419137 -0.1851352 1.9960775 91
0.66162699 -0.25806856 1.9854547 89
0.87001342 -0.33901259 1.9936218 96
1.0926678 -0.42577988 1.9883448 87
1.342037 -0.5229575 1.9813027 84
1.694206 -0.6601944 2.0494576 74
1.8165693 -0.70240492 1.9937341 29
2.1850052 -0.84487087 1.9706609 71
2.6733797 -1.034247 1.9639498 69
3.3398263 -1.2920786 1.9602815 61
4.2722349 -1.6536576 1.9392073 48
5.7398834 -2.2228947 1.8980402 100
3.1515431 -1.2205021 0.73311478 68
3.171416 -1.228835 0.39769268 84
1.9910282 -0.77306306 1.9827838 24
2.4212873 -0.94060874 1.9749495 28
2.9835191 -1.1590255 1.9657331 70
3.7786298 -1.4686669 1.9615366 53
4.9608641 -1.9291717 1.9406476 43
nan nan nan 0
3.1472108 -1.2251455 0.56265491 83
5.9864812 -2.3316216 0.35283417 84
0.029064484 -0.011868372 2.0041974 40
0.30558735 -0.12091041 2.0897303 100
0.382346 -0.15026316 1.9985133 93
0.56709117 -0.22244413 1.9934158 86
0.76490027 -0.29989579 1.9951125 90
0.9773314 -0.38299814 1.9901714 32
1.2163045 -0.47665349 1.9912933 82
1.5598853 -0.61130404 2.0818074 45
0.1163812 -0.04731397 2.0060561 36
0.20413378 -0.08421275 2.0132346 104
0.47354224 -0.18678932 1.9960775 95
0.66072208 -0.26037648 1.9854547 89
0.86882478 -0.34204742 1.9936218 95
1.091175 -0.42959142 1.9883448 87
1.3402034 -0.52763885 1.9813027 84
1.6950458 -0.66734624 2.0531328 76
1.8174281 -0.71003938 1.9972385 31
2.1820428 -0.85249281 1.9706609 71
2.6658587 -1.0420502 1.9612085 67
3.3352959 -1.3037289 1.9602815 61
4.2664361 -1.6685603 1.9392073 53
5.741025 -2.2464135 1.9008586 100
3.1472635 -1.2314957 0.73311478 69
3.1717446 -1.2417133 0.39813891 87
1.9883175 -0.78000826 1.9827838 28
2.4142265 -0.94757801 1.9720063 33
2.9794552 -1.169433 1.9657331 68
3.7692559 -1.4801888 1.9594386 47
4.9540997 -1.9464766 1.9406476 45
nan nan nan 0
3.1429152 -1.2361239 0.56265491 81
5.982955 -2.3543336 0.35303569 84
0.02902288 -0.011969754 2.0041974 40
0.30444202 -0.12168782 2.0847909 101
0.3827655 -0.1519727 2.0034087 95
0.56631124 -0.22442229 1.9934158 86
0.76203233 -0.30184445 1.99051 90
0.97376108 -0.38552547 1.9857829 38
1.2146333 -0.48089626 1.9912933 76
1.5458188 -0.61202466 2.0664597 39
0.11621533 -0.047719926 2.0060561 36
0.20334598 -0.084718838 2.0082631 105
0.47288734 -0.18844114 1.9960775 93
0.65980923 -0.26268125 1.9854547 89
0.86560202 -0.3442733 1.9891212 95
1.0896686 -0.43339774 1.9883448 87
1.3383534 -0.53231388 1.9813027 82
1.695856 -0.67451197 2.0568078 71
1.8149384 -0.71637905 1.9972385 33
2.1790538 -0.86010438 1.9706609 71
2.6622052 -1.0513496 1.9612085 67
3.3307247 -1.3153634 1.9602815 61
4.2562747 -1.6817393 1.9373344 53
5.7420716 -2.2699668 1.9036771 100
3.1429458 -1.2424742 0.73311478 69
3.1673908 -1.2527772 0.39813891 87
1.9890544 -0.78832006 1.9861088 31
2.4109042 -0.95599949 1.9720063 33
2.9793625 -1.1814152 1.9682654 68
3.7640662 -1.4933369 1.9594386 33
4.9472752 -1.9637579 1.9406476 46
3.135227 -1.2451208 0.90434134 63
3.1385813 -1.2470871 0.56265491 81
nan nan nan 0
0.028980922 -0.012070989 2.0041974 40
0.30401537 -0.12274977 2.0847909 100
0.38223267 -0.15330787 2.0034087 95
0.56552446 -0.22639774 1.9934158 86
0.76097405 -0.30450258 1.99051 90
0.97240937 -0.38892218 1.9857829 54
1.2129472 -0.48513323 1.9912933 76
1.5406964 -0.61622626 2.0626228 39
0.11578077 -0.048013937 2.0010643 37
0.20304902 -0.085428134 2.0082631 106
0.47222665 -0.19009069 1.9960775 93
0.65888828 -0.26498279 1.9854547 89
0.86439496 -0.34729269 1.9891212 95
1.0881493 -0.43719873 1.9883448 87
1.3364872 -0.53698236 1.9813027 82
1.6934912 -0.68042749 2.0568078 71
1.8157395 -0.72403097 2.0007432 33
2.176038 -0.8677054 1.9706609 69
2.6585193 -1.060636 1.9612085 69
3.3261132 -1.3269818 1.9602815 64
4.2503781 -1.6965861 1.9373344 53
5.7430224 -2.293555 1.9064953 100
3.1385894 -1.2534376 0.73311478 69
3.1629987 -1.2638259 0.39813891 87
1.9897573 -0.79664636 1.9894335 28
2.4075525 -0.96440929 1.9720063 38
2.9752204 -1.1918079 1.9682654 70
3.7546179 -1.5047786 1.9573406 11
4.936007 -1.9792573 1.9390049 46
3.1353726 -1.2578671 0.9055137 70
3.1342092 -1.2580353 0.56265491 77
3.4443555 -1.3832228 0.24340287 6
0.02893861 -0.012172078 2.0041974 40
0.30358505 -0.12381024 2.0847909 99
0.38169521 -0.1546412 2.0034087 95
0.5647307 -0.2283704 1.9934158 86
0.75990653 -0.30715704 1.99051 91
0.97104591 -0.39231414 1.9857829 73
1.2112464 -0.48936421 1.9912933 82
1.5355636 -0.62039959 2.0587859 43
0.11561246 -0.048417792 2.0010643 37
0.20274958 -0.086136386 2.0082631 107
0.47156024 -0.19173792 1.9960775 95
0.65795928 -0.26728114 1.9854547 89
0.86317742 -0.35030788 1.9891212 95
1.0866164 -0.44099441 1.9883448 87
1.3346045 -0.54164428 1.9813027 84
1.6879646 -0.68505985 2.0531328 69
1.8132011 -0.73036468 2.0007432 34
2.172996 -0.87529594 1.9706609 71
2.6548007 -1.0699095 1.9612085 69
3.321461 -1.3385839 1.9602815 61
4.2444305 -1.7114123 1.9373344 53
5.7438793 -2.3171775 1.9093138 100
3.1341951 -1.2643857 0.73311478 69
3.1585677 -1.2748592 0.39813891 87
1.9904264 -0.80498725 1.9927584 22
2.4004245 -0.97129124 1.9690632 50
2.9710422 -1.2021861 1.9682654 70
3.749342 -1.5178754 1.9573406 11
4.9290681 -1.9964752 1.9390049 46
3.1309628 -1.2688038 0.9055137 70
3.1297987 -1.268968 0.56265491 77
3.4256175 -1.3896035 0.2427983 58
0.028895944 -0.012273019 2.0041974 42
0.30315104 -0.12486919 2.0847909 99
0.38115308 -0.1559726 2.0034087 95
0.5625475 -0.22977547 1.9886441 84
0.75882971 -0.30980775 1.99051 93
0.96967053 -0.39570135 1.9857829 83
1.2095308 -0.49358928 1.9912933 82
1.5304203 -0.62454456 2.0549488 43
0.11544275 -0.048821062 2.0010643 37
0.20244767 -0.086843587 2.0082631 107
0.47088811 -0.19338278 1.9960775 95
0.6570223 -0.26957622 1.9854547 89
0.86194938 -0.35331881 1.9891212 95
1.0850705 -0.44478473 1.9883448 89
1.3327057 -0.54629964 1.9813027 84
1.682426 -0.68966186 2.0494576 68
1.8106407 -0.73668945 2.0007432 34
2.1699276 -0.88287574 1.9706609 71
2.6510499 -1.07917 1.9612085 69
3.3167682 -1.3501699 1.9602815 61
4.2384305 -1.7262179 1.9373344 55
5.7446413 -2.3408337 1.9121321 100
3.1343114 -1.277172 0.73404741 68
3.1587098 -1.2877568 0.39858511 84
1.9945184 -0.81475455 1.9994081 20
2.3970196 -0.97966439 1.9690632 58
2.9668276 -1.2125497 1.9682654 70
3.7440212 -1.5309539 1.9573406 29
4.9220691 -2.0136688 1.9390049 46
3.1310129 -1.2815664 0.90668601 70
3.12535 -1.2798853 0.56265491 81
3.406877 -1.3958701 0.2421937 67
0.028852927 -0.012373811 2.0041974 42
0.30271327 -0.12592663 2.0847909 100
0.37966534 -0.15691315 1.9985133 96
0.56174201 -0.23173773 1.9886441 84
0.7595498 -0.31319949 1.9951125 90
0.96828341 -0.3990837 1.9857829 83
1.2078006 -0.49780834 1.9912933 80
1.5311949 -0.63110471 2.0587859 52
0.11527163 -0.049223732 2.0010643 39
0.20214328 -0.087549731 2.0082631 107
0.47021016 -0.19502531 1.9960775 91
0.65767151 -0.27252868 1.9901476 91
0.8607108 -0.35632542 1.9891212 95
1.0835114 -0.44856963 1.9883448 87
1.3307908 -0.55094832 1.9813027 84
1.6800084 -0.69553041 2.0494576 69
1.8080581 -0.74300528 2.0007432 37
2.1668322 -0.89044482 1.9706609 71
2.6472666 -1.0884173 1.9612085 69
3.3120348 -1.3617394 1.9602815 61
4.232379 -1.7410022 1.9373344 55
5.7453079 -2.3645236 1.9149506 99
3.1298342 -1.288105 0.73404741 68
3.1541955 -1.2987748 0.39858511 84
1.9951142 -0.82313597 2.002733 19
2.3935852 -0.98802549 1.9690632 64
2.9625769 -1.2228984 1.9682654 70
3.7344592 -1.5422812 1.9552425 59
4.910645 -2.0290341 1.9373622 46
3.1265204 -1.2924879 0.90668601 70
3.1208634 -1.290787 0.56265491 83
3.3927512 -1.4039334 0.24179062 79
0.028809559 -0.012474449 2.0041974 42
0.3029882 -0.12728363 2.0897303 100
0.37911531 -0.15823746 1.9985133 96
0.56092966 -0.23369719 1.9886441 84
0.75845194 -0.31584889 1.9951125 88
0.96688437 -0.4024612 1.9857829 83
1.2060555 -0.50202125 1.9912933 80
1.5289826 -0.6364457 2.0587859 50
0.1150991 -0.049625807 2.0010643 39
0.20183647 -0.088254809 2.0082631 107
0.46952656 -0.19666547 1.9960775 91
0.65671629 -0.27482271 1.9901476 91
0.85946178 -0.35932767 1.9891212 95
1.081939 -0.45234904 1.9883448 87
1.3288594 -0.55559027 1.9813027 84
1.6744426 -0.70008278 2.0457823 69
1.8054534 -0.7493121 2.0007432 37
2.1637108 -0.8980031 1.9706609 71
2.6434512 -1.0976514 1.9612085 67
3.3072615 -1.3732922 1.9602815 63
4.2262759 -1.7557653 1.9373344 55
5.7458787 -2.3882465 1.917769 97
3.1253188 -1.2990222 0.73404741 69
3.1496427 -1.3097771 0.39858511 84
1.999123 -0.83296782 2.0093827 19
2.3901217 -0.99637467 1.9690632 66
2.9582901 -1.2332323 1.9682654 70
3.7290528 -1.5553074 1.9552425 65
4.903533 -2.0461631 1.9373622 46
3.1219897 -1.3033936 0.90668601 71
3.120908 -1.3035817 0.56334472 79
3.3878298 -1.4157678 0.24179062 82
0.02876584 -0.012574937 2.0041974 42
0.30182678 -0.12803689 2.0847909 97
0.37856063 -0.15955988 1.9985133 96
0.56011051 -0.23565377 1.9886441 84
0.75734478 -0.31849447 1.9951125 90
0.96547365 -0.40583384 1.9857829 83
1.2017018 -0.50513774 1.9871606 82
1.5267516 -0.64177895 2.0587859 39
0.11492517 -0.050027274 2.0010643 42
0.20152716 -0.088958815 2.0082631 108
0.46883717 -0.19830321 1.9960775 91
0.6557529 -0.27711344 1.9901476 91
0.85820222 -0.36232558 1.9891212 83
1.0803534 -0.45612296 1.9883448 87
1.3269119 -0.56022549 1.9813027 84
1.6688654 -0.7046048 2.0421071 61
1.8028269 -0.75560969 2.0007432 37
2.1605632 -0.90555036 1.9706609 71
2.6396036 -1.106872 1.9612085 67
