# .PCD v0.7 - Point Cloud Data file format
VERSION 0.7
FIELDS x y z intensity
SIZE 4 4 4 4
TYPE F F F F
COUNT 1 1 1 1
WIDTH 1390
HEIGHT 1
VIEWPOINT 0 0 0 1 0 0 0
POINTS 1390
DATA ascii
-1.8826222 0.60081315 2.0217705 71
-2.2948093 0.73236144 2.0240033 50
-2.8302028 0.90377158 2.0324864 48
-3.5252841 1.1257367 2.0228682 32
-4.6817117 1.4959226 2.0740657 6
-6.4203954 2.0527108 2.069962 11
-9.8959332 3.1639013 2.0639637 31
-9.8989496 3.1667707 1.0241714 41
-2.080055 0.66702622 2.0260069 73
-2.5426409 0.81585765 2.0279264 69
-3.1462109 1.0095292 2.0265114 37
-4.037118 1.2961737 2.0475569 26
-5.5397773 1.7796913 2.1131296 2
-7.9037838 2.5406675 2.0930712 7
-9.890543 3.1812158 1.5394341 53
-9.7584743 3.1406162 0.50720686 35
-0.029683147 0.010088407 1.9991974 42
-0.29900238 0.097997241 2.0008237 93
-0.39357817 0.12799533 2.0131991 91
-0.48849833 0.15850987 1.6880255 38
-0.55851436 0.18113011 1.4428096 39
-1.0076677 0.32661989 2.0077264 83
-1.2560985 0.40715092 2.0119584 24
-1.5419102 0.49979889 2.0165794 78
-0.1190105 0.040245455 2.0060561 55
-0.20831433 0.071638033 2.0082631 91
-0.48748386 0.15921032 2.0105951 82
-0.48485026 0.15817088 1.4410939 39
-0.89606547 0.29199779 2.0116253 93
-1.1298639 0.36819178 2.0139403 87
-1.4324924 0.46681648 2.0690715 19
-1.7030247 0.55498159 2.0200562 85
-1.8805135 0.60738105 2.0217705 71
-2.295943 0.7415638 2.0271409 35
-2.8270309 0.91364533 2.0324864 61
nan nan nan 0
-4.6852837 1.5151086 2.077812 6
-6.4131908 2.07511 2.069962 15
-9.8988495 3.2029624 2.0667617 42
-9.8973103 3.2043726 1.0250638 37
-2.0777142 0.67428291 2.0260069 73
-2.5397778 0.82472813 2.0279264 69
-3.1385677 1.0191737 2.0239789 37
-4.0325689 1.3102579 2.0475569 30
-5.5425129 1.8019379 2.1164148 2
-7.8902435 2.5667377 2.0918989 7
-9.8935051 3.2203193 1.5415035 76
-9.7569523 3.1777549 0.5076099 94
-0.029647751 0.010191958 1.9991974 44
-0.29865849 0.099040359 2.0008237 93
-0.39312899 0.12936838 2.0131991 91
-0.48936108 0.16068009 1.6927972 39
-0.55787867 0.18307859 1.4428096 39
-1.0065215 0.33013532 2.0077264 81
-1.2519957 0.41065601 2.0078254 24
-1.5401561 0.50517809 2.0165794 76
-0.11886928 0.040660635 2.0060561 60
-0.20806301 0.072364755 2.0082631 91
-0.48692515 0.16091099 2.0105951 84
-0.48593384 0.16040334 1.4457866 38
-0.89297271 0.29444191 2.0071244 93
-1.1285717 0.37213349 2.0139403 87
-1.4337165 0.47275785 2.0730612 19
-1.7010771 0.56092286 2.0200562 83
-1.878382 0.61394161 2.0217705 71
-2.2933407 0.74957365 2.0271409 15
-2.8277986 0.92480767 2.035228 63
-2.6120296 0.85424459 1.5244925 3
-4.6887784 1.5343375 2.081558 8
-6.4104676 2.0989764 2.0713713 14
-9.896946 3.2405536 2.0686269 58
-9.9002628 3.2435527 1.0264024 35
-2.0753477 0.68153137 2.0260069 73
-2.5368834 0.8335886 2.0279264 69
-3.1349909 1.0301232 2.0239789 40
-4.0279703 1.3243263 2.0475569 30
-5.5361896 1.821274 2.1164148 2
-7.8766193 2.5927441 2.0907266 8
-9.8916121 3.2579329 1.5428832 55
-9.75529 3.214921 0.50801295 14
-0.029611994 0.010295385 1.9991974 42
-0.29831097 0.10008228 2.0008237 93
-0.39267501 0.13073988 2.0131991 91
-0.48879722 0.16238728 1.6927972 38
-0.55723625 0.18502483 1.4428096 39
-1.0053629 0.33364674 2.0077264 81
-1.2505546 0.41502377 2.0078254 24
-1.5383832 0.51055115 2.0165794 78
-0.11872663 0.041075319 2.0060561 64
-0.20780914 0.073090591 2.0082631 91
-0.48636049 0.1626097 2.0105951 88
-0.48537096 0.16209859 1.4457866 36
-0.8919394 0.29755715 2.0071244 90
-1.1272658 0.37607065 2.0139403 87
-1.4349165 0.47871336 2.0770507 18
-1.6991087 0.56685728 2.0200562 85
-1.8762275 0.62049466 2.0217705 71
-2.2907102 0.75757438 2.0271409 15
-2.8245533 0.93467289 2.035228 63
-2.6090317 0.86335701 1.5244925 3
-4.6921959 1.5536096 2.085304 8
-6.4031014 2.1213403 2.0713713 14
-9.8995628 3.2797151 2.0714247 65
-9.9030628 3.2827928 1.0277411 52
-2.0729561 0.68877149 2.0260069 73
-2.5339582 0.84243894 2.0279264 69
-3.1272845 1.0397 2.0214465 40
-4.0233231 1.3383784 2.0475569 29
-5.5432405 1.8450619 2.1213431 2
-7.8629103 2.6186874 2.0895545 8
-9.8942728 3.297138 1.5449525 54
-9.7582264 3.2536945 0.50861758 6
-0.029575875 0.010398688 1.9991974 44
-0.29795977 0.10112296 2.0008237 93
-0.39221627 0.13210978 2.0131991 93
-0.48964307 0.16456838 1.6975689 38
-0.55658704 0.18696882 1.4428096 39
-1.0041922 0.33715409 2.0077264 81
-1.251766 0.42028221 2.0119584 24
-1.5365918 0.51591808 2.0165794 76
-0.11858253 0.041489504 2.0060561 62
-0.20704991 0.073635988 2.0032918 91
-0.48578992 0.16430642 2.0105951 93
-0.48643705 0.16434428 1.4504794 35
-0.89089531 0.30066878 2.0071244 90
-1.1259462 0.38000327 2.0139403 87
-1.4332367 0.48371929 2.0770507 18
-1.6971197 0.57278484 2.0200562 85
-1.87405 0.62704009 2.0217705 71
-2.2880516 0.76556575 2.0271409 35
-2.7736921 0.92859703 2.0023305 46
-2.5387857 0.84995568 1.487404 3
-4.6955357 1.5729239 2.0890501 7
-6.4002066 2.1452029 2.0727806 14
-9.9020271 3.3189344 2.0742226 44
-9.9009857 3.3205073 1.0286335 56
-2.0705392 0.69600326 2.0260069 73
-2.5310018 0.8512789 2.0279264 69
-3.1236362 1.0506098 2.0214465 39
-4.0186267 1.3524144 2.0475569 25
-5.5501928 1.8689214 2.126271 2
-7.8491149 2.6445661 2.0883822 8
-9.8967819 3.3364012 1.547022 51
-9.756278 3.2909312 0.50902063 27
-0.029498493 0.010486677 1.9941976 42
-0.29760498 0.10216241 2.0008237 93
-0.39175272 0.13347806 2.0131991 93
-0.48906565 0.16627656 1.6975689 38
-0.55593097 0.18891053 1.4428096 39
-1.0030091 0.34065732 2.0077264 79
-1.2502912 0.42464912 2.0119584 27
-1.5378172 0.52230966 2.0204165 74
-0.11843698 0.041903179 2.0060561 66
-0.20679159 0.074358277 2.0032918 91
-0.4852134 0.16600116 2.0105951 95
-0.48586044 0.16604127 1.4504794 33
-0.88984036 0.30377674 2.0071244 92
-1.1246128 0.38393122 2.0139403 87
-1.4343919 0.48969305 2.0810401 18
-1.69511 0.57870537 2.0200562 85
-1.8752278 0.63472128 2.025275 67
-2.2816784 0.77229989 2.0240033 48
-2.7347896 0.92620152 1.9776572 30
-2.5358036 0.85881245 1.487404 3
-4.6987982 1.5922806 2.0927961 7
-6.3926797 2.1675308 2.0727806 13
-9.9043369 3.3582108 2.0770206 41
-9.9034834 3.359848 1.0299721 55
-2.0680971 0.70322657 2.0260069 73
-2.5280151 0.86010855 2.0279264 67
-3.1158686 1.0601184 2.018914 39
-4.0138817 1.3664337 2.0475569 25
-5.5257545 1.8821933 2.1197004 2
-7.8398352 2.6719484 2.0883822 8
-9.8944502 3.3741243 1.5484017 46
-9.7541876 3.3281937 0.50942373 23
-0.029461708 0.010589582 1.9941976 44
-0.29724658 0.10320063 2.0008237 95
-0.39128441 0.13484472 2.0131991 91
-0.48989454 0.16846845 1.7023406 38
-0.55526823 0.19084994 1.4428096 40
-1.0018139 0.34415638 2.0077264 79
-1.2488012 0.42901084 2.0119584 29
-1.5359846 0.5276745 2.0204165 74
-0.11801752 0.042218357 2.0010643 67
-0.20653078 0.075079665 2.0032918 91
-0.484631 0.16769384 2.0105951 96
-0.48690888 0.16830005 1.4551722 32
-0.88877457 0.30688104 2.0071244 95
-1.1232657 0.38785452 2.0139403 87
-1.4355226 0.49568072 2.0850296 18
-1.6930796 0.58461893 2.0200562 85
-1.8730007 0.64126325 2.025275 66
-2.2789686 0.78025979 2.0240033 73
-2.6880267 0.92083567 1.9475011 23
-2.5118349 0.86048013 1.475814 5
-4.701982 1.6116791 2.0965421 7
-6.3896117 2.1913884 2.0741897 13
-9.8972015 3.3943567 2.0779531 44
-9.9058256 3.3992465 1.0313108 45
-2.0656295 0.71044129 2.0260069 73
-2.5249975 0.86892784 2.0279264 69
-3.1162255 1.0723913 2.0214465 38
-4.0090876 1.3804364 2.0475569 29
-5.3807383 1.8537841 2.0687771 9
-7.8258653 2.6977141 2.0872097 8
-9.896656 3.4134858 1.5504711 55
-9.7566776 3.367111 0.5100283 20
-0.029424563 0.010692358 1.9941976 44
-0.29688451 0.10423759 2.0008237 95
-0.39081135 0.13620974 2.0131991 87
-0.48930353 0.17017747 1.7023406 38
-0.55459863 0.19278702 1.4428096 40
-1.0006065 0.34765127 2.0077264 81
-1.2499545 0.43429098 2.0160913 32
-1.5341334 0.53303283 2.0204165 76
-0.11786943 0.042630058 2.0010643 69
-0.20626745 0.075800136 2.0032918 93
-0.48404267 0.16938451 2.0105951 97
-0.48631844 0.16999865 1.4551722 30
-0.88975382 0.31069952 2.0116253 95
-1.1219051 0.3917731 2.0139403 87
-1.4337835 0.50068861 2.0850296 19
-1.6910286 0.59052533 2.0200562 83
-1.874121 0.64896429 2.0287795 52
-2.2762311 0.78821003 2.0240033 73
-2.6729429 0.92610627 1.9392767 24
-2.4878855 0.86199093 1.4642237 5
-4.7007079 1.6296008 2.0984151 7
-6.3819237 2.2136791 2.0741897 14
-9.8667278 3.4224446 2.0742226 41
-9.9080143 3.4387021 1.0326493 44
-2.0631373 0.71764731 2.0260069 75
-2.5181317 0.87640774 2.0249834 67
-3.1124635 1.0832622 2.0214465 38
-4.0042443 1.3944224 2.0475569 31
-5.3920727 1.8787705 2.0753479 7
-7.8118119 2.7234154 2.0860374 8
-9.8940325 3.4512725 1.5518507 54
-9.7543001 3.4044406 0.51043135 24
-0.029387061 0.010795004 1.9941976 44
-0.29651886 0.10527328 2.0008237 93
-0.39129373 0.13791163 2.0180943 89
-0.49011546 0.17238005 1.7071123 38
-0.55576527 0.19536971 1.447412 40
-0.99938685 0.35114193 2.0077264 79
-1.2484308 0.43865147 2.0160913 34
-1.5322634 0.53838474 2.0204165 76
-0.11744811 0.042941347 1.9960728 67
-0.20600159 0.076519676 2.0032918 91
-0.48344851 0.17107308 2.0105951 97
-0.48734906 0.17227037 1.459865 30
-0.88866383 0.31380349 2.0116253 93
-1.1205308 0.39568689 2.0139403 87
-1.4348692 0.50669408 2.0890193 18
-1.688957 0.59642452 2.0200562 83
-1.8718442 0.65550214 2.0287795 39
-2.2734659 0.79615074 2.0240033 73
-2.7407255 0.9603197 1.988623 37
-2.4681375 0.86481011 1.4549516 5
-4.7037401 1.6490668 2.1021612 7
-6.3786845 2.2375302 2.075599 13
-9.8918047 3.4698725 2.0816836 49
-9.9100475 3.4782143 1.033988 52
-2.0606196 0.72484469 2.0260069 73
-2.5150571 0.88519233 2.0249834 64
-3.1127298 1.0955517 2.0239789 41
-3.9993527 1.4083914 2.0475569 30
-5.3854818 1.8975807 2.0753479 7
-7.8022575 2.7506671 2.0860374 8
-9.895936 3.4907308 1.5539203 67
-9.7564898 3.4434566 0.51103598 57
-0.0293492 0.010897517 1.9941976 45
-0.29614958 0.10630767 2.0008237 92
-0.39080998 0.13927665 2.0180943 89
-0.49091789 0.17459033 1.711884 38
-0.55507988 0.19730851 1.447412 40
-0.99815506 0.35462832 2.0077264 79
-1.246892 0.44300663 2.0160913 37
-1.5303748 0.54373002 2.0204165 76
-0.1172975 0.043351058 1.9960728 69
-0.20623286 0.077426583 2.0082631 91
-0.48284838 0.17275961 2.0105951 97
-0.48674473 0.17397049 1.459865 29
-0.88756305 0.31690356 2.0116253 95
-1.1191428 0.39959586 2.0139403 87
-1.4330916 0.51169956 2.0890193 18
-1.6900574 0.60345644 2.0237315 85
-1.8729062 0.66322255 2.032284 37
-2.270673 0.8040818 2.0240033 73
-2.7846527 0.98663843 2.0215206 46
-2.427521 0.8601042 1.4340894 6
-4.7023249 1.667025 2.1040342 7
-6.3708358 2.2597828 2.075599 12
-9.7685213 3.4649684 2.0593007 35
-9.9072323 3.5161171 1.0348804 50
-2.061595 0.73328459 2.0293317 71
-2.5119517 0.89396614 2.0249834 56
-3.1170104 1.1093014 2.0290439 47
-3.9944119 1.4223429 2.0475569 35
-5.3699279 1.9131984 2.0720625 19
-7.7880297 2.776253 2.0848651 8
-9.8976841 3.5302436 1.5559896 69
-9.7585258 3.4825296 0.51164055 11
-0.029310983 0.010999899 1.9941976 45
-0.2957767 0.10734078 2.0008237 92
-0.39032143 0.14063999 2.0180943 89
-0.49030545 0.17630289 1.711884 38
-0.55438781 0.19924489 1.447412 40
-0.99691111 0.35811037 2.0077264 81
-1.2453381 0.4473564 2.0160913 39
-1.5284674 0.54906875 2.0204165 78
-0.11714546 0.043760236 1.9960728 69
-0.20596135 0.078146003 2.0082631 93
-0.48224241 0.174444 2.0105951 97
-0.48775744 0.17625502 1.4645576 28
-0.88645148 0.31999978 2.0116253 95
-1.117741 0.40349993 2.0139403 87
-1.4341316 0.51772225 2.0930085 20
-1.6879408 0.60935217 2.0237315 85
-1.8705798 0.66975617 2.032284 33
-2.2678523 0.81200302 2.0240033 71
-2.7772553 0.99494255 2.0187793 40
-2.424504 0.86857259 1.4340894 6
-4.7052054 1.6865577 2.1077805 6
-6.3674235 2.2836268 2.077008 12
-9.8026056 3.5156293 2.0686269 31
-9.9089603 3.5557241 1.036219 63
-2.0590227 0.74047637 2.0293317 62
-2.5126193 0.90409756 2.0279264 56
-3.1090624 1.1187154 2.0265114 39
-3.9894226 1.4362775 2.0475569 35
-5.3632174 1.9319313 2.0720625 22
-7.769146 2.8001251 2.0825205 10
-9.8992767 3.5698111 1.5580591 73
-9.7604084 3.5216587 0.51224512 5
-0.029272407 0.011102146 1.9941976 45
-0.2954002 0.10837258 2.0008237 93
-0.38982815 0.14200161 2.0180943 91
-0.49109074 0.17852363 1.7166559 38
-0.55368894 0.20117885 1.447412 40
-0.995655 0.36158803 2.0077264 81
-1.2411239 0.4507401 2.0119584 48
-1.5265416 0.55440074 2.0204165 78
-0.116992 0.044168886 1.9960728 69
-0.2056873 0.078864463 2.0082631 93
-0.48163053 0.17612629 2.0105951 97
-0.48713923 0.17795654 1.4645576 29
-0.88532901 0.32309216 2.0116253 95
-1.1187756 0.40829328 2.0182064 87
-1.4323157 0.52272516 2.0930085 20
-1.6858035 0.61524051 2.0237315 86
-1.8682305 0.67628169 2.032284 29
-2.2650039 0.81991434 2.0240033 71
-2.7737656 1.0046308 2.0187793 40
-2.3714724 0.85892618 1.4062731 6
-4.7036486 1.7045511 2.1096535 6
-6.368434 2.3091097 2.0798266 13
-9.8595438 3.5749419 2.0826163 38
-9.910532 3.5953865 1.0375576 66
-2.0564256 0.74765921 2.0293317 39
-2.5094481 0.91286272 2.0279264 67
-3.1010871 1.1280875 2.0239789 35
-3.9886503 1.4517468 2.049655 29
-5.3520031 1.9490246 2.0704198 22
-7.7547574 2.8255634 2.0813482 10
-9.900713 3.6094332 1.5601286 74
-9.7574434 3.5591316 0.51264822 17
-0.029233474 0.011204259 1.9941976 49
-0.29502013 0.10940306 2.0008237 95
-0.38933006 0.14336149 2.0180943 91
-0.49046457 0.18023677 1.7166559 39
-0.55298334 0.20311034 1.447412 40
-0.99438673 0.36506131 2.0077264 81
-1.239543 0.45506966 2.0119584 64
-1.5245969 0.559726 2.0204165 78
-0.11683711 0.044576995 1.9960728 71
-0.20541076 0.079581961 2.0082631 91
-0.48101279 0.17780641 2.0105951 97
-0.48813382 0.18025371 1.4692504 30
-0.8821528 0.32542685 2.0071244 95
-1.1173435 0.41219604 2.0182064 87
-1.4304824 0.5277217 2.0930085 21
-1.6836455 0.62112129 2.0237315 86
-1.8658586 0.68279886 2.032284 27
-2.2621284 0.82781565 2.0240033 73
-2.7623887 1.0114318 2.0132964 38
-2.4059007 0.88090789 1.4271353 17
-4.7063756 1.7241488 2.1133995 6
-6.3648391 2.3329766 2.0812356 11
-9.8931284 3.6262419 2.0919425 41
-9.9119492 3.635103 1.0388963 55
-2.0573084 0.75612122 2.0326567 20
-2.5100398 0.92301184 2.0308697 69
-3.0849912 1.1344414 2.0163815 27
-3.9835584 1.4656609 2.049655 30
-5.3451672 1.9676945 2.0704198 23
-7.7402859 2.8509355 2.0801759 11
-9.9019928 3.6491077 1.5621979 59
-9.7590218 3.5983548 0.51325279 38
-0.029234651 0.011322558 1.9991974 49
-0.29463643 0.11043221 2.0008237 95
-0.38787308 0.1443644 2.0131991 93
-0.49123248 0.18246783 1.7214276 38
-0.55227101 0.2050394 1.447412 40
-0.99310637 0.36853015 2.0077264 79
-1.237947 0.45939374 2.0119584 70
-1.5226339 0.5650444 2.0204165 76
-0.11668079 0.04498456 1.9960728 71
-0.20513171 0.080298498 2.0082631 89
-0.48038921 0.1794844 2.0105951 97
-0.48750165 0.18195651 1.4692504 32
-0.88101143 0.32850412 2.0071244 95
-1.1158979 0.41609374 2.0182064 87
-1.4314555 0.53376484 2.0969982 22
-1.6814671 0.62699449 2.0237315 85
-1.8601191 0.68807054 2.0287795 26
-2.2555735 0.83435631 2.0208654 73
-2.7549195 1.0196167 2.0105548 38
-3.4664338 1.2829576 2.0205503 28
-4.7046762 1.7421764 2.1152725 8
-6.365654 2.3585136 2.084054 11
-9.9172592 3.6744068 2.0994034 39
-9.9132071 3.6748731 1.0402349 50
-2.0546565 0.76329798 2.0326567 20
-2.5068028 0.93176788 2.0308697 69
nan nan nan 0
-3.9784179 1.4795574 2.049655 32
-5.3382664 1.9863408 2.0704198 17
-7.7257323 2.876241 2.0790036 12
-9.9031172 3.6888363 1.5642674 57
-9.7510834 3.6341429 0.51345432 41
-0.029194949 0.011424537 1.9991974 49
-0.29424915 0.11146 2.0008237 93
-0.38736677 0.14571744 2.0131991 93
-0.49059257 0.18418144 1.7214276 38
-0.55155188 0.20696594 1.447412 40
-0.9918139 0.3719945 2.0077264 79
-1.2363358 0.46371216 2.0119584 77
-1.5206522 0.57035595 2.0204165 78
-0.11652306 0.045391578 1.9960728 73
-0.20485018 0.081014052 2.0082631 89
-0.47975978 0.18116017 2.0105951 97
-0.48847812 0.18426625 1.4739432 33
-0.87985939 0.33157742 2.0071244 93
-1.1144387 0.41998643 2.0182064 87
-1.4324039 0.53982121 2.1009874 23
-1.6792682 0.63286012 2.0237315 85
-1.857706 0.6945594 2.0287795 26
-2.2526474 0.8422246 2.0208654 73
-2.7474272 1.0277619 2.0078135 38
-3.4204407 1.2795278 1.9973699 9
-4.702908 1.7602134 2.1171455 6
-6.3618751 2.3824017 2.0854633 8
-9.9043741 3.7090018 2.0994034 37
-9.9143105 3.7146962 1.0415735 61
-2.0519798 0.77046549 2.0326567 33
-2.4770482 0.93056214 2.0102675 60
-2.3424723 0.88000798 1.55548 4
-3.9689803 1.4918385 2.0475569 32
-5.3313003 2.0049629 2.0704198 16
-7.7201948 2.9049029 2.0801759 12
-9.8994503 3.726872 1.5656471 69
-9.7336636 3.6663973 0.51325279 47
-0.029154891 0.011526377 1.9991974 49
-0.29385829 0.11248644 2.0008237 95
-0.38685578 0.14706872 2.0131991 93
-0.48994663 0.18589281 1.7214276 38
-0.55082607 0.20888995 1.447412 40
-0.99050939 0.37545428 2.0077264 79
-1.2373409 0.46902239 2.0160913 79
-1.5186521 0.57566053 2.0204165 78
-0.1163639 0.045798045 1.9960728 75
-0.20456615 0.081728615 2.0082631 91
-0.47912449 0.18283372 2.0105951 97
-0.48783195 0.18597025 1.4739432 34
-0.8807317 0.33542177 2.0116253 95
-1.1129659 0.42387402 2.0182064 87
-1.4305109 0.54481792 2.1009874 27
-1.677049 0.63871801 2.0237315 85
-1.8552701 0.70103979 2.0287795 26
-2.2496936 0.8500827 2.0208654 73
-2.739912 1.0358672 2.0050719 37
-2.2390745 0.84651941 1.3390503 3
-4.7054067 1.7798992 2.1208916 6
-6.3624935 2.4079905 2.0882816 7
-9.9051485 3.7487681 2.102201 46
-9.9152555 3.7545717 1.0429122 58
-2.0457861 0.77629852 2.0293317 42
-2.454891 0.93202966 1.9955517 42
-2.3393862 0.88817936 1.55548 4
-3.9637487 1.5056837 2.0475569 30
-5.3242693 2.02356 2.0704198 16
-7.71455 2.9335611 2.0813482 12
-9.9002647 3.7666872 1.5677165 71
nan nan nan 0
-0.029114479 0.011628076 1.9991974 49
-0.29346383 0.11351152 2.0008237 95
-0.38634002 0.14841822 2.0131991 91
-0.4892948 0.18760191 1.7214276 38
-0.55009353 0.21081141 1.447412 40
-0.98919278 0.37890953 2.0077264 81
-1.2356962 0.47333866 2.0160913 79
-1.5166334 0.58095813 2.0204165 76
-0.11620333 0.046203949 1.9960728 75
-0.2042796 0.082442194 2.0082631 91
-0.47965693 0.18495768 2.0154345 97
-0.48879015 0.18829235 1.4786361 35
-0.87955546 0.33849406 2.0116253 95
-1.1090456 0.42681968 2.0139403 87
-1.4286003 0.54980803 2.1009874 30
-1.6748093 0.64456809 2.0237315 85
-1.8528118 0.70751154 2.0287795 29
-2.2467127 0.85793036 2.0208654 73
-2.7323735 1.0439327 2.0023305 35
-2.2361059 0.85433 1.3390503 3
-4.6948347 1.7946578 2.1190186 6
-6.35853 2.4318986 2.0896909 9
-9.9011784 3.7868302 2.1040664 48
-9.9160423 3.7944992 1.0442508 56
-2.0430639 0.78343493 2.0293317 71
-2.4252062 0.93045807 1.9749495 37
-2.2879698 0.87780821 1.5250909 4
-3.9584687 1.5195106 2.0475569 26
-5.3171725 2.0421331 2.0704198 17
-7.7088003 2.9622159 2.0825205 11
-9.9009247 3.8065543 1.569786 73
-2.2146177 0.85188353 0.1893926 2
-0.029073715 0.011729633 1.9991974 49
-0.29306585 0.1145352 2.0008237 93
-0.38581964 0.14976588 2.0131991 85
-0.48863694 0.18930873 1.7214276 38
-0.54935431 0.21273032 1.447412 40
-0.98786408 0.38236016 2.0077264 81
-1.2340363 0.47764918 2.0160913 81
-1.5145962 0.58624864 2.0204165 76
-0.11604133 0.046609294 1.9960728 77
-0.20349641 0.082952589 2.0032918 91
-0.47900841 0.18663087 2.0154345 96
-0.48812991 0.18999742 1.4786361 36
-0.87836856 0.34156221 2.0116253 93
-1.1075491 0.43068835 2.0139403 87
-1.4294816 0.55588382 2.1049771 33
-1.6725491 0.65041035 2.0237315 85
-1.8503307 0.71397483 2.0287795 34
-2.2400723 0.86436629 2.0177276 73
-2.7248118 1.051958 1.999589 33
nan nan nan 0
-4.6798925 1.8076942 2.1152725 8
-6.3544774 2.4558086 2.0911002 7
-9.8970642 3.8249102 2.1059318 38
-9.9166718 3.8344777 1.0455894 54
-2.0403168 0.7905618 2.0293317 81
-2.4219437 0.93891793 1.9749495 37
-2.2929313 0.88890606 1.5301558 4
-3.9531405 1.5333191 2.0475569 26
-5.3056092 2.0589724 2.0687771 18
-7.7074766 2.9926252 2.0848651 8
-9.9060402 3.8482647 1.5725453 63
-2.2256005 0.86503857 0.1899972 2
-0.028992418 0.011814021 1.9941976 53
-0.29266423 0.11555749 2.0008237 93
-0.38529447 0.15111172 2.0131991 85
-0.48936388 0.19155769 1.7261993 38
-0.54860842 0.21464662 1.447412 40
-0.98652339 0.38580611 2.0077264 79
-1.2323616 0.48195383 2.0160913 81
-1.5125406 0.59153193 2.0204165 78
-0.11587793 0.047014069 1.9960728 77
-0.20320562 0.083662413 2.0032918 93
-0.47835404 0.18830179 2.0154345 96
-0.48906964 0.19233178 1.4833288 37
-0.87717092 0.34462619 2.0116253 95
-1.1060388 0.43455181 2.0139403 89
-1.4275324 0.56087029 2.1049771 36
-1.6702685 0.6562447 2.0237315 83
-1.8478272 0.7204293 2.0287795 38
-2.2370415 0.87218028 2.0177276 69
-2.7172279 1.0599434 1.9968475 33
nan nan nan 0
-4.6476421 1.813906 2.1040342 8
-6.3548031 2.4814651 2.0939183 7
-9.8973799 3.864795 2.1087296 35
-9.9171429 3.874507 1.0469282 49
-2.0340676 0.7963177 2.0260069 81
-2.437469 0.95473731 1.9896654 52
nan nan nan 0
-3.9477642 1.5471088 2.0475569 28
-5.2983899 2.0774798 2.0687771 16
-7.701508 3.0212862 2.0860374 8
-9.9063778 3.888248 1.5746146 62
nan nan nan 0
-0.028951004 0.011915151 1.9941976 53
-0.2922591 0.11657839 2.0008237 92
-0.38476464 0.15245573 2.0131991 89
-0.48869225 0.19326472 1.7261993 38
-0.54603904 0.2158421 1.4428096 40
-0.98517066 0.38924736 2.0077264 81
-1.2306716 0.48625264 2.0160913 75
-1.5104666 0.59680808 2.0204165 76
-0.11598087 0.047528524 2.0010643 78
-0.20291233 0.084371224 2.0032918 93
-0.47769383 0.1899704 2.0154345 96
-0.48999903 0.194675 1.4880216 38
-0.87596262 0.34768602 2.0116253 93
-1.1045153 0.43840995 2.0139403 89
-1.4283673 0.56696177 2.1089666 37
-1.6679677 0.66207099 2.0237315 85
-1.8453013 0.72687501 2.0287795 48
-2.2339833 0.87998372 2.0177276 66
-2.709621 1.0678886 1.9941061 34
-3.4429269 1.356896 2.0228682 13
-4.615406 1.8199148 2.0927961 9
-6.3505654 2.5053928 2.0953276 7
-9.8929672 3.9029248 2.1105947 32
-9.9220858 3.9164135 1.0487128 44
-2.0312753 0.80341309 2.0260069 81
-2.4416385 0.96621448 1.9955517 52
nan nan nan 0
-3.9381204 1.559209 2.045459 31
-5.2867155 2.094223 2.0671344 14
-7.6954331 3.0499418 2.0872097 17
-9.9111576 3.9301057 1.577374 48
-9.779645 3.8799317 0.51808953 16
-0.028909236 0.012016137 1.9941976 53
-0.29185039 0.11759784 2.0008237 93
-0.38423014 0.15379789 2.0131991 87
-0.48940161 0.19552357 1.730971 38
-0.5452823 0.21774681 1.4428096 40
-0.98380595 0.39268389 2.0077264 81
-1.228967 0.49054554 2.0160913 75
-1.5083742 0.60207701 2.0204165 76
-0.11581426 0.047933083 2.0010643 80
-0.20261659 0.085079014 2.0032918 93
-0.47702777 0.19163673 2.0154345 97
-0.49091798 0.19702704 1.4927144 38
-0.87474364 0.35074157 2.0116253 93
-1.1053989 0.44323337 2.0182064 87
-1.4263796 0.57194424 2.1089666 39
-1.6656466 0.66788924 2.0237315 85
-1.8427527 0.73331195 2.0287795 60
-2.2308981 0.88777643 2.0177276 60
-2.7058768 1.0773405 1.9941061 28
-3.4340534 1.367267 2.0205503 12
-4.587491 1.8274362 2.083431 9
-6.3506937 2.5310972 2.098146 6
-9.8929729 3.9428899 2.1133926 28
-9.9176073 3.9547138 1.0496054 40
-2.0284588 0.8104986 2.0260069 79
-2.4457574 0.97773224 2.0014381 48
-3.0761321 1.2297393 2.0315762 52
-3.9326537 1.5729461 2.045459 32
-5.2793727 2.1126642 2.0671344 13
-7.6892524 3.0785921 2.0883822 19
-9.9157667 3.972044 1.5801332 43
-9.8124151 3.9326308 0.52010483 7
-0.028867116 0.012116976 1.9941976 53
-0.2914381 0.11861588 2.0008237 93
-0.38369095 0.15513816 2.0131991 91
-0.48871613 0.19723071 1.730971 38
-0.54451889 0.21964888 1.4428096 39
-0.98242921 0.39611563 2.0077264 81
-1.2298568 0.49588475 2.0202241 81
-1.5062633 0.60733855 2.0204165 73
-0.11564624 0.048337061 2.0010643 84
-0.20231839 0.085785754 2.0032918 91
-0.47635594 0.19330069 2.0154345 96
-0.49022722 0.19873947 1.4927144 39
-0.873514 0.35379288 2.0116253 95
-1.1038449 0.44708925 2.0182064 87
-1.4243743 0.57691979 2.1089666 40
-1.666447 0.67497206 2.0274065 85
-1.8401817 0.73973989 2.0287795 66
-2.2277856 0.89555836 2.0177276 60
-2.7020998 1.0867792 1.9941061 22
-3.4374804 1.3825521 2.0251863 12
-4.5595798 1.8347852 2.0740657 10
-6.3551707 2.558625 2.1023736 5
-9.8928204 3.9829028 2.1161904 32
-9.9222183 3.9967515 1.0513902 56
-2.0221541 0.81617653 2.022682 79
-2.4423294 0.98626357 2.0014381 38
-3.0838134 1.2453125 2.0391736 54
-3.9313464 1.588364 2.0475569 30
-5.2675881 2.1293101 2.0654917 12
-7.6829658 3.1072361 2.0895545 20
-9.9156132 4.0122046 1.5822027 68
-9.8125219 3.9724834 0.52070946 4
-0.028824642 0.012217667 1.9941976 53
-0.29102227 0.11963247 2.0008237 93
-0.38314709 0.15647654 2.0131991 91
-0.48940769 0.19949928 1.7357427 38
-0.54555804 0.22228546 1.447412 39
-0.98104048 0.39954254 2.0077264 81
-1.2281184 0.50017476 2.0202241 81
-1.5041341 0.6125927 2.0204165 73
-0.1154768 0.048740447 2.0010643 84
-0.20201769 0.086491458 2.0032918 93
-0.47567829 0.19496229 2.0154345 96
-0.49112746 0.20110345 1.4974072 39
-0.87227362 0.35683984 2.0116253 95
-1.1022774 0.45093966 2.0182064 89
-1.4223517 0.58188826 2.1089666 42
-1.6640807 0.68078494 2.0274065 85
-1.8375883 0.74615878 2.0287795 60
-2.2246459 0.90332925 2.0177276 64
-2.6982899 1.0962048 1.9941061 19
-3.453156 1.4028802 2.0367765 17
-4.5359688 1.8437074 2.0665736 11
-6.363976 2.588022 2.1080103 6
-9.8925076 4.0229626 2.1189883 37
-9.9128199 4.0332389 1.0518364 57
-2.0192928 0.82323021 2.022682 81
-2.4351292 0.99325627 1.9984947 33
-3.0714638 1.2528129 2.0341086 49
-3.9257782 1.6020774 2.0475569 29
-5.2557511 2.1458993 2.063849 12
-7.6765718 3.1358736 2.0907266 19
-9.9198847 4.0542865 1.5849619 78
-9.7708492 3.9953656 0.51950026 45
-0.02878182 0.012318209 1.9941976 53
-0.29060289 0.12064759 2.0008237 95
-0.38259855 0.15781303 2.0131991 91
-0.48870832 0.20120643 1.7357427 38
-0.54477876 0.22418845 1.447412 39
-0.97963989 0.40296459 2.0077264 79
-1.226365 0.50445861 2.0202241 81
-1.5019866 0.61783934 2.0204165 76
-0.11530597 0.049143236 2.0010643 86
-0.20171455 0.087196104 2.0032918 93
-0.47499484 0.19662154 2.0154345 95
-0.49042252 0.20281658 1.4974072 39
-0.87102276 0.35988247 2.0116253 95
-1.1006968 0.45478457 2.0182064 89
-1.420312 0.58684963 2.1089666 44
-1.6616942 0.68658948 2.0274065 85
-1.8349726 0.7525686 2.0287795 42
-2.2214792 0.91108924 2.0177276 73
-2.6983151 1.1072042 1.9968475 18
-3.4359415 1.4098799 2.0298221 21
-4.5166402 1.8542479 2.0609546 11
-6.372654 2.6175115 2.1136472 6
-9.8920364 4.0630684 2.1217861 22
-9.9309254 4.0810671 1.0549598 37
-2.016407 0.83027387 2.022682 79
-2.4316475 1.0017505 1.9984947 26
-3.0670724 1.2635267 2.0341086 48
-3.9243586 1.6175008 2.049655 29
-5.2482285 2.164232 2.063849 13
-7.6700716 3.1645048 2.0918989 19
-9.9331369 4.1002259 1.5891008 76
-9.7753134 4.037076 0.52030635 39
-0.028738648 0.012418602 1.9941976 53
-0.29018 0.12166125 2.0008237 93
-0.38204533 0.15914759 2.0131991 93
-0.48938206 0.20348459 1.7405144 38
-0.54399288 0.22608873 1.447412 39
-0.97822726 0.4063817 2.0077264 81
-1.2245966 0.50873637 2.0202241 83
-1.4998208 0.62307847 2.0204165 78
-0.11513373 0.04954543 2.0010643 86
-0.20140897 0.087899685 2.0032918 93
-0.4743056 0.1982784 2.0154345 95
-0.48971155 0.20452724 1.4974072 39
-0.86976123 0.3629207 2.0116253 95
-1.0991025 0.45862395 2.0182064 87
-1.4210364 0.59296459 2.112956 44
-1.6592875 0.69238573 2.0274065 85
-1.8323345 0.75896925 2.0287795 31
-2.2182851 0.91883808 2.0177276 75
-2.6982965 1.1182171 1.999589 18
-3.4350922 1.4235611 2.0321403 11
-4.4930105 1.8629003 2.0534625 13
-6.3989272 2.6544454 2.1249206 4
-9.8959427 4.1051016 2.1255167 17
-9.9212189 4.1176162 1.0554061 31
-2.0134962 0.83730739 2.022682 77
-2.4244039 1.0086797 1.9955517 21
-3.0666232 1.2758811 2.0366411 41
-3.9186885 1.6311895 2.049655 27
-5.2406421 2.1825387 2.063849 13
-7.663466 3.1931286 2.0930712 22
-10.165593 4.2377706 1.6263509 53
-9.7842169 4.0807891 0.52131402 24
-0.028695121 0.012518842 1.9941976 56
-0.28975356 0.12267342 2.0008237 90
-0.38148746 0.1604802 2.0131991 93
-0.4886688 0.20519163 1.7405144 38
-0.54320037 0.22798625 1.447412 39
-0.97680283 0.40979385 2.0077264 81
-1.2228134 0.51300788 2.0202241 81
-1.4976368 0.62831008 2.0204165 78
-0.11496007 0.04994702 2.0010643 88
-0.2011009 0.088602193 2.0032918 91
-0.47361061 0.19993281 2.0154345 95
-0.49058467 0.20690607 1.5020999 39
-0.86848909 0.36595455 2.0116253 93
-1.0950916 0.46144503 2.0139403 89
-1.4189579 0.59792137 2.112956 42
-1.6568605 0.69817352 2.0274065 85
-1.8329639 0.76673692 2.032284 24
-2.2078819 0.92357129 2.011452 73
-2.7020917 1.1308577 2.0050719 18
-3.4260151 1.4338326 2.0298221 11
-4.4993081 1.8839439 2.0590816 9
-6.3674989 2.6674974 2.1178746 4
-9.8815527 4.1396203 2.1255167 9
nan nan nan 0
-2.0105612 0.84433073 2.022682 79
-2.4208682 1.0171363 1.9955517 21
-3.0661256 1.2882478 2.0391736 34
-3.9171548 1.6466171 2.051753 26
-5.2329917 2.2008188 2.063849 16
-7.6567535 3.2217448 2.0942435 18
-10.155304 4.2751513 1.6270406 48
-9.7699127 4.1149178 0.52131402 15
-0.028651249 0.012618931 1.9941976 56
-0.2893236 0.12368411 2.0008237 92
-0.38092497 0.16181086 2.0131991 91
-0.48932463 0.20747924 1.7452862 38
-0.54240125 0.22988096 1.447412 39
-0.97536641 0.41320103 2.0077264 83
-1.2210152 0.51727319 2.0202241 79
-1.4954343 0.63353395 2.0204165 78
-0.11478503 0.050347999 2.0010643 86
-0.20079039 0.089303635 2.0032918 91
-0.47290981 0.2015848 2.0154345 96
-0.48985943 0.20861726 1.5020999 39
-0.86720645 0.36898389 2.0116253 95
-1.0934743 0.4652648 2.0139403 89
-1.4196354 0.60405076 2.1169455 40
-1.6544135 0.70395279 2.0274065 85
-1.8302764 0.77313048 2.032284 24
-2.1938865 0.92672825 2.0020387 60
-2.6711664 1.1288885 1.9858816 16
-3.4250703 1.4475077 2.0321403 33
-4.4927049 1.8996379 2.0590816 6
-6.3493128 2.6859698 2.1150563 5
-9.8489475 4.1664324 2.1217861 7
-10.217851 4.324594 1.087087 49
-2.0110402 0.85280174 2.0260069 81
-2.4135818 1.0240018 1.9926084 21
-3.0735168 1.3039944 2.0467708 26
-3.9113829 1.6602806 2.051753 26
-5.2296243 2.2209177 2.0654917 19
-7.6499338 3.2503526 2.0954158 17
-10.226912 4.3473835 1.6401472 47
-9.7968655 4.1665931 0.52312779 44
-0.028607026 0.012718866 1.9941976 56
-0.28889006 0.12469328 2.0008237 93
-0.38035783 0.16313955 2.0131991 89
-0.48997036 0.20977393 1.7500579 38
-0.54159552 0.2317729 1.447412 38
-0.97391814 0.41660321 2.0077264 81
-1.219202 0.52153218 2.0202241 79
-1.4961612 0.64001095 2.0242534 78
-0.11460858 0.050748371 2.0010643 88
-0.20047745 0.090003975 2.0032918 93
-0.47220328 0.20323433 2.0154345 96
-0.48912823 0.21032591 1.5020999 39
-0.86591309 0.37200874 2.0116253 93
-1.0918435 0.46907887 2.0139403 89
-1.4175183 0.60900253 2.1169455 39
-1.6519459 0.70972341 2.0274065 85
-1.8275664 0.77951467 2.032284 37
-2.1798961 0.92979866 1.9926252 54
nan nan nan 0
-3.4199967 1.4594547 2.0321403 34
-4.4903102 1.9171293 2.0609546 6
-6.3354869 2.7062323 2.1136472 5
-9.8253088 4.1969275 2.119921 9
-10.202692 4.3602347 1.087087 47
-2.0080509 0.85981637 2.0260069 81
-2.4099929 1.0324206 1.9926084 27
-3.0332801 1.2994359 2.0239789 15
-3.9097352 1.6757115 2.0538511 25
-5.2261801 2.2410202 2.0671344 23
-7.6430087 3.2789524 2.0965884 17
-10.211673 4.3830552 1.6401472 44
-10.09901 4.3367858 0.53703344 37
-0.028562453 0.012818645 1.9941976 56
-0.28845307 0.12570094 2.0008237 92
-0.37978604 0.16446626 2.0131991 89
-0.4892351 0.21148296 1.7500579 38
-0.54078317 0.23366202 1.447412 38
-0.97245795 0.42000023 2.0077264 79
-1.2147909 0.52466905 2.0160913 79
-1.4939179 0.64522958 2.0242534 78
-0.11443073 0.05114812 2.0010643 88
-0.20064808 0.090924218 2.0082631 91
-0.47149098 0.20488138 2.0154345 95
-0.48997399 0.21271931 1.5067927 39
-0.8646093 0.37502912 2.0116253 90
-1.0925921 0.47392511 2.0182064 87
-1.4153838 0.61394691 2.1169455 38
-1.6494585 0.71548551 2.0274065 85
-1.8215591 0.78447866 2.0287795 48
-2.155185 0.92816341 1.9737986 38
-1.9873574 0.85629678 1.5033835 4
-3.4189501 1.4731369 2.0344584 34
-4.4835911 1.9327918 2.0609546 31
-6.3215966 2.7264309 2.1122379 5
-9.7925568 4.2234173 2.1161904 10
-10.219419 4.4096336 1.0902104 47
-2.0050373 0.86682051 2.0260069 81
-2.4026647 1.0392222 1.9896654 33
-3.0049839 1.299747 2.0087843 11
-3.903862 1.6893487 2.0538511 25
-5.2226591 2.2611256 2.0687771 20
-7.6359763 3.307544 2.0977607 14
-10.209943 4.4245815 1.6422166 45
-10.180069 4.4137459 0.54126561 54
-0.028517537 0.012918268 1.9941976 58
-0.2880125 0.12670706 2.0008237 93
-0.37920964 0.16579095 2.0131991 93
-0.48986274 0.21378687 1.7548296 38
-0.53996426 0.23554827 1.447412 39
-0.97098595 0.42339218 2.0077264 79
-1.2129521 0.52890623 2.0160913 81
-1.4916567 0.65044045 2.0242534 78
-0.11425149 0.051547244 2.0010643 89
-0.20032948 0.091624059 2.0082631 89
-0.47077295 0.20652595 2.0154345 95
-0.48922846 0.21442834 1.5067927 39
-0.86329496 0.37804487 2.0116253 93
-1.0909311 0.47773609 2.0182064 89
-1.4132321 0.61888379 2.1169455 37
-1.646951 0.72123885 2.0274065 83
-1.8188096 0.79083234 2.0287795 73
-2.1590714 0.93878525 1.9800742 38
-1.9843562 0.86322868 1.5033835 4
-3.4137871 1.4850622 2.0344584 34
-4.4768171 1.9484308 2.0609546 28
-6.3164396 2.750396 2.1136472 6
-9.7732506 4.2556129 2.115258 9
-10.203963 4.4452791 1.0902104 47
-2.0019994 0.87381411 2.0260069 77
-2.3990223 1.0476027 1.9896654 40
-2.9846246 1.3033271 1.9986546 10
-3.8979414 1.7029656 2.0538511 26
-5.2190619 2.2812335 2.0704198 20
-7.6243844 3.334178 2.0977607 15
-10.20351 4.4641638 1.6435962 41
-10.228673 4.4773002 0.54408699 51
-0.028472267 0.013017735 1.9941976 60
-0.28756845 0.12771164 2.0008237 93
-0.37862861 0.16711365 2.0131991 95
-0.49048024 0.21609776 1.7596014 38
-0.53913873 0.23743168 1.447412 39
-0.96950215 0.426779 2.0077264 79
-1.2110984 0.53313702 2.0160913 83
-1.489377 0.65564334 2.0242534 76
-0.11407087 0.051945746 2.0010643 89
-0.20000844 0.092322782 2.0082631 88
-0.4688991 0.2076586 2.0105951 93
-0.49005508 0.21683307 1.5114855 39
-0.86197001 0.38105601 2.0116253 93
-1.0892568 0.48154122 2.0182064 89
-1.4138198 0.62503177 2.1209352 35
-1.6444234 0.72698331 2.0274065 83
-1.816038 0.79717636 2.0287795 75
-2.1664753 0.95101035 1.9894875 60
-1.9775025 0.86846876 1.5006422 5
-3.4126387 1.4987509 2.0367765 33
-4.4699888 1.9640458 2.0609546 24
-6.2672744 2.7550526 2.1009643 7
-9.7808208 4.2995853 2.119921 12
-10.211177 4.4908943 1.0924414 35
-1.9955195 0.87929124 2.022682 73
-2.3953509 1.0559704 1.9896654 56
-2.9761121 1.3119982 1.9961221 10
-3.8919733 1.7165616 2.0538511 29
-5.2110672 2.2994378 2.0704198 25
-7.6127 3.3607721 2.0977607 17
-10.205985 4.5077572 1.6463555 63
-10.212982 4.5129781 0.54408699 50
-0.028426655 0.013117041 1.9941976 60
-0.28712091 0.12871467 2.0008237 93
-0.37804297 0.16843428 2.0131991 95
-0.48972294 0.21780853 1.7596014 38
-0.53652155 0.23851851 1.4428096 39
-0.96800649 0.43016061 2.0077264 79
-1.2092301 0.53736132 2.0160913 83
-1.4870794 0.66083825 2.0242534 76
-0.11388885 0.052343611 2.0010643 89
-0.19968495 0.09302038 2.0082631 89
-0.46817136 0.2092941 2.0105951 91
-0.48929518 0.21854237 1.5114855 39
-0.86063468 0.38406253 2.0116253 93
-1.0875694 0.48534051 2.0182064 89
-1.4116294 0.62996316 2.1209352 33
-1.6418756 0.73271906 2.0274065 85
-1.8132442 0.80351067 2.0287795 73
-2.1702607 0.9617213 1.9957631 60
-1.9821039 0.87875569 1.5061251 4
-3.4073865 1.5106542 2.0367765 33
-4.4631052 1.979637 2.0609546 19
-6.2400804 2.769129 2.0953276 9
-9.7747326 4.3376861 2.1217861 10
-10.213646 4.5345945 1.0942264 31
-1.9924381 0.88625157 2.022682 71
-2.3916504 1.0643253 1.9896654 62
-2.9675758 1.3206261 1.9935898 10
-3.8859575 1.7301366 2.0538511 28
-5.2073226 2.3195353 2.0720625 28
-7.5964823 3.3853462 2.0965884 20
-10.199234 4.5473881 1.6477351 63
-10.192605 4.5465651 0.54388547 55
-0.028380694 0.01321619 1.9941976 60
-0.28666988 0.12971613 2.0008237 95
-0.37745273 0.16975287 2.0131991 93
-0.49032214 0.22012842 1.7643731 38
-0.53568566 0.24038985 1.4428096 39
-0.96868497 0.4345175 2.012115 83
-1.2099144 0.54273075 2.0202241 83
-1.4847635 0.6660251 2.0242534 78
-0.11344296 0.052618548 1.9960728 88
-0.19935903 0.09371683 2.0082631 93
-0.46743795 0.21092704 2.0105951 95
-0.4901025 0.22095831 1.5161781 39
-0.85928875 0.38706437 2.0116253 93
-1.0858684 0.48913386 2.0182064 89
-1.4094218 0.6348868 2.1209352 30
-1.639308 0.73844576 2.0274065 85
-1.8104285 0.80983514 2.0287795 73
-2.1739976 0.97247022 2.0020387 62
-1.982841 0.88737726 1.5088665 5
-3.4020925 1.522539 2.0367765 35
-4.4561677 1.9952041 2.0609546 19
-6.199729 2.7771659 2.0854633 12
-9.7729816 4.3778048 2.1245842 11
-10.211388 4.5763288 1.0955648 54
-1.9893323 0.89320105 2.022682 66
-2.3879206 1.0726672 1.9896654 73
-2.9904764 1.3433429 2.0113168 11
-3.8798947 1.7436906 2.0538511 27
-5.1991944 2.3376982 2.0720625 24
-7.5846186 3.4118423 2.0965884 24
-10.201363 4.5910921 1.6504945 62
-10.222227 4.6026278 0.54590082 53
-0.028334387 0.013315177 1.9941976 60
-0.28621534 0.130716 2.0008237 95
-0.37685788 0.1710694 2.0131991 93
-0.48955077 0.22183861 1.7643731 38
-0.53306377 0.24145214 1.438207 39
-0.96716231 0.43789619 2.012115 85
-1.2080126 0.54695082 2.0202241 83
-1.4824297 0.67120385 2.0242534 76
-0.1132586 0.053014223 1.9960728 88
-0.19854857 0.094182722 2.0032918 93
-0.4678435 0.21307884 2.0154345 95
-0.48932824 0.22266774 1.5161781 39
-0.85793245 0.3900615 2.0116253 93
-1.0841545 0.49292129 2.0182064 89
-1.407197 0.63980275 2.1209352 28
-1.6367203 0.74416351 2.0274065 83
-1.8075905 0.81614977 2.0287795 73
-2.1705897 0.98005295 2.0020387 62
nan nan nan 0
-3.3927195 1.5325813 2.0344584 35
-4.4491763 2.0107467 2.0609546 19
-6.1812544 2.7948372 2.0826449 9
-9.7531643 4.4098682 2.1236515 13
-10.213502 4.6201558 1.0973498 39
-1.9862024 0.90013969 2.022682 66
-2.3841615 1.0809962 1.9896654 77
-3.0093279 1.3644553 2.0265114 10
-3.8696511 1.7553484 2.051753 27
-5.195303 2.357784 2.0737052 24
-7.5682373 3.4362869 2.0954158 19
-10.189783 4.6287217 1.6511842 62
-10.206099 4.6382818 0.54590082 35
-0.028287737 0.013414001 1.9941976 60
-0.28575733 0.13171427 2.0008237 95
-0.37625843 0.17238383 2.0131991 93
-0.49013165 0.22416739 1.7691448 38
-0.53221762 0.24331143 1.438207 39
-0.96562785 0.44126952 2.012115 83
-1.2060961 0.55116421 2.0202241 83
-1.4800777 0.67637438 2.0242534 76
-0.11307286 0.053409241 1.9960728 88
-0.19821861 0.094875209 2.0032918 93
-0.46709687 0.21471061 2.0154345 95
-0.49011615 0.22509472 1.5208709 39
-0.85656565 0.39305386 2.0116253 93
-1.0824273 0.4967027 2.0182064 89
-1.4049551 0.6447109 2.1209352 26
-1.6341128 0.74987221 2.0274065 78
-1.8079756 0.82393336 2.032284 73
-2.1636128 0.98600936 1.9989008 58
-2.6690419 1.2169092 2.0078135 40
-3.3873491 1.5444149 2.0344584 36
-4.4463482 2.0281889 2.0628276 20
-6.1670961 2.814405 2.0812356 7
-9.733242 4.4418464 2.1227188 11
-10.206371 4.6599159 1.0982422 37
-1.9830482 0.90706736 2.022682 77
-2.3803737 1.0893118 1.9896654 77
-3.0045466 1.3749515 2.0265114 9
-3.8635004 1.7688453 2.051753 29
-5.1870413 2.3759048 2.0737052 28
-7.5561957 3.4626842 2.0954158 17
-10.21858 4.6849012 1.6580824 54
-10.189845 4.6738791 0.54590082 29
-0.028279833 0.013532042 1.9991974 60
-0.28529578 0.13271095 2.0008237 95
-0.3756544 0.17369618 2.0131991 95
-0.48934618 0.2258769 1.7691448 38
-0.52959114 0.24434918 1.4336045 40
-0.9640817 0.44463751 2.012115 83
-1.2041647 0.55537093 2.0202241 77
-1.4777077 0.68153667 2.0242534 78
-0.11288573 0.053803619 1.9960728 88
-0.19788621 0.095566541 2.0032918 93
-0.46634457 0.2163398 2.0154345 95
-0.48932743 0.22680417 1.5208709 39
-0.85518843 0.39604145 2.0116253 93
-1.0806868 0.50047803 2.0182064 89
-1.4026961 0.64961118 2.1209352 25
-1.6314852 0.75557178 2.0274065 69
-1.7986085 0.82725888 2.025275 73
-2.1636949 0.99518257 2.0020387 58
-2.6647778 1.2262185 2.0078135 69
-3.3819377 1.5562295 2.0344584 36
-4.4392414 2.0436971 2.0628276 24
-6.1528778 2.8339083 2.0798266 15
-9.6953688 4.4655194 2.1180556 13
-10.208136 4.7038512 1.100027 54
-1.9391838 0.89520156 1.9827838 91
-2.3765569 1.0976143 1.9896654 77
-3.0153844 1.3926616 2.0366411 9
-3.8573022 1.7823207 2.051753 35
-5.1787162 2.3939965 2.0737052 25
-7.5352402 3.4849586 2.0930712 19
-10.202166 4.720542 1.6580824 52
nan nan nan 0
-0.028232425 0.013630674 1.9991974 64
-0.28483084 0.133706 2.0008237 95
-0.37504581 0.17500639 2.0131991 95
-0.48990855 0.22821437 1.7739165 38
-0.52873498 0.24619631 1.4336045 40
-0.9625237 0.4480001 2.012115 83
-1.2022188 0.55957085 2.0202241 77
-1.4753197 0.68669069 2.0242534 78
-0.11269724 0.054197334 1.9960728 88
-0.19755143 0.096256711 2.0032918 91
-0.46558654 0.21796632 2.0154345 95
-0.49009579 0.22924204 1.5255637 39
-0.85380077 0.39902419 2.0116253 93
-1.0789332 0.50424725 2.0182064 89
-1.4004201 0.65450352 2.1209352 24
-1.6288379 0.76126212 2.0274065 47
-1.7860059 0.82902765 2.0147614 69
-2.1496148 0.99781209 1.9926252 52
-2.6680663 1.2390351 2.0132964 59
-3.3764846 1.5680252 2.0344584 36
-4.4320803 2.0591807 2.0628276 24
-6.1429477 2.8553684 2.0798266 13
-9.7376308 4.5262527 2.1301799 10
-10.218748 4.7520552 1.1027043 60
-1.9021969 0.88619488 1.9495354 77
-2.3617198 1.1007805 1.9808358 81
-2.9870591 1.3922507 2.0214465 7
-3.8510573 1.7957743 2.051753 36
-5.1703281 2.4120591 2.0737052 17
-7.536243 3.5174074 2.0965884 16
-10.190111 4.7582202 1.6587722 63
-9.8808575 4.6159167 0.53360742 12
-0.028184673 0.01372914 1.9991974 64
-0.28436235 0.13469945 2.0008237 95
-0.37443265 0.17631447 2.0131991 95
-0.48910892 0.22992308 1.7739165 38
-0.52787244 0.24804045 1.4336045 40
-0.96095401 0.45135722 2.012115 83
-1.2002583 0.56376398 2.0202241 79
-1.4729137 0.69183636 2.0242534 74
-0.11250737 0.054590389 1.9960728 89
-0.19769308 0.097181857 2.0082631 89
-0.46482283 0.21959019 2.0154345 95
-0.48929265 0.23095141 1.5255637 39
-0.85240275 0.40200207 2.0116253 93
-1.0771666 0.50801039 2.0182064 89
-1.3981268 0.65938789 2.1209352 24
-1.6292371 0.76838934 2.0310817 27
-1.7734126 0.83071852 2.0042477 71
-2.1425934 1.0036582 1.9894875 52
-2.6485801 1.2412431 2.0023305 46
-3.3709908 1.5798018 2.0344584 36
-4.4248657 2.0746391 2.0628276 28
-6.1285996 2.8747566 2.0784173 12
-9.7751389 4.5852489 2.1413713 6
-10.179557 4.7771177 1.1004732 44
-1.885574 0.88647407 1.936236 79
-2.3578632 1.1090177 1.9808358 81
-2.9626751 1.3934945 2.0087843 6
-3.8529782 1.8130708 2.055949 31
-5.1661491 2.4321036 2.0753479 14
-7.5283165 3.5457635 2.0977607 13
-10.097284 4.7578769 1.6470454 32
nan nan nan 0
-0.028136577 0.013827439 1.9991974 62
-0.28389043 0.13569123 2.0008237 95
-0.37381491 0.17762041 2.0131991 93
-0.48965275 0.23226914 1.7786882 38
-0.52700335 0.24988157 1.4336045 40
-0.95937264 0.45470881 2.012115 83
-1.198283 0.56795025 2.0202241 79
-1.4704899 0.69697356 2.0242534 73
-0.11231612 0.054982781 1.9960728 89
-0.19735266 0.097871348 2.0082631 89
-0.46405351 0.22121137 2.0154345 95
-0.49004146 0.23340006 1.5302565 39
-0.85099423 0.40497506 2.0116253 90
-1.0753866 0.51176733 2.0182064 87
-1.3958167 0.66426426 2.1209352 24
-1.626545 0.77407181 2.0310817 27
-1.7640537 0.83385563 1.9972385 69
-2.1320381 1.0078039 1.983212 48
-1.9600424 0.92692041 1.5061251 100
-3.3614504 1.5896651 2.0321403 33
-4.4175968 2.0900722 2.0628276 29
-6.1185279 2.896132 2.0784173 13
-9.7368755 4.6088347 2.136708 9
-10.099808 4.7827826 1.0942264 27
-1.8790941 0.89144993 1.932911 66
-1.9815159 0.94046319 1.6806334 104
-1.6919761 0.80304444 1.1857457 16
-3.834327 1.8206691 2.049655 16
-5.1618943 2.4521482 2.0769906 14
-7.5115032 3.5699341 2.0965884 11
-10.094031 4.7994728 1.6491147 26
nan nan nan 0
-0.028088141 0.013925571 1.9991974 62
-0.28341505 0.13668136 2.0008237 95
-0.37319261 0.17892417 2.0131991 93
-0.49018615 0.23462181 1.78346 38
-0.52612787 0.25171959 1.4336045 40
-0.95777959 0.45805487 2.012115 83
-1.1962932 0.57212955 2.0202241 81
-1.4709402 0.70348555 2.0280902 78
-0.11212351 0.055374499 1.9960728 88
-0.19700982 0.098559633 2.0082631 91
-0.4632785 0.22282988 2.0154345 95
-0.4907791 0.23585676 1.5349492 39
-0.84957546 0.4079431 2.0116253 81
-1.0735937 0.51551801 2.0182064 89
-1.3962064 0.67043722 2.1249244 24
-1.6268891 0.78121221 2.0347569 33
-1.7546946 0.83693767 1.9902295 73
-2.0301251 0.96831417 1.8953542 77
-1.956795 0.93375671 1.5061251 100
-3.3398879 1.5937573 2.0228682 9
-4.4060903 2.1034825 2.0609546 13
-6.1430125 2.9340124 2.0896909 12
-9.6985655 4.6322093 2.132045 10
-10.051596 4.8029785 1.0911028 21
-1.8624976 0.89155424 1.9196117 46
-1.9782208 0.94737428 1.6806334 104
-1.7202693 0.82384282 1.2060051 21
-3.8320415 1.8360033 2.051753 16
-5.1618204 2.4742343 2.080276 12
nan nan nan 0
nan nan nan 0
nan nan nan 0
-0.028000612 0.014003472 1.9941976 62
-0.28293625 0.13766983 2.0008237 93
-0.37256578 0.18022577 2.0131991 91
-0.49070907 0.236981 1.7882317 38
-0.52524602 0.25355461 1.4336045 39
-0.95617485 0.46139538 2.012115 83
-1.1942887 0.57630193 2.0202241 81
-1.4684756 0.70861578 2.0280902 76
-0.11192954 0.055765551 1.9960728 88
-0.19666457 0.099246725 2.0082631 93
-0.46249789 0.22444567 2.0154345 95
-0.4899528 0.23756844 1.5349492 39
-0.84814626 0.4109062 2.0116253 74
-1.0717877 0.51926237 2.0182064 89
-1.3938576 0.6753068 2.1249244 23
-1.6241521 0.78688645 2.0347569 40
-1.7742567 0.85388339 2.0147614 66
-1.995163 0.9602012 1.8671143 89
-2.6542737 1.2779804 2.0160377 55
-3.3223293 1.5996404 2.0159142 8
-4.3987212 2.1188498 2.0609546 13
-6.1327338 2.9554379 2.0896909 12
-9.6292343 4.6404448 2.1208537 22
-9.9405642 4.7926168 1.0817324 25
-1.8997263 0.91753972 1.9595098 39
-2.331563 1.1266137 1.9690632 40
nan nan nan 0
nan nan nan 0
-5.1616545 2.4963493 2.0835612 11
nan nan nan 0
nan nan nan 0
nan nan nan 0
-0.027949098 0.014106005 1.9941976 62
-0.28242972 0.13870592 2.0008237 92
-0.3719027 0.18159008 2.0131991 91
-0.49117967 0.23943242 1.7930034 38
-0.5260694 0.25633383 1.438207 39
-0.95447731 0.4648968 2.012115 83
-1.1921685 0.5806753 2.0202241 81
-1.4658685 0.71399325 2.0280902 76
-0.1117244 0.056175418 1.9960728 88
-0.19629949 0.099966876 2.0082631 91
-0.46167213 0.22613931 2.0154345 95
-0.49062875 0.24012128 1.539642 39
-0.84851849 0.41511688 2.0161262 59
-1.069786 0.5233739 2.0182064 89
-1.3912543 0.68065381 2.1249244 23
-1.6211188 0.79311687 2.0347569 64
-1.7903618 0.86973035 2.0357888 69
-2.1211877 1.0304451 1.983212 69
-2.6458116 1.2858725 2.0132964 50
-3.2765985 1.5924412 1.9927338 13
-4.3909259 2.1349576 2.0609546 12
-6.2038255 3.0177665 2.1164656 3
-9.6555138 4.6988792 2.1301799 13
-10.047462 4.8917909 1.0942264 4
-1.9263968 0.93956059 1.9894335 48
-2.0329778 0.99198282 1.7306672 12
-1.7296824 0.84399319 1.2161349 4
nan nan nan 0
-5.1732478 2.5265121 2.0917747 5
-7.4549651 3.6424706 2.0918989 16
-9.9444742 4.8588371 1.6339388 56
-9.4972353 4.6423707 0.52010483 16
-0.02789969 0.01420348 1.9941976 64
-0.28194383 0.13969095 2.0008237 92
-0.37126657 0.18288718 2.0131991 91
-0.49168113 0.2418047 1.7977751 38
-0.52517146 0.25816858 1.438207 38
-0.95284867 0.46822575 2.012115 83
-1.1901343 0.58483326 2.0202241 83
-1.4633672 0.71910578 2.0280902 73
-0.11152763 0.056565069 1.9960728 89
-0.19547473 0.10040693 2.0032918 91
-0.46087992 0.22774947 2.0154345 95
-0.48978758 0.24183242 1.539642 39
-0.84713721 0.4179284 2.0161262 43
-1.0680444 0.52691859 2.0182064 87
-1.3889896 0.68526363 2.1249244 24
-1.6184797 0.79848838 2.0347569 83
-1.7809105 0.8728357 2.0287795 73
-2.1210735 1.0395563 1.9863497 67
-2.6488154 1.298782 2.0187793 48
-3.3147757 1.6253237 2.0182323 31
-4.3834462 2.1502719 2.0609546 14
-6.1544943 3.0203817 2.1037827 8
-9.6707478 4.7460217 2.136708 10
-10.008832 4.9141083 1.0919952 18
-1.9433765 0.9558326 2.0093827 67
-1.8229537 0.89699852 1.562907 7
-1.7578206 0.86495191 1.2363943 5
-3.8163495 1.8787009 2.0538511 33
-5.1563687 2.5394807 2.0884893 5
-7.4254045 3.6585791 2.0872097 13
-9.927453 4.8935204 1.6339388 56
-9.489934 4.6799135 0.52050787 24
-0.027849939 0.014300782 1.9941976 64
-0.28145453 0.14067425 2.0008237 93
-0.37062591 0.18418202 2.0131991 85
-0.49083406 0.24351951 1.7977751 38
-0.52601725 0.26086828 1.4428096 38
-0.95120847 0.47154897 2.012115 81
-1.1880856 0.58898401 2.0202241 83
-1.4608482 0.72420949 2.0280902 68
-0.1113295 0.056954026 1.9960728 88
-0.19512306 0.10108865 2.0032918 93
-0.46008214 0.22935684 2.0154345 95
-0.4904851 0.24431008 1.5443348 39
-0.84762275 0.42185321 2.020627 37
-1.0661987 0.53064358 2.0182064 89
-1.3865891 0.69010794 2.1249244 24
-1.6156827 0.80413306 2.0347569 86
-1.7746558 0.8774662 2.025275 66
-2.1209214 1.0486794 1.9894875 67
-2.6442657 1.3080202 2.0187793 48
-3.3170235 1.6408129 2.0228682 31
-4.3759141 2.1655598 2.0609546 32
-6.1009216 3.0205615 2.0896909 14
-9.7157536 4.8102632 2.1497648 7
nan nan nan 0
-1.9433736 0.96427035 2.0127075 69
-1.7691247 0.87819529 1.5217028 7
-1.7161742 0.85191321 1.2110701 3
-3.8057034 1.8899922 2.051753 16
-5.1263266 2.5469582 2.080276 15
-7.4648199 3.710438 2.1012774 16
