# .PCD v0.7 - Point Cloud Data file format
VERSION 0.7
FIELDS x y z intensity
SIZE 4 4 4 4
TYPE F F F F
COUNT 1 1 1 1
WIDTH 1387
HEIGHT 1
VIEWPOINT 0 0 0 1 0 0 0
POINTS 1387
DATA ascii
1.7670908 -1.2456155 2.006058 38
2.1129465 -1.4899611 1.96612 73
2.6052203 -1.8370968 1.9581357 73
3.2867577 -2.3185492 1.9468503 64
4.3219309 -3.0499136 1.9291489 49
4.3124723 -3.0443666 1.3638898 3
4.3686695 -3.0851812 0.8372016 21
4.3168464 -3.0497127 0.30688512 59
0.025308009 -0.018503238 1.9991974 78
0.26802477 -0.19151236 2.0946693 97
0.35056856 -0.24927615 2.0915227 86
0.49546069 -0.35181698 1.9886441 86
0.66836715 -0.47443518 1.99051 95
0.85606909 -0.60746181 1.9901714 83
1.0608003 -0.75274485 1.9830275 82
1.3009763 -0.92317992 1.9858838 76
0.10106213 -0.073650964 1.9960728 89
0.17735924 -0.13065439 2.0082631 96
0.41551811 -0.29624206 2.0009167 93
0.57979834 -0.41308302 1.9901476 91
0.75887245 -0.540281 1.9891212 90
0.95318514 -0.67863035 1.9840788 87
1.1733297 -0.83537138 1.9813027 84
1.4508477 -1.0329611 2.0090308 39
1.6186513 -1.1460595 2.0287795 40
2.004072 -1.4189557 2.0616565 26
2.3391442 -1.6568133 1.9639498 63
2.9041924 -2.0570407 1.9486914 64
3.7303286 -2.643172 1.9354613 51
4.3289528 -3.0684705 1.6486126 45
4.3642583 -3.0934956 1.1070955 16
4.3506556 -3.084995 0.57082212 16
1.7657765 -1.2539382 2.0093827 46
2.1077325 -1.4973277 1.96612 73
2.5987921 -1.8461795 1.9581357 72
3.2786446 -2.330008 1.9468503 65
4.3112588 -3.0649815 1.9291489 36
4.2938972 -3.053767 1.3615451 3
4.3417335 -3.0889287 0.83444232 21
4.2858233 -3.0502784 0.30587748 57
0.025243267 -0.018591467 1.9991974 80
0.26735461 -0.19244675 2.0946693 97
0.34969628 -0.25049835 2.0915227 81
0.49422961 -0.35354429 1.9886441 80
0.6682961 -0.47790185 1.9951125 93
0.85199457 -0.60905319 1.9857829 83
1.0581663 -0.75644326 1.9830275 80
1.2977458 -0.92771566 1.9858838 74
0.10080442 -0.074003287 1.9960728 89
0.17690209 -0.1312727 2.0082631 96
0.41448149 -0.29769069 2.0009167 93
0.57835287 -0.41510439 1.9901476 91
0.75698185 -0.54292661 1.9891212 90
0.95081043 -0.68195337 1.9840788 87
1.1704066 -0.83946192 1.9813027 87
1.4417235 -1.0340673 2.0016804 35
1.6117374 -1.1496316 2.025275 39
2.0022757 -1.4282031 2.0647943 26
2.3333466 -1.6649683 1.9639498 63
2.8969944 -2.0671656 1.9486914 64
3.7210793 -2.6561773 1.9354613 51
4.2947912 -3.0668356 1.6401573 45
4.3534331 -3.108711 1.1070955 16
4.3439126 -3.1030574 0.57126832 17
1.7613887 -1.2600943 2.0093827 46
2.0992062 -1.5023236 1.9631768 73
2.5923319 -1.8552399 1.9581357 73
3.2704911 -2.3414385 1.9468503 65
4.3043728 -3.0827613 1.9307915 36
4.2713575 -3.0602446 1.3580282 3
4.3228741 -3.0982955 0.83306271 21
4.2467279 -3.044842 0.30446672 49
0.025178216 -0.01867947 1.9991974 80
0.26668122 -0.19337884 2.0946693 97
0.34881973 -0.25171751 2.0915227 78
0.49299249 -0.35526735 1.9886441 80
0.66662389 -0.4802317 1.9951125 91
0.84986341 -0.61202347 1.9857829 85
1.0578029 -0.76177686 1.9871606 82
1.2944996 -0.93223995 1.9858838 74
0.10054548 -0.074354708 1.9960728 89
0.17644277 -0.13188942 2.0082631 95
0.41343987 -0.29913563 2.0009167 93
0.57690042 -0.41712067 1.9901476 89
0.75508213 -0.54556566 1.9891212 88
0.94842428 -0.68526822 1.9840788 87
1.1674693 -0.84354234 1.9813027 87
1.4353572 -1.0371081 1.9980052 36
1.6019224 -1.1510885 2.018266 39
2.0004396 -1.4374553 2.0679321 23
2.3275208 -1.673103 1.9639498 72
2.8897607 -2.0772655 1.9486914 57
3.715549 -2.6718566 1.9373344 46
4.2645879 -3.0678012 1.6331115 51
4.314642 -3.1038082 1.1005671 17
4.30476 -3.0978396 0.56814486 17
1.7569793 -1.2662351 2.0093827 40
2.0939493 -1.509642 1.9631768 71
2.5858402 -1.8642775 1.9581357 73
3.2622981 -2.3528404 1.9468503 65
4.2667775 -3.0784261 1.9192927 37
4.2567077 -3.0722909 1.3568559 4
4.2839274 -3.0930738 0.82823396 20
4.2360735 -3.0596471 0.30446672 50
0.02511286 -0.018767241 1.9991974 80
0.26600459 -0.19430856 2.0946693 97
0.34793898 -0.25293356 2.0915227 67
0.49174935 -0.35698602 1.9886441 82
0.66494352 -0.48255575 1.9951125 93
0.84772187 -0.6149863 1.9857829 83
1.0551374 -0.7654646 1.9871606 80
1.2886428 -0.93487042 1.982047 76
0.10051725 -0.074878603 2.0010643 89
0.17598131 -0.13250449 2.0082631 95
0.41239315 -0.30057698 2.0009167 95
0.57544082 -0.41913188 1.9901476 91
0.75317311 -0.5481981 1.9891212 92
0.94602644 -0.68857467 1.9840788 87
1.1645175 -0.84761238 1.9813027 87
1.4289874 -1.040117 1.99433 36
1.5950059 -1.154582 2.0147614 36
1.9985632 -1.446712 2.0710697 20
2.3216662 -1.6812173 1.9639498 72
2.8824921 -2.0873399 1.9486914 57
3.7061996 -2.6848099 1.9373344 39
4.2305465 -3.0657785 1.6246563 55
4.295826 -3.113085 1.0987018 17
4.2697277 -3.0953093 0.5654676 17
1.7525486 -1.2723602 2.0093827 42
2.0919373 -1.5193173 1.96612 71
2.5793166 -1.8732923 1.9581357 73
3.2540653 -2.3642137 1.9468503 65
4.2330856 -3.0766425 1.9094367 52
4.2223701 -3.0699806 1.349822 5
4.2691002 -3.1050959 0.82754421 20
4.1849709 -3.045022 0.30245143 47
0.025047198 -0.018854789 1.9991974 80
0.26532471 -0.19523589 2.0946693 97
0.34705395 -0.25414658 2.0915227 67
0.49050027 -0.35870039 1.9886441 84
0.66325498 -0.48487389 1.9951125 95
0.84557003 -0.61794168 1.9857829 83
1.052459 -0.7691431 1.9871606 80
1.2853715 -0.93936294 1.982047 76
0.10025526 -0.075229019 2.0010643 89
0.17509273 -0.13279481 2.0032918 93
0.41134143 -0.30201471 2.0009167 95
0.57258296 -0.42011708 1.9854547 91
0.75125498 -0.55082387 1.9891212 92
0.94361705 -0.69187272 1.9840788 87
1.1615517 -0.85167223 1.9813027 84
1.4226139 -1.0430942 1.9906548 36
1.5880845 -1.1580415 2.0112567 36
1.9935009 -1.4536794 2.0710697 16
2.3157837 -1.6893111 1.9639498 69
2.8751884 -2.097389 1.9486914 64
3.6968055 -2.6977308 1.9373344 27
4.1965704 -3.0635557 1.6162012 61
nan nan nan 0
4.2387881 -3.0955095 0.56323659 15
1.7480967 -1.27847 2.0093827 44
2.0866213 -1.5266104 1.96612 66
2.572762 -1.8822845 1.9581357 73
3.2457929 -2.3755581 1.9468503 65
4.1994581 -3.0746613 1.8995805 57
4.1724153 -3.0559802 1.3380988 5
4.2422566 -3.1082714 0.82478493 13
4.1340213 -3.0300772 0.30043611 34
0.024981229 -0.018942107 1.9991974 80
0.26464158 -0.19616087 2.0946693 97
0.34616473 -0.25535646 2.0915227 69
0.48924521 -0.36041036 1.9886441 84
0.66155845 -0.48718613 1.9951125 93
0.84340781 -0.62088954 1.9857829 85
1.0497677 -0.77281219 1.9871606 80
1.2820848 -0.94384402 1.982047 76
0.099992052 -0.075578518 2.0010643 89
0.17462811 -0.13340519 2.0032918 93
0.4102847 -0.30344871 2.0009167 93
0.57111305 -0.42211321 1.9854547 93
0.74932772 -0.55344284 1.9891212 88
0.94119626 -0.69516236 1.9840788 87
1.1561472 -0.85393077 1.9773132 87
1.4162372 -1.0460395 1.9869798 38
1.5811583 -1.1614666 2.0077524 38
1.9884145 -1.4606293 2.0710697 15
2.3098726 -1.6973846 1.9639498 69
2.8678498 -2.1074126 1.9486914 64
3.687366 -2.7106187 1.9373344 22
4.1665273 -3.0639751 1.6091552 61
nan nan nan 0
nan nan nan 0
1.7406169 -1.2823495 2.006058 39
2.0812795 -1.5338846 1.96612 52
2.5661759 -1.8912537 1.9581357 73
3.2374806 -2.3868735 1.9468503 65
4.1658964 -3.0724828 1.8897244 56
4.1539001 -3.0647545 1.3357543 4
nan nan nan 0
4.103323 -3.0296516 0.29942846 23
0.024914958 -0.019029189 1.9991974 80
0.26395527 -0.19708343 2.0946693 97
0.34527123 -0.25656325 2.0915227 67
0.48798412 -0.36211595 1.9886441 86
0.65985382 -0.48949242 1.9951125 93
0.84123534 -0.62382978 1.9857829 85
1.0448034 -0.77479559 1.9830275 80
1.2813573 -0.95022315 1.9858838 76
0.099727623 -0.075927086 2.0010643 91
0.17416137 -0.13401394 2.0032918 93
0.40922296 -0.30487904 2.0009167 91
0.56963605 -0.42410418 1.9854547 91
0.74739128 -0.55605501 1.9891212 90
0.93876398 -0.69844347 1.9840788 85
1.1531595 -0.8579613 1.9773132 87
1.4125773 -1.0509766 1.9869798 42
1.5770943 -1.1669788 2.0077524 38
1.9801745 -1.4652456 2.0679321 13
2.3005726 -1.7029494 1.9612085 69
2.856915 -2.1147745 1.9463733 63
3.6778817 -2.7234733 1.9373344 22
4.1365323 -3.0642226 1.6021092 53
6.0076609 -4.4503012 1.5109199 13
nan nan nan 0
1.7361301 -1.2884176 2.006058 39
2.0759127 -1.5411402 1.96612 39
2.5595586 -1.9001995 1.9581357 73
3.2291293 -2.3981597 1.9468503 65
4.1361923 -3.0729244 1.8815111 57
5.9962378 -4.4564438 1.8926049 4
nan nan nan 0
nan nan nan 0
0.024848379 -0.019116042 1.9991974 80
0.2632657 -0.19800361 2.0946693 97
0.34437355 -0.2577669 2.0915227 67
0.48671716 -0.36381713 1.9886441 88
0.65657616 -0.49062324 1.99051 95
0.84097195 -0.62819612 1.9901714 83
1.0420926 -0.77843785 1.9830275 76
1.2780327 -0.9546901 1.9858838 74
0.099461988 -0.076274738 2.0010643 89
0.17369252 -0.13462104 2.0032918 91
0.40815622 -0.30630562 2.0009167 91
0.56815219 -0.42608997 1.9854547 93
0.74544567 -0.55866057 1.9891212 90
0.93632019 -0.70171618 1.9840788 85
1.1501577 -0.86198139 1.9773132 84
1.4089 -1.0559011 1.9869798 52
1.5730112 -1.1724768 2.0077524 38
1.9719266 -1.4698223 2.0647943 13
2.2946146 -1.7109696 1.9612085 69
2.8495157 -2.1247344 1.9463733 63
3.6683526 -2.736295 1.9373344 11
4.1065865 -3.0642982 1.5950632 53
6.0157118 -4.4888716 1.5165157 13
nan nan nan 0
1.7286309 -1.2922338 2.002733 39
2.0737574 -1.5507979 1.9690632 32
2.5529101 -1.9091226 1.9581357 73
3.2207384 -2.4094169 1.9468503 65
4.1065354 -3.0731962 1.8732976 56
6.0039911 -4.4948258 1.8996389 12
6.0209394 -4.5091538 1.1400307 15
2.3707948 -1.7761607 0.21317324 39
0.024781503 -0.019202664 1.9991974 80
0.26257294 -0.19892138 2.0946693 97
0.34347168 -0.25896743 2.0915227 67
0.48544419 -0.36551389 1.9886441 86
0.65485954 -0.49291211 1.99051 95
0.83877397 -0.63112783 1.9901714 83
1.0393689 -0.78207076 1.9830275 76
1.2746924 -0.95914543 1.9858838 73
0.09919513 -0.076621473 2.0010643 89
0.17322154 -0.13522655 2.0032918 93
0.40708455 -0.30772847 2.0009167 91
0.56666136 -0.42807063 1.9854547 91
0.74349099 -0.56125927 1.9891212 90
0.93386507 -0.70498025 1.9840788 87
1.1471417 -0.86599088 1.9773132 84
1.4052057 -1.0608126 1.9869798 62
1.5689089 -1.1779605 2.0077524 38
1.963671 -1.4743595 2.0616565 13
2.2886281 -1.7189687 1.9612085 69
2.8420818 -2.1346679 1.9463733 63
3.6587787 -2.749083 1.9373344 9
4.0766912 -3.0642021 1.5880171 54
6.0000062 -4.5098429 1.5165157 10
2.3761213 -1.7866343 0.35931864 19
1.7241096 -1.2982601 2.002733 39
2.0683317 -1.5580273 1.9690632 32
2.5462303 -1.9180223 1.9581357 73
3.208684 -2.4179134 1.9447522 64
4.0769286 -3.0732982 1.8650842 58
5.9843841 -4.5128298 1.8984666 12
6.0130692 -4.5361075 1.1414104 12
2.3446412 -1.7693783 0.21216559 47
0.024714321 -0.01928905 1.9991974 82
0.26187697 -0.1998367 2.0946693 97
0.34256563 -0.2601648 2.0915227 64
0.48416537 -0.36720616 1.9886441 82
0.653135 -0.495195 1.99051 91
0.83656585 -0.63405186 1.9901714 85
1.0366327 -0.78569406 1.9830275 80
1.2713366 -0.96358913 1.9858838 68
0.098927066 -0.076967254 2.0010643 89
0.17274846 -0.13583037 2.0032918 93
0.40600792 -0.30914763 2.0009167 91
0.56516367 -0.43004605 1.9854547 91
0.74152738 -0.56385112 1.9891212 90
0.93139857 -0.70823574 1.9840788 87
1.144112 -0.86998993 1.9773132 87
1.4014941 -1.0657113 1.9869798 71
1.5647875 -1.1834298 2.0077524 38
1.9585127 -1.481205 2.0616565 13
2.2826138 -1.7269472 1.9612085 69
2.8346128 -2.1445756 1.9463733 64
3.6565535 -2.7674332 1.9410803 9
4.0506711 -3.0668309 1.5823804 57
5.995976 -4.5396547 1.5193136 9
2.3460505 -1.7768769 0.35664138 23
1.7195675 -1.3042704 2.002733 39
2.0628805 -1.5652375 1.9690632 37
2.5395198 -1.9268985 1.9581357 73
3.2002244 -2.4290991 1.9447522 64
4.0473704 -3.0732312 1.8568707 58
5.9608541 -4.5278115 1.896122 12
6.009028 -4.5660577 1.1434798 12
2.3304961 -1.7715052 0.21176252 41
0.024646837 -0.019375203 1.9991974 82
0.26117781 -0.20074962 2.0946693 96
0.3416554 -0.26135898 2.0915227 62
0.48288062 -0.36889395 1.9886441 84
0.65140241 -0.4974719 1.99051 91
0.83434755 -0.63696814 1.9901714 83
1.0338838 -0.78930777 1.9830275 82
1.2679653 -0.96802098 1.9858838 68
0.098657802 -0.077312112 2.0010643 89
0.17227328 -0.13643254 2.0032918 93
0.4049263 -0.31056297 2.0009167 89
0.56365913 -0.43201619 1.9854547 93
0.73955464 -0.56643617 1.9891212 90
0.92892063 -0.71148264 1.9840788 89
1.141068 -0.87397838 1.9773132 87
1.3977656 -1.0705969 1.9869798 78
1.5606471 -1.1888847 2.0077524 38
1.9502335 -1.4856732 2.0585186 12
2.2765718 -1.7349043 1.9612085 69
2.8271098 -2.1544571 1.9463733 65
3.6542447 -2.7858016 1.9448265 8
4.0246825 -3.069315 1.5767436 60
6.0035281 -4.5784297 1.5249093 9
2.3239961 -1.7729727 0.35485655 26
1.7150042 -1.3102647 2.002733 39
2.057404 -1.5724289 1.9690632 52
2.5327783 -1.9357514 1.9581357 73
3.1917255 -2.4402549 1.9447522 66
4.0178623 -3.0729954 1.8486573 59
5.9527335 -4.5544982 1.8984666 11
6.0087829 -4.5990453 1.146239 11
2.312398 -1.7705178 0.21115792 44
0.024579056 -0.019461118 1.9991974 77
0.26047546 -0.20166005 2.0946693 96
0.34074101 -0.26255 2.0915227 62
0.48159 -0.37057728 1.9886441 82
0.64966196 -0.49974266 1.99051 91
0.83211899 -0.63987666 1.9901714 83
1.0311223 -0.79291195 1.9830275 80
1.2645786 -0.9724412 1.9858838 69
0.098387331 -0.077656016 2.0010643 88
0.17179599 -0.13703308 2.0032918 93
0.40383977 -0.31197453 2.0009167 88
0.56214768 -0.43398112 1.9854547 93
0.73757297 -0.56901419 1.9891212 92
0.92643148 -0.71472079 1.9840788 89
1.1403967 -0.87979716 1.9813027 87
1.3940201 -1.0754694 1.9869798 80
1.5593169 -1.1964962 2.0112567 38
1.9450356 -1.4924718 2.0585186 12
2.2705021 -1.7428406 1.9612085 69
2.8195722 -2.1643126 1.9463733 65
3.6518519 -2.8041868 1.9485725 7
3.9987264 -3.0716553 1.5711068 65
6.0069885 -4.6143203 1.5295724 11
2.3019977 -1.7689365 0.35307169 29
1.71042 -1.3162433 2.002733 39
2.0486999 -1.5771353 1.96612 67
2.5260055 -1.9445808 1.9581357 74
3.1831882 -2.4513817 1.9447522 65
3.9921472 -3.075474 1.8420866 58
5.936799 -4.5752492 1.8984666 11
6.0162244 -4.6381335 1.150378 12
2.2943354 -1.7694256 0.21055335 40
0.024510972 -0.019546796 1.9991974 77
0.25976995 -0.20256807 2.0946693 97
0.33982244 -0.2637378 2.0915227 62
0.48029351 -0.3722561 1.9886441 80
0.64791358 -0.50200737 1.99051 91
0.8298803 -0.64277738 1.9901714 83
1.0283483 -0.79650635 1.9830275 80
1.2611763 -0.97684938 1.9858838 69
0.098115668 -0.077998981 2.0010643 89
0.17131661 -0.13763191 2.0032918 93
0.40274829 -0.3133823 2.0009167 89
0.56062937 -0.43594071 1.9854547 93
0.73558217 -0.5715853 1.9891212 92
0.923931 -0.71795028 1.9840788 87
1.1373188 -0.88377255 1.9813027 87
1.3929343 -1.082409 1.9906548 74
1.5551307 -1.201932 2.0112567 36
1.9182533 -1.4825882 2.0365543 13
2.2644043 -1.7507555 1.9612085 69
2.812 -2.1741414 1.9463733 63
3.6530421 -2.8254259 1.9541916 7
3.9690089 -3.0709162 1.5640608 66
6.0102706 -4.6502905 1.5342355 12
2.2879326 -1.7708647 0.35217929 31
1.7058151 -1.3222058 2.002733 38
2.0431821 -1.5842769 1.96612 67
2.5192025 -1.9533863 1.9581357 74
3.1746116 -2.4624779 1.9447522 65
3.9627328 -3.0749152 1.8338732 58
5.9207921 -4.5959454 1.8984666 11
6.0195546 -4.6742921 1.1538271 13
2.2763088 -1.7682294 0.20994875 40
0.024442594 -0.019632237 1.9991974 82
0.25906128 -0.20347361 2.0946693 96
0.33889976 -0.26492238 2.0915227 64
0.47899118 -0.37393039 1.9886441 73
0.64615726 -0.50426596 1.99051 93
0.82763159 -0.64567029 1.9901714 83
1.0277804 -0.80182201 1.9871606 80
1.2602867 -0.98321784 1.9897208 71
0.09784279 -0.078340992 2.0010643 89
0.17083514 -0.13822907 2.0032918 93
0.40165195 -0.31478623 2.0009167 89
0.5591042 -0.43789506 1.9854547 93
0.7335825 -0.57414949 1.9891212 90
0.92141926 -0.72117102 1.9840788 87
1.1342269 -0.88773715 1.9813027 87
1.3918173 -1.0893544 1.99433 66
1.5509257 -1.207353 2.0112567 36
1.8946354 -1.4749269 2.0177276 14
2.2582793 -1.7586491 1.9612085 69
2.8043938 -2.183944 1.9463733 63
3.6541293 -2.8467076 1.9598107 7
3.9431295 -3.0729566 1.558424 68
6.0133743 -4.6863399 1.5388986 13
2.2699544 -1.7696548 0.35084066 33
1.704133 -1.3304504 2.006058 38
2.0376396 -1.5913994 1.96612 58
2.5123684 -1.9621681 1.9581357 73
3.1695733 -2.4763384 1.9468503 65
3.9370918 -3.0770967 1.8273025 57
5.9047132 -4.6165848 1.8984666 11
6.026607 -4.7135816 1.157966 14
2.262253 -1.7700074 0.20954567 46
0.024373915 -0.019717436 1.9991974 82
0.25834945 -0.20437667 2.0946693 96
0.33877289 -0.26673371 2.0964177 63
0.47650895 -0.37467685 1.9838723 71
0.64439315 -0.50651836 1.99051 93
0.8253727 -0.6485554 1.9901714 83
1.0249752 -0.80540478 1.9871606 82
1.2568468 -0.98761111 1.9897208 71
0.097568743 -0.07868205 2.0010643 89
0.17035159 -0.13882455 2.0032918 93
0.40055066 -0.31618631 2.0009167 89
0.55757225 -0.43984401 1.9854547 93
0.73157388 -0.57670665 1.9891212 90
0.91889626 -0.724383 1.9840788 89
1.1311212 -0.89169097 1.9813027 87
1.3880062 -1.0942061 1.99433 54
1.5467019 -1.2127595 2.0112567 39
1.8710949 -1.4671193 1.9989008 18
2.2521267 -1.7665212 1.9612085 69
2.7932675 -2.1909857 1.9440553 63
3.6551113 -2.8680308 1.9654298 7
3.913511 -3.0718915 1.5513781 64
6.0163002 -4.7224669 1.5435617 12
2.2520132 -1.7683407 0.34950203 36
1.6994785 -1.3363907 2.006058 39
2.0320723 -1.5985023 1.96612 39
2.5055039 -1.9709259 1.9581357 73
3.1609099 -2.4873874 1.9468503 66
3.9077733 -3.0762155 1.8190891 58
5.8885627 -4.6371679 1.8984666 11
6.0178962 -4.7407184 1.1593455 14
2.2442892 -1.7686166 0.2089411 45
0.024304941 -0.019802399 1.9991974 82
0.25763446 -0.20527722 2.0946693 97
0.33783975 -0.26791462 2.0964177 61
0.47519815 -0.37633789 1.9838723 69
0.64262116 -0.50876462 1.99051 95
0.82310385 -0.65143257 1.9901714 83
1.0221577 -0.80897778 1.9871606 82
1.2533917 -0.99199235 1.9897208 71
0.097293489 -0.079022147 2.0010643 89
0.16986597 -0.13941835 2.0032918 93
0.39944455 -0.31758261 2.0009167 89
0.55603355 -0.44178763 1.9854547 93
0.72955632 -0.57925677 1.9891212 90
0.91636205 -0.72758609 1.9840788 87
1.1256412 -0.89375955 1.9773132 84
1.3868333 -1.1011524 1.9980052 49
1.5424591 -1.218151 2.0112567 36
1.8476322 -1.4591653 1.9800742 21
2.2459469 -1.7743719 1.9612085 69
2.7856026 -2.2007225 1.9440553 64
3.6596262 -2.8922703 1.972922 8
3.8839483 -3.0706575 1.5443321 64
6.0190458 -4.7586718 1.5482248 12
2.2380145 -1.7700125 0.3486096 37
1.6948032 -1.342315 2.006058 39
2.02648 -1.6055858 1.96612 30
2.4986088 -1.9796597 1.9581357 74
3.1522081 -2.4984057 1.9468503 67
3.8822098 -3.0781014 1.8125182 58
5.8685317 -4.6546736 1.8972943 11
6.0517435 -4.8017106 1.1683131 15
2.2302756 -1.7702278 0.20853803 44
0.02423567 -0.019887118 1.9991974 82
0.25691634 -0.20617528 2.0946693 97
0.3369025 -0.26909226 2.0964177 61
0.47388163 -0.37799436 1.9838723 67
0.64084131 -0.51100469 1.99051 95
0.82082486 -0.6543017 1.9901714 83
1.0193274 -0.81254077 1.9871606 80
1.2499214 -0.99636132 1.9897208 66
0.097017065 -0.07936129 2.0010643 89
0.16937827 -0.14001045 2.0032918 93
0.39833352 -0.318975 2.0009167 89
0.554488 -0.44372585 1.9854547 93
0.72752994 -0.58179998 1.9891212 90
0.91381675 -0.73078042 1.9840788 87
1.1225145 -0.89768338 1.9773132 84
1.3829811 -1.1059868 1.9980052 47
1.5381976 -1.2235278 2.0112567 36
1.8364344 -1.4607593 1.9737986 27
2.2397394 -1.7822009 1.9612085 61
2.7779036 -2.2104328 1.9440553 65
3.6640165 -2.9165759 1.980414 9
3.8544414 -3.0692544 1.5372862 65
6.0100837 -4.7857733 1.5500901 13
2.2201369 -1.7685052 0.347271 37
1.6901075 -1.3482227 2.006058 39
2.0208631 -1.6126498 1.96612 25
2.4916832 -1.9883693 1.9581357 73
3.1434677 -2.5093939 1.9468503 67
3.8566811 -3.0798469 1.8059475 60
5.8598433 -4.6811981 1.8996389 10
6.0504203 -4.8351727 1.1710725 15
2.2123759 -1.7686434 0.20793343 46
0.024166103 -0.019971594 1.9991974 82
0.2561951 -0.20707083 2.0946693 97
0.33516786 -0.26962835 2.0915227 64
0.47255927 -0.37964621 1.9838723 66
0.63905364 -0.51323855 1.99051 95
0.81853598 -0.65716296 1.9901714 83
1.016485 -0.81609404 1.9871606 82
1.2489357 -1.0027255 1.9935577 55
0.096739441 -0.079699457 2.0010643 89
0.16888849 -0.14060083 2.0032918 93
0.39623865 -0.31957382 1.9960775 93
0.55293578 -0.44565868 1.9854547 91
0.72549468 -0.58433592 1.9891212 90
0.91126037 -0.73396575 1.9840788 87
1.1193743 -0.90159613 1.9773132 84
1.379112 -1.1108074 1.9980052 45
1.5339174 -1.2288896 2.0112567 38
1.8343624 -1.4695948 1.9769365 29
2.2335045 -1.7900082 1.9612085 61
2.7701712 -2.2201161 1.9440553 65
3.6682816 -2.9409473 1.9879062 10
3.8287349 -3.0706844 1.5316494 65
6.0393267 -4.8436036 1.5612814 13
2.206181 -1.7700112 0.34637856 39
1.6853908 -1.3541142 2.006058 39
2.0183721 -1.6222262 1.9690632 25
2.4880879 -1.9997557 1.9606682 73
3.1346893 -2.5203512 1.9468503 67
3.8311872 -3.0814512 1.7993768 61
5.8434668 -4.7016244 1.8996389 10
6.0335054 -4.8562632 1.1710725 14
2.198406 -1.7700888 0.20753038 43
0.024096241 -0.020055829 1.9991974 86
0.25547072 -0.20796385 2.0946693 97
0.33422464 -0.27079669 2.0915227 64
0.47123119 -0.38129345 1.9838723 66
0.63725823 -0.51546609 1.99051 93
0.81623703 -0.66001618 1.9901714 83
1.0136302 -0.81963724 1.9871606 82
1.2454278 -1.0070789 1.9935577 50
0.096460655 -0.080036655 2.0010643 89
0.16839668 -0.1411895 2.0032918 93
0.39512074 -0.32095498 1.9960775 93
0.55137676 -0.44758606 1.9854547 91
0.72345048 -0.58686483 1.9891212 92
0.90869272 -0.73714221 1.9840788 87
1.1162202 -0.90549803 1.9773132 84
1.3752261 -1.1156148 1.9980052 45
1.5296185 -1.2342365 2.0112567 38
1.8322508 -1.4784334 1.9800742 33
2.2272427 -1.7977935 1.9612085 71
2.7624044 -2.2297721 1.9440553 57
3.6832411 -2.9741211 2.0010173 10
3.7993331 -3.068958 1.5246034 67
6.030025 -4.8708291 1.5631467 13
2.1922421 -1.7714413 0.34548613 40
1.680654 -1.3599889 2.006058 39
2.0126972 -1.6292619 1.9690632 22
2.4810922 -2.0084286 1.9606682 72
3.1258724 -2.5312781 1.9468503 66
3.8057296 -3.0829155 1.792806 62
5.8232436 -4.7189331 1.8984666 9
nan nan nan 0
2.184453 -1.7714585 0.2071273 43
0.024026088 -0.020139817 1.9991974 86
0.25474322 -0.20885435 2.0946693 97
0.33327734 -0.27196169 2.0915227 62
0.46989736 -0.38293603 1.9838723 67
0.63545501 -0.51768744 1.99051 91
0.81392813 -0.66286135 1.9901714 79
1.0107628 -0.82317048 1.9871606 80
1.2443908 -1.0134447 1.9973947 49
0.096180685 -0.08037287 2.0010643 89
0.16790281 -0.14177646 2.0032918 93
0.393998 -0.32233223 1.9960775 93
0.54981107 -0.44950798 1.9854547 91
0.72139752 -0.58938658 1.9891212 90
0.9061141 -0.7403096 1.9840788 87
1.1130527 -0.9093889 1.9773132 84
1.3713236 -1.1204084 1.9980052 43
1.5280683 -1.2418176 2.0147614 38
1.8301002 -1.4872754 1.983212 36
2.2209537 -1.8055571 1.9612085 71
2.7546041 -2.2394011 1.9440553 57
3.6764338 -2.9898846 2.0028906 10
3.7774332 -3.0731189 1.5203758 68
6.0358486 -4.9104476 1.5687424 7
2.1783199 -1.7727959 0.3445937 40
1.6758964 -1.3658472 2.006058 39
2.0101306 -1.6388317 1.9720063 16
2.4740665 -2.017077 1.9606682 65
3.1170175 -2.5421741 1.9468503 66
3.7803082 -3.0842397 1.7862353 62
nan nan nan 0
nan nan nan 0
2.1743867 -1.7759124 0.20692578 52
0.023955639 -0.020223562 1.9991974 82
0.25401264 -0.20974229 2.0946693 97
0.33311254 -0.27376992 2.0964177 63
0.4685578 -0.38457394 1.9838723 69
0.6336441 -0.51990241 1.99051 91
0.81160939 -0.66569841 1.9901714 75
1.0078833 -0.82669359 1.9871606 80
1.2408457 -1.0177821 1.9973947 49
0.095899545 -0.080708116 2.0010643 89
0.1674069 -0.1423617 2.0032918 95
0.39287043 -0.32370561 1.9960775 93
0.54823858 -0.45142448 1.9854547 91
0.7210173 -0.59328485 1.9936218 92
0.90352434 -0.74346805 1.9840788 87
1.1098716 -0.91326857 1.9773132 84
1.3674042 -1.1251884 1.9980052 45
1.5237244 -1.247144 2.0147614 39
1.8248975 -1.4936547 1.983212 36
2.2146375 -1.8132987 1.9612085 69
2.7467704 -2.2490029 1.9440553 65
3.6803205 -3.0144501 2.0103827 11
3.7555511 -3.0771644 1.5161483 69
3.6552777 -2.9950042 0.98865277 13
2.1644156 -1.774075 0.3437013 47
1.6682318 -1.3693194 2.002733 39
2.0075216 -1.6484035 1.9749495 12
2.4670105 -2.0257008 1.9606682 52
3.1081245 -2.5530391 1.9468503 63
3.7330325 -3.0674353 1.7698084 64
3.6536243 -3.0032539 1.2314179 51
3.6490252 -3.000541 0.75028485 100
2.1643164 -1.7803179 0.20672426 66
0.0238849 -0.02030706 1.9991974 82
0.25327894 -0.21062768 2.0946693 97
0.33215487 -0.27493104 2.0964177 63
0.46721253 -0.38620716 1.9838723 67
0.63182539 -0.52211112 1.99051 93
0.80928069 -0.66852736 1.9901714 71
1.0049914 -0.83020675 1.9871606 80
1.2372854 -1.0221072 1.9973947 49
0.09539666 -0.080854788 1.9960728 89
0.16690895 -0.14294517 2.0032918 95
0.39173809 -0.32507497 1.9960775 91
0.54665947 -0.45333543 1.9854547 93
0.71894199 -0.59579802 1.9936218 93
0.90092373 -0.74661744 1.9840788 87
1.1089976 -0.91906053 1.9813027 84
1.3634683 -1.1299547 1.9980052 45
1.5193616 -1.2524551 2.0147614 39
1.8226762 -1.5024915 1.9863497 38
2.2082944 -1.8210183 1.9612085 69
2.7389035 -2.2585771 1.9440553 65
3.6697757 -3.0272784 2.0103827 11
3.6929848 -3.0475073 1.4964195 81
3.6448009 -3.007745 0.98865277 85
2.1543694 -1.7784491 0.3432551 34
1.6634418 -1.3751343 2.002733 39
2.0079851 -1.6605526 1.9808358 10
2.4599247 -2.0343001 1.9606682 38
3.0991938 -2.5638728 1.9468503 61
3.693197 -3.0563605 1.756667 76
3.6431191 -3.0159895 1.2314179 85
3.6309011 -3.0069427 0.74890518 92
2.1465468 -1.7783003 0.20611966 17
0.02381387 -0.020390309 1.9991974 82
0.2525422 -0.21151051 2.0946693 97
0.33119315 -0.2760888 2.0964177 63
0.46586159 -0.38783568 1.9838723 67
0.62999904 -0.52431339 1.99051 93
0.80694216 -0.67134827 1.9901714 58
1.0020874 -0.83370978 1.9871606 82
1.2337101 -1.0264201 1.9973947 49
0.095113844 -0.081187278 1.9960728 89
0.16640896 -0.14352691 2.0032918 93
0.3915661 -0.32724708 2.0009167 89
0.54507375 -0.45524085 1.9854547 91
0.71685785 -0.59830397 1.9936218 92
0.89831203 -0.74975765 1.9840788 87
1.1057827 -0.92292601 1.9813027 84
1.3569131 -1.1325349 1.99433 45
1.5122367 -1.2554729 2.0112567 39
1.8174205 -1.5088447 1.9863497 37
2.1987076 -1.8260438 1.9584669 69
2.7310026 -2.2681239 1.9440553 67
3.6413569 -3.0252573 2.0010173 14
3.6269832 -3.0143855 1.4752816 75
3.6191683 -3.0078905 0.98492229 79
2.1481481 -1.7859585 0.3432551 24
1.6557621 -1.3785431 1.9994081 39
2.008388 -1.6727254 1.9867221 9
2.4528084 -2.0428746 1.9606682 37
3.0902255 -2.5746753 1.9468503 48
3.638974 -3.0329514 1.7369548 80
3.6213691 -3.0193501 1.227901 81
3.6051705 -3.006911 0.7461459 87
2.1249821 -1.7729799 0.20531353 11
0.023742549 -0.020473313 1.9991974 82
0.25180236 -0.21239075 2.0946693 97
0.3302274 -0.27724317 2.0964177 63
0.46450493 -0.38945949 1.9838723 67
0.62816501 -0.52650928 1.99051 93
0.80459386 -0.67416096 1.9901714 40
0.99917108 -0.83720261 1.9871606 78
1.2301197 -1.0307202 1.9973947 47
0.094829872 -0.081518807 1.9960728 89
0.16590695 -0.14410692 2.0032918 91
0.39042142 -0.32861191 2.0009167 89
0.54348129 -0.45714074 1.9854547 91
0.71476501 -0.60080266 1.9936218 92
0.89568937 -0.7528888 1.9840788 85
1.1025543 -0.92678034 1.9813027 84
1.3529515 -1.1372645 1.99433 45
1.5078452 -1.2607441 2.0112567 38
1.8121426 -1.5151796 1.9863497 37
2.1923201 -1.8337077 1.9584669 69
2.7264669 -2.2804854 1.9463733 67
3.6023307 -3.0141497 1.9860331 15
3.6127603 -3.0239487 1.4738724 74
3.6011128 -3.0141995 0.98305696 74
2.1495376 -1.7998403 0.34414753 17
1.6509398 -1.3843144 1.9994081 39
2.0087306 -1.684921 1.9926084 8
2.4456625 -2.0514238 1.9606682 37
3.0812194 -2.5854466 1.9468503 40
3.6138966 -3.0334907 1.730384 76
3.603363 -3.0257213 1.2255564 75
3.5870683 -3.0131061 0.74476624 83
2.0843565 -1.7514607 0.20349976 9
0.02367094 -0.020556062 1.9991974 82
0.25105941 -0.21326841 2.0946693 97
0.32925767 -0.27839419 2.0964177 62
0.4631426 -0.3910785 1.9838723 67
0.62632334 -0.5286988 1.99051 93
0.80223566 -0.67696536 1.9901714 37
0.99624258 -0.84068525 1.9871606 78
1.2265142 -1.0350078 1.9973947 49
0.094544731 -0.081849322 1.9960728 89
0.1654029 -0.14468516 2.0032918 91
0.38927194 -0.32997271 2.0009167 91
0.54188228 -0.45903504 1.9854547 93
0.71266353 -0.60329396 1.9936218 93
0.89305592 -0.75601071 1.9840788 87
1.0970122 -0.92867583 1.9773132 82
1.3489735 -1.1419802 1.99433 45
1.5007071 -1.2637026 2.0077524 38
1.8068426 -1.5214959 1.9863497 37
2.1859059 -1.8413491 1.9584669 69
2.7184896 -2.2899888 1.9463733 67
3.5598822 -2.9998202 1.9691759 27
3.5948467 -3.0303569 1.471054 70
3.5793021 -3.0172532 0.98025918 71
2.0937493 -1.7655969 0.33834678 4
1.6460977 -1.390069 1.9994081 39
2.0090125 -1.6971394 1.9984947 8
2.4384868 -2.0599482 1.9606682 41
3.0721757 -2.5961862 1.9468503 39
3.5924659 -3.0369406 1.7254559 75
3.5779335 -3.0257263 1.220867 74
3.5651865 -3.0160141 0.74269682 81
2.0362802 -1.723225 0.20128292 5
0.02359904 -0.020638566 1.9991974 82
0.25031343 -0.2141435 2.0946693 96
0.32828388 -0.27954185 2.0964177 63
0.46177471 -0.3926928 1.9838723 67
0.62447405 -0.53088182 1.99051 93
0.79986769 -0.67976159 1.9901714 36
0.99330199 -0.8441577 1.9871606 82
1.2253368 -1.0413589 2.0012317 43
0.094258443 -0.082178846 1.9960728 91
0.16489686 -0.14526166 2.0032918 91
0.38811773 -0.33132952 2.0009167 91
0.54027671 -0.46092379 1.9854547 91
0.71055329 -0.60577798 1.9936218 92
0.8904115 -0.7591235 1.9840788 87
1.0937638 -0.93249947 1.9773132 84
1.344979 -1.146682 1.99433 43
1.4962867 -1.2689334 2.0077524 38
1.8015203 -1.5277938 1.9863497 37
2.1794651 -1.8489683 1.9584669 69
2.7104797 -2.299464 1.9463733 67
3.5175776 -2.9852307 1.9523187 28
3.5696182 -3.0304675 1.4654171 69
3.5575132 -3.020191 0.97746122 70
2.0647981 -1.7535524 0.33566952 4
1.6383905 -1.393387 1.9960833 39
2.009233 -1.7093799 2.0043812 8
2.4312813 -2.0684476 1.9606682 63
3.0630946 -2.6068943 1.9468503 39
3.5674598 -3.0372164 1.7188852 76
3.5562487 -3.0287428 1.2173501 74
3.5433285 -3.0188062 0.74062741 80
2.0264502 -1.7270818 0.20108138 5
0.023526855 -0.020720817 1.9991974 80
0.24956442 -0.21501593 2.0946693 96
0.32730609 -0.28068605 2.0964177 63
0.46040112 -0.39430231 1.9838723 67
0.62261713 -0.53305846 1.99051 93
0.79749 -0.68254954 1.9901714 36
0.99034929 -0.84761989 1.9871606 80
1.2216944 -1.04563 2.0012317 43
0.093971021 -0.082507364 1.9960728 89
0.16438879 -0.14583637 2.0032918 93
0.38600507 -0.33186224 1.9960775 93
0.53866446 -0.46280688 1.9854547 91
0.7084344 -0.60825455 1.9936218 92
0.88775623 -0.762227 1.9840788 87
1.0905021 -0.93631178 1.9773132 84
1.3409681 -1.1513699 1.99433 43
1.4918482 -1.2741486 2.0077524 38
1.7961766 -1.5340729 1.9863497 37
2.1729977 -1.8565645 1.9584669 69
2.6990683 -2.3060336 1.9440553 65
3.4754186 -2.9703832 1.9354613 37
3.548079 -3.0335569 1.4611896 69
3.5357487 -3.0230145 0.97466338 70
2.0283878 -1.7348541 0.33209985 11
1.6335167 -1.3990974 1.9960833 38
2.0093927 -1.721643 2.0102675 9
2.4240463 -2.0769219 1.9606682 70
3.0539761 -2.6175706 1.9468503 48
3.5460813 -3.0404296 1.7139572 79
3.5308971 -3.0284798 1.2126609 72
3.5177355 -3.0182574 0.73786813 77
2.0090365 -1.7243836 0.2004768 5
0.023454383 -0.020802815 1.9991974 80
0.24881235 -0.21588576 2.0946693 97
0.32632431 -0.28182685 2.0964177 63
0.45902196 -0.39590704 1.9838723 67
0.62075263 -0.53522855 1.99051 95
0.7951026 -0.68532908 1.9901714 37
0.9873845 -0.8510716 1.9871606 80
1.2180369 -1.049888 2.0012317 47
0.093682438 -0.082834885 1.9960728 89
0.16387872 -0.1464093 2.0032918 93
0.38484433 -0.33320764 1.9960775 91
0.53704566 -0.46468437 1.9854547 89
0.70630682 -0.61072373 1.9936218 92
0.88509011 -0.7653212 1.9840788 87
1.087227 -0.94011253 1.9773132 82
1.3369409 -1.1560438 1.99433 45
1.4873916 -1.2793485 2.0077524 38
1.7908107 -1.5403334 1.9863497 38
2.1665039 -1.8641385 1.9584669 69
2.6910024 -2.3154411 1.9440553 65
3.4685423 -2.9855208 1.9373344 52
3.5229275 -3.0334029 1.4555528 68
3.5102851 -3.0225172 0.9709329 69
2.0034533 -1.7256732 0.32986879 8
1.628623 -1.4047911 1.9960833 38
2.0094914 -1.7339277 2.0161538 9
2.4167819 -2.0853705 1.9606682 72
3.0448205 -2.6282151 1.9468503 61
3.5211492 -3.0404437 1.7073864 75
3.5092692 -3.0312548 1.209144 70
3.4959376 -3.0208046 0.73579872 77
1.9916661 -1.7215844 0.1998722 5
0.023381624 -0.020884559 1.9991974 82
0.24805726 -0.21675298 2.0946693 97
0.32457036 -0.28229597 2.0915227 64
0.45763716 -0.39750689 1.9838723 71
0.61888051 -0.53739214 1.99051 93
0.79270554 -0.68810034 1.9901714 38
0.98440766 -0.85451299 1.9871606 80
1.2119437 -1.0520318 1.9973947 47
0.09339273 -0.083161391 1.9960728 89
0.16336666 -0.14698046 2.0032918 93
0.38367885 -0.33454898 1.9960775 91
0.53672135 -0.46768996 1.9901476 91
0.7041707 -0.61318547 1.9936218 90
0.88241327 -0.76840603 1.9840788 87
1.083939 -0.94390196 1.9773132 84
1.3328975 -1.1607035 1.99433 45
1.4829168 -1.2845327 2.0077524 38
1.7824807 -1.5440264 1.983212 37
2.1599836 -1.8716897 1.9584669 71
2.6829038 -2.3248203 1.9440553 67
3.454597 -2.9945736 1.9354613 55
3.5014443 -3.0362532 1.4513253 67
3.4885795 -3.0250976 0.96813506 71
1.9823698 -1.7196028 0.32808396 5
1.6237094 -1.4104674 1.9960833 38
2.0095289 -1.7462343 2.0220401 9
2.409488 -2.0937941 1.9606682 72
3.0356278 -2.6388276 1.9468503 64
3.4998243 -3.0434198 1.7024584 73
3.4839973 -3.0307252 1.2044545 72
3.4704285 -3.0199857 0.73303944 85
1.9743401 -1.7186855 0.19926761 5
0.023308583 -0.020966046 1.9991974 82
0.24788235 -0.21813098 2.0996087 96
0.32358298 -0.28342721 2.0915227 64
0.45624682 -0.39910191 1.9838723 77
0.61700088 -0.53954911 1.99051 93
0.79029882 -0.69086325 1.9901714 39
0.97930026 -0.85609198 1.9830275 80
1.2082641 -1.0562559 1.9973947 49
0.093101859 -0.083486892 1.9960728 89
0.16285262 -0.14754982 2.0032918 93
0.38250872 -0.33588621 1.9960775 91
0.53508556 -0.46956059 1.9901476 93
0.70038879 -0.61420393 1.9891212 92
0.87972564 -0.77148157 1.9840788 87
1.0806373 -0.94767988 1.9773132 87
1.3288378 -1.1653491 1.99433 45
1.478424 -1.289701 2.0077524 38
1.7770802 -1.550239 1.983212 37
2.1534371 -1.8792181 1.9584669 71
2.6747723 -2.3341713 1.9440553 67
3.4441228 -3.0066142 1.9354613 49
3.4763708 -3.0358346 1.4456885 68
3.4631989 -3.0243318 0.96440458 73
1.9501019 -1.7035778 0.3249605 4
1.618776 -1.4161266 1.9960833 38
2.0095043 -1.7585618 2.0279264 10
2.4021642 -2.1021919 1.9606682 70
3.0263982 -2.6494076 1.9468503 64
3.4749684 -3.0431728 1.6958877 71
3.462429 -3.0332594 1.2009376 75
3.4486926 -3.0222893 0.73096997 86
1.9608153 -1.71898 0.19886455 6
0.023235254 -0.021047281 1.9991974 82
0.24711943 -0.21899493 2.0996087 96
0.32259166 -0.28455502 2.0915227 66
0.45597163 -0.4016794 1.9886441 80
0.61511374 -0.54169959 1.99051 93
0.78608429 -0.69203466 1.9857829 42
0.97630596 -0.85950512 1.9830275 82
1.2045697 -1.060467 1.9973947 49
0.092809871 -0.083811365 1.9960728 89
0.16233657 -0.14811738 2.0032918 91
0.38133395 -0.33721936 1.9960775 88
0.53344321 -0.47142556 1.9901476 93
0.69824052 -0.61664504 1.9891212 92
0.87702739 -0.7745477 1.9840788 89
1.077323 -0.95144624 1.9773132 84
1.3247619 -1.1699805 1.99433 45
1.4712338 -1.2925001 2.0042477 38
1.7687333 -1.5538632 1.9800742 36
2.1468644 -1.8867234 1.9584669 69
2.6699359 -2.3464181 1.9463733 65
3.430125 -3.0155566 1.9335883 38
3.4513426 -3.0352783 1.4400517 70
3.4415545 -3.0266702 0.96160674 75
1.9441433 -1.7103745 0.3249605 4
1.6138231 -1.4217685 1.9960833 38
2.0124512 -1.7735832 2.036756 11
2.3948119 -2.1105642 1.9606682 70
3.0171318 -2.6599557 1.9468503 64
3.4501572 -3.0427895 1.6893169 73
3.4372401 -3.0324643 1.1962484 77
3.4232697 -3.0212018 0.72821069 88
1.9473125 -1.7192011 0.19846149 4
0.023161644 -0.02112826 1.9991974 80
0.24635349 -0.2198562 2.0996087 97
0.32235759 -0.28635558 2.0964177 61
0.45456675 -0.40326861 1.9886441 86
0.61321914 -0.54384345 1.99051 93
0.78366393 -0.69477445 1.9857829 46
0.9732998 -0.86290789 1.9830275 80
1.2008606 -1.0646654 1.9973947 49
0.09251675 -0.084134825 1.9960728 91
0.16181855 -0.14868315 2.0032918 93
0.38015452 -0.33854845 1.9960775 86
0.53179443 -0.47328472 1.9901476 93
0.69608378 -0.61907858 1.9891212 93
0.8743183 -0.77760434 1.9840788 87
1.0739951 -0.95520097 1.9773132 82
1.3206697 -1.1745976 1.99433 45
1.4667132 -1.2976278 2.0042477 38
1.7632985 -1.5600277 1.9800742 35
2.1402652 -1.8942058 1.9584669 69
2.6617291 -2.3557236 1.9463733 67
3.4161067 -3.0244389 1.9317151 22
3.4263618 -3.0345848 1.434415 72
3.4162593 -3.0256376 0.95787627 75
1.9381611 -1.7171504 0.3249605 4
1.6116438 -1.4298717 1.9994081 39
2.0122941 -1.7859632 2.0426424 14
2.38743 -2.118911 1.9606682 70
3.0078282 -2.6704712 1.9468503 64
3.4289224 -3.0454066 1.6843888 77
3.4157331 -3.0347593 1.1927315 80
3.4015985 -3.0232635 0.72614127 90
1.9300985 -1.7160292 0.19785689 4
0.023087751 -0.021208979 1.9991974 80
0.24558455 -0.22071481 2.0996087 96
0.32135606 -0.2874791 2.0964177 59
0.45315626 -0.4048529 1.9886441 88
0.61131704 -0.54598063 1.99051 93
0.78123391 -0.69750571 1.9857829 54
0.97028172 -0.86630011 1.9830275 80
1.197137 -1.0688506 1.9973947 49
0.092435718 -0.084653184 2.0010643 89
0.16129857 -0.14924707 2.0032918 93
0.37897044 -0.33987337 1.9960775 84
0.53013909 -0.47513816 1.9901476 93
0.69391859 -0.62150455 1.9891212 92
0.87159866 -0.78065157 1.9840788 87
1.0706544 -0.95894408 1.9773132 80
1.3165616 -1.1792005 1.99433 47
1.459512 -1.3003674 2.0007432 37
1.7549357 -1.5635837 1.9769365 35
2.1336403 -1.9016653 1.9584669 63
2.6534898 -2.3650005 1.9463733 67
3.3813066 -3.0147486 1.918604 8
3.4050074 -3.0369465 1.4301872 73
3.3946788 -3.0277345 0.95507836 75
1.9321555 -1.7239054 0.3249605 4
1.6066428 -1.4354887 1.9994081 38
2.0150888 -1.8010573 2.0514717 17
2.3800189 -2.1272318 1.9606682 70
2.9984879 -2.6809542 1.9468503 64
3.404191 -3.044764 1.6778181 79
3.3906298 -3.0336998 1.1880422 81
3.3762646 -3.021908 0.723382 85
1.9166526 -1.716091 0.19745383 6
0.023013577 -0.021289442 1.9991974 82
0.24481262 -0.2215707 2.0996087 96
0.32035062 -0.28859907 2.0964177 61
0.45174032 -0.40643224 1.9886441 84
0.61086011 -0.54941773 1.9951125 95
0.77879441 -0.70022845 1.9857829 62
0.9672519 -0.86968178 1.9830275 82
1.1933987 -1.073023 1.9973947 49
0.092139669 -0.084975325 2.0010643 89
0.16077662 -0.14980921 2.0032918 93
0.37778175 -0.34119412 1.9960775 84
0.52847731 -0.47698581 1.9901476 91
0.69174486 -0.62392306 1.9891212 92
0.86886835 -0.78368926 1.9840788 87
1.0673004 -0.96267557 1.9773132 78
1.3124374 -1.1837891 1.99433 49
1.4523095 -1.3030725 1.9972385 37
1.7494673 -1.5697002 1.9769365 35
2.1269891 -1.9091015 1.9584669 64
2.6452181 -2.3742485 1.9463733 67
3.3500657 -3.0079498 1.9073657 3
3.3801093 -3.0359912 1.4245505 74
3.3731258 -3.0297186 0.95228052 74
1.9224216 -1.7273107 0.32451427 7
1.6016222 -1.4410882 1.9994081 38
2.0178022 -1.8161926 2.0603013 19
2.3725791 -2.1355264 1.9606682 70
2.9891114 -2.6914046 1.9468503 63
3.3830154 -3.0471463 1.6728901 81
3.3691866 -3.0357559 1.1845253 78
3.3546603 -3.0237279 0.72131258 82
1.90323 -1.7160798 0.19705077 7
0.022939123 -0.021369644 1.9991974 82
0.2440377 -0.22242393 2.0996087 96
0.31934124 -0.28971556 2.0964177 60
0.45031884 -0.40800661 1.9886441 84
0.60893846 -0.55154669 1.9951125 95
0.77634537 -0.70294267 1.9857829 71
0.96421021 -0.87305272 1.9830275 82
1.1896459 -1.0771822 1.9973947 49
0.09184248 -0.085296437 2.0010643 89
0.16025271 -0.15036951 2.0032918 93
0.37751892 -0.34335712 2.0009167 82
0.52553213 -0.47766685 1.9854547 91
0.6895628 -0.62633383 1.9891212 92
0.86612749 -0.78671741 1.9840788 85
1.0661646 -0.96842182 1.9813027 76
1.3082973 -1.1883631 1.99433 49
1.4451061 -1.3057432 1.9937341 35
1.7439773 -1.5757974 1.9769365 38
2.1203122 -1.9165144 1.9584669 67
2.6402011 -2.3864381 1.9486914 61
3.3189139 -3.0009704 1.8961276 3
3.3588178 -3.0381172 1.4203229 73
3.3479571 -3.0282936 0.94855005 74
1.908995 -1.7273282 0.32362187 7
1.5965822 -1.4466702 1.9994081 39
2.0204349 -1.831369 2.0691309 18
2.3651104 -2.1437953 1.9606682 72
2.9796987 -2.701822 1.9468503 61
3.3618648 -3.0494184 1.667962 82
3.34777 -3.037699 1.1810082 78
3.3330839 -3.025434 0.71924305 82
1.8898306 -1.715996 0.1966477 9
0.02286439 -0.021449588 1.9991974 82
0.2432598 -0.22327441 2.0996087 96
0.31832802 -0.2908285 2.0964177 63
0.44889191 -0.40957603 1.9886441 88
0.60700953 -0.55366898 1.9951125 95
0.77388692 -0.7056483 1.9857829 77
0.96115685 -0.87641317 1.9830275 80
1.1858785 -1.0813283 1.9973947 49
0.091544189 -0.085616514 2.0010643 88
0.15972684 -0.15092799 2.0032918 93
0.37631807 -0.34467283 2.0009167 82
0.52386147 -0.47949839 1.9854547 93
0.68737227 -0.62873703 1.9891212 90
0.86337602 -0.78973597 1.9840788 85
1.0627778 -0.97213757 1.9813027 78
1.3041412 -1.1929226 1.99433 47
1.4379016 -1.3083793 1.9902295 36
1.7384661 -1.5818753 1.9769365 42
2.1167018 -1.9267188 1.9612085 69
2.6318548 -2.3956399 1.9486914 61
3.2947073 -3.0000522 1.8886355 2
3.337553 -3.040132 1.4160954 74
3.3264716 -3.0300381 0.9457522 74
1.8992727 -1.7306269 0.32317567 7
1.5915226 -1.4522344 1.9994081 38
2.0050738 -1.8302352 2.0603013 15
2.3544283 -2.1491315 1.9581357 73
2.9702494 -2.7122068 1.9468503 55
3.3407395 -3.0515804 1.663034 82
3.3227932 -3.0362515 1.176319 77
3.3115377 -3.0270269 0.71717364 82
1.8801422 -1.7192107 0.19644618 9
0.022789378 -0.021529268 1.9991974 82
0.24247895 -0.22412218 2.0996087 96
0.3173109 -0.29193789 2.0964177 63
0.44745949 -0.41114047 1.9886441 88
0.60507315 -0.55578446 1.9951125 95
0.77141905 -0.70834541 1.9857829 79
0.96016449 -0.88166618 1.9871606 80
1.1820967 -1.085461 1.9973947 49
0.091244765 -0.08593554 2.0010643 89
0.15919903 -0.15148462 2.0032918 93
0.37511268 -0.34598434 2.0009167 82
0.52218461 -0.48132411 1.9854547 91
0.68517339 -0.63113266 1.9891212 92
0.86061406 -0.79274487 1.9840788 87
1.0593779 -0.9758414 1.9813027 78
1.299969 -1.1974676 1.99433 47
1.4306965 -1.3109814 1.986725 36
1.7329336 -1.5879343 1.9769365 60
2.1099634 -1.9340957 1.9612085 71
2.6234765 -2.4048119 1.9486914 68
3.2568798 -2.986469 1.8736513 3
3.3163147 -3.0420349 1.4118677 75
3.3050146 -3.0316694 0.9429543 76
1.8858814 -1.7305119 0.32228324 7
1.5864437 -1.4577811 1.9994081 38
1.9986728 -1.8372232 2.0603013 11
2.3469121 -2.157337 1.9581357 73
2.9607639 -2.7225583 1.9468503 39
3.3196402 -3.0536313 1.6581059 80
3.3014443 -3.0379577 1.1728021 77
3.2900205 -3.0285063 0.71510422 83
1.8667794 -1.718995 0.1960431 9
0.022714088 -0.021608688 1.9991974 82
0.24169514 -0.22496724 2.0996087 97
0.3162899 -0.29304373 2.0964177 63
0.44602162 -0.41269991 1.9886441 86
0.60169518 -0.55656648 1.99051 95
0.76894176 -0.71103382 1.9857829 79
0.95708108 -0.88501245 1.9871606 80
1.1783006 -1.0895809 1.9973947 49
0.090944238 -0.086253516 2.0010643 89
0.15866929 -0.15203939 2.0032918 93
0.37390265 -0.34729159 2.0009167 84
0.52050132 -0.4831439 1.9854547 91
0.68296611 -0.63352048 1.9891212 90
0.85784161 -0.79574412 1.9840788 87
1.0559651 -0.97953337 1.9813027 78
1.2957811 -1.201998 1.99433 47
1.4234906 -1.3135489 1.9832203 35
1.7273802 -1.5939736 1.9769365 69
2.1031992 -1.9414492 1.9612085 69
2.6150661 -2.4139552 1.9486914 68
3.253247 -3.0041094 1.8773972 3
3.29158 -3.0405715 1.4062309 74
3.283587 -3.0331879 0.94015646 77
1.8761717 -1.7337047 0.32183704 8
1.5813453 -1.4633099 1.9994081 39
1.9892814 -1.8414429 2.0573583 9
2.3393674 -2.1655159 1.9581357 72
2.9512424 -2.7328765 1.9468503 37
3.2985675 -3.0555732 1.6531779 80
3.2801244 -3.0395525 1.1692852 77
3.2685339 -3.0298724 0.71303481 84
1.8571047 -1.7221038 0.19584158 11
0.022638522 -0.021687843 1.9991974 82
0.24090838 -0.22580953 2.0996087 97
0.31526506 -0.294146 2.0964177 64
0.44457829 -0.41425431 1.9886441 88
0.59974879 -0.55866331 1.99051 93
0.76645511 -0.71371365 1.9857829 81
0.95398587 -0.88834786 1.9871606 82
1.1721438 -1.0915023 1.9935577 47
0.090642601 -0.086570442 2.0010643 89
0.1581376 -0.15259233 2.0032918 93
0.37268811 -0.34859464 2.0009167 84
0.51881164 -0.48495787 1.9854547 91
0.68075055 -0.63590062 1.9891212 90
0.85505873 -0.79873377 1.9840788 87
1.0525393 -0.98321348 1.9813027 78
1.2915776 -1.2065139 1.99433 47
1.4188969 -1.3185098 1.9832203 35
1.718954 -1.5973436 1.9737986 73
2.0964096 -1.948779 1.9612085 69
2.6066239 -2.4230688 1.9486914 68
3.2393463 -3.0122905 1.8755243 3
3.2704086 -3.0422404 1.4020034 75
3.2621891 -3.0345941 0.93735862 76
1.8628173 -1.733458 0.32094461 7
1.5734956 -1.4662747 1.9960833 38
1.9828414 -1.8483756 2.0573583 8
2.331794 -2.1736689 1.9581357 72
2.9416847 -2.7431619 1.9468503 37
3.2775221 -3.0574048 1.6482499 81
3.2588329 -3.0410349 1.1657681 77
3.2470777 -3.0311253 0.71096528 86
1.8474305 -1.7251661 0.19564006 12
0.022562679 -0.021766733 1.9991974 82
0.2401187 -0.22664906 2.0996087 97
0.3142364 -0.29524472 2.0964177 64
0.4431296 -0.41580364 1.9886441 88
0.59779507 -0.56075346 1.99051 93
0.76395905 -0.71638465 1.9857829 81
0.95087922 -0.89167243 1.9871606 78
1.1683266 -1.0955871 1.9935577 47
0.090339869 -0.086886317 2.0010643 89
0.15760401 -0.15314341 2.0032918 95
0.37146902 -0.34989342 2.0009167 82
0.51711559 -0.48676592 1.9854547 93
0.6785267 -0.63827306 1.9891212 92
0.85226542 -0.80171359 1.9840788 87
1.049101 -0.98688149 1.9813027 78
1.2873582 -1.211015 1.99433 49
1.4116819 -1.321018 1.9797159 37
1.7133677 -1.6033341 1.9737986 73
2.0865414 -1.953227 1.9584669 69
2.5981498 -2.4321527 1.9486914 67
3.2288117 -3.0235798 1.8755243 10
3.2457654 -3.0405192 1.3963666 71
3.2408218 -3.0358882 0.93456078 77
1.853121 -1.7365446 0.32049838 7
1.5683678 -1.4717585 1.9960833 38
1.9763774 -1.8552856 2.0573583 8
2.3241923 -2.1817951 1.9581357 72
2.9320915 -2.7534134 1.9468503 39
3.2565036 -3.0591266 1.6433216 81
3.2375722 -3.0424063 1.1622512 77
3.225652 -3.0322654 0.70889586 87
1.8377577 -1.728182 0.19543852 10
0.02248656 -0.021845359 1.9991974 86
0.23932607 -0.22748587 2.0996087 96
0.3132039 -0.29633981 2.0964177 61
0.44276094 -0.41837373 1.9934158 88
0.59583396 -0.56283671 1.99051 93
0.76145381 -0.71904707 1.9857829 83
0.94776088 -0.89498621 1.9871606 78
1.1644951 -1.0996587 1.9935577 47
0.089828357 -0.086999327 1.9960728 89
0.15706845 -0.15369262 2.0032918 95
0.3702454 -0.35118797 2.0009167 82
0.51541334 -0.48856804 1.9854547 93
0.67629457 -0.64063758 1.9891212 90
0.84946173 -0.80468369 1.9840788 85
1.0456498 -0.99053752 1.9813027 80
1.283123 -1.2155014 1.99433 47
1.4070622 -1.3259375 1.9797159 39
1.7077606 -1.609305 1.9737986 71
2.079711 -1.9604986 1.9584669 67
2.5896442 -2.4412069 1.9486914 68
3.214865 -3.0316513 1.8736513 25
3.2246635 -3.0419548 1.3921391 68
3.219485 -3.0370696 0.93176287 77
1.8434261 -1.7395848 0.32005218 8
1.5632209 -1.4772241 1.9960833 39
1.969889 -1.8621732 2.0573583 8
2.3165622 -2.1898947 1.9581357 72
2.9224625 -2.7636316 1.9468503 55
3.2320826 -3.0574939 1.6367509 79
3.2163413 -3.0436666 1.1587343 77
3.2042589 -3.033293 0.70682645 87
1.8317142 -1.7345864 0.19543852 7
0.022410169 -0.021923719 1.9991974 82
0.23853055 -0.22831988 2.0996087 96
0.31216756 -0.29743126 2.0964177 59
0.44129789 -0.41991666 1.9934158 88
0.59386569 -0.56491321 1.99051 93
0.75893921 -0.72170061 1.9857829 83
0.94463098 -0.89828908 1.9871606 84
1.1606495 -1.103717 1.9935577 42
0.089524128 -0.087312363 1.9960728 89
0.15653102 -0.15423994 2.0032918 95
0.36901727 -0.35247824 2.0009167 84
0.51370478 -0.49036416 1.9854547 91
0.67405427 -0.6429944 1.9891212 92
0.84664768 -0.80764395 1.9840788 87
1.0421858 -0.99418151 1.9813027 80
1.2788724 -1.219973 1.99433 45
1.405012 -1.3332958 1.9832203 58
1.7021327 -1.6152565 1.9737986 71
2.0728548 -1.9677461 1.9584669 67
2.577894 -2.4471817 1.9463733 68
3.2009013 -3.0396626 1.8717781 29
3.2035904 -3.0432801 1.3879114 68
3.1981797 -3.0381401 0.92896503 78
1.8337326 -1.7425783 0.31960598 11
1.5580549 -1.4826717 1.9960833 39
1.9516664 -1.8578901 2.0455854 8
2.3057816 -2.1949952 1.9556034 72
2.9127977 -2.7738161 1.9468503 62
3.2077131 -3.055728 1.6301801 78
3.1951406 -3.0448151 1.1552173 78
3.1828978 -3.0342085 0.70475692 87
1.8220326 -1.7375216 0.19523698 6
0.022333505 -0.022001812 1.9991974 82
0.23717278 -0.22861172 2.0946693 96
0.31112742 -0.29851913 2.0964177 59
0.43982938 -0.42145455 1.9934158 89
0.59189022 -0.56698269 1.99051 93
0.75641537 -0.72434545 1.9857829 83
0.94148964 -0.90158099 1.9871606 82
1.1567898 -1.1077616 1.9935577 42
0.08921881 -0.087624326 1.9960728 91
0.15599167 -0.15478539 2.0032918 93
0.36778462 -0.35376421 2.0009167 84
0.51198995 -0.49215433 1.9854547 91
0.67180562 -0.64534336 1.9891212 93
0.84382331 -0.81059438 1.9840788 87
1.0408825 -0.99990124 1.9852921 76
1.2746061 -1.2244295 1.99433 47
1.4003494 -1.3381922 1.9832203 67
1.6964841 -1.6211882 1.9737986 73
2.0659733 -1.9749699 1.9584669 69
2.5693359 -2.4561653 1.9463733 67
3.1869204 -3.0476127 1.8699051 41
3.1790817 -3.0411792 1.3822746 70
3.1769066 -3.0390983 0.92616719 77
1.8276386 -1.7489686 0.31960598 9
1.5528698 -1.4881014 1.9960833 38
1.9159908 -1.8367201 2.0161538 10
2.2981055 -2.2030303 1.9556034 72
2.9030974 -2.7839668 1.9468503 64
3.1833959 -3.0538299 1.6236094 80
3.1739714 -3.0458529 1.1517003 78
3.1615698 -3.0350122 0.7026875 88
1.812353 -1.7404108 0.19503546 5
0.022256568 -0.022079635 1.9991974 80
0.23637332 -0.22943822 2.0946693 96
0.31008351 -0.29960334 2.0964177 59
