# .PCD v0.7 - Point Cloud Data file format
VERSION 0.7
FIELDS x y z intensity
SIZE 4 4 4 4
TYPE F F F F
COUNT 1 1 1 1
WIDTH 1317
HEIGHT 1
VIEWPOINT 0 0 0 1 0 0 0
POINTS 1317
DATA ascii
-0.50625092 0.91934049 0.57262599 40
-0.5080952 0.92307103 0.45566064 37
-0.50852871 0.92424035 0.34514591 29
-0.50349104 0.91546279 0.23775169 37
-0.51252884 0.9322809 0.13659149 46
-0.014634901 0.027675822 1.9941976 69
-0.14788491 0.27244058 1.9711881 93
-0.19876133 0.36417627 2.0180943 95
-0.29504466 0.53975606 2.0125027 84
-0.39980897 0.73113698 2.0227277 95
-0.47618487 0.87046367 1.8848437 58
-0.48515496 0.88686681 1.5573338 47
-0.49172595 0.8988843 1.3029076 47
-0.058624715 0.11045887 1.9960728 89
-0.10202327 0.194636 2.0032918 95
-0.24571769 0.45155615 2.0154345 64
-0.34459859 0.63278353 2.0136113 91
-0.45413467 0.83325553 2.0251279 93
-0.48381218 0.88771588 1.7238568 51
-0.485899 0.89155036 1.4187834 56
-0.49050739 0.9000116 1.1894691 60
-0.49580228 0.90408617 1.0930656 53
-0.49750566 0.90719759 0.91636765 56
-0.49952072 0.91124928 0.76592922 50
-0.4968735 0.90642542 0.62741613 42
-0.50162917 0.9154802 0.51008332 38
-0.50715798 0.92595363 0.40006539 34
-0.50498152 0.9219799 0.29105285 15
-0.50690722 0.92587948 0.18752787 46
-0.49781317 0.91077238 1.0052785 60
-0.49543577 0.90679872 0.83594644 56
-0.49902484 0.91337323 0.69698745 53
-0.50086343 0.91711897 0.57052791 40
-0.50260723 0.92069393 0.45401797 37
-0.50529939 0.92600989 0.34514591 28
-0.49792108 0.91286713 0.23706186 37
-0.50927144 0.93406433 0.13659149 40
-0.014538204 0.02772674 1.9941976 69
-0.14693302 0.27295515 1.9711881 95
-0.1974889 0.36486787 2.0180943 95
-0.29315874 0.54078269 2.0125027 84
-0.39818567 0.73424542 2.0273302 95
-0.47314346 0.87212056 1.8848437 58
-0.48205629 0.88855493 1.5573338 42
-0.48858529 0.90059525 1.3029076 49
-0.058238786 0.11066283 1.9960728 89
-0.10134325 0.19499093 2.0032918 95
-0.24413997 0.45241109 2.0154345 62
-0.34238768 0.63398254 2.0136113 91
-0.45122331 0.83483565 2.0251279 93
-0.47947046 0.88710487 1.7195909 48
-0.48278394 0.89324105 1.4187834 52
-0.48736277 0.90171832 1.1894691 58
-0.49264342 0.90581125 1.0930656 51
-0.49247608 0.90550894 0.91322988 56
-0.4943397 0.9093138 0.76318777 50
-0.49370646 0.90815431 0.62741613 40
-0.49843052 0.91722554 0.51008332 38
-0.50392264 0.92771828 0.40006539 34
-0.49707076 0.91510391 0.28918761 14
-0.50367224 0.92764324 0.18752787 43
-0.49463093 0.91250449 1.0052785 60
-0.49226743 0.90852261 0.83594644 54
-0.49583355 0.91510963 0.69698745 51
-0.49765906 0.91886169 0.57052791 40
-0.49939033 0.92244273 0.45401797 37
-0.50206393 0.92776805 0.34514591 28
-0.4923754 0.91024387 0.23637205 35
-0.50600785 0.93583632 0.13659149 39
-0.014441332 0.027777318 1.9941976 69
-0.14597934 0.27346638 1.9711881 92
-0.19621409 0.36555499 2.0180943 95
-0.2912693 0.5418027 2.0125027 84
-0.39562026 0.73563093 2.0273302 95
-0.47009632 0.8737669 1.8848437 61
-0.47761846 0.88775408 1.553201 42
-0.48543862 0.90229535 1.3029076 49
-0.057852149 0.11086544 1.9960728 89
-0.10066199 0.19534351 2.0032918 93
-0.24255927 0.45326054 2.0154345 62
-0.34017253 0.63517386 2.0136113 91
-0.44830644 0.83640563 2.0251279 93
-0.47513896 0.88647449 1.715325 51
-0.47823918 0.89226425 1.414794 54
-0.4826107 0.90042591 1.1857939 58
-0.48778564 0.90438664 1.0895611 53
-0.48931223 0.90722251 0.91322988 53
-0.49116257 0.91103381 0.76318777 50
-0.48843107 0.90597254 0.62509811 40
-0.49302649 0.91487885 0.5082103 38
-0.49840614 0.92524815 0.39865619 35
-0.49154383 0.91250879 0.28825498 14
-0.50043106 0.92939579 0.18752787 39
-0.48967457 0.9109363 1.0019536 60
-0.48717988 0.9066748 0.83300328 54
-0.49059558 0.91303712 0.69445503 51
-0.49444857 0.92059326 0.57052791 40
-0.49616736 0.92418033 0.45401797 37
-0.49652398 0.92523199 0.34397361 26
-0.4868542 0.90759319 0.23568225 37
-0.50273806 0.93759692 0.13659149 38
-0.014344282 0.027827559 1.9941976 71
-0.14502387 0.27397427 1.9711881 93
-0.19493687 0.36623767 2.0180943 95
-0.29007882 0.54413402 2.0172744 86
-0.39305001 0.73700738 2.0273302 95
-0.46704343 0.87540251 1.8848437 61
-0.47451669 0.88941586 1.553201 47
-0.48077706 0.90115577 1.2990707 45
-0.057464797 0.11106671 1.9960728 89
-0.099979497 0.19569369 2.0032918 93
-0.24097562 0.45410451 2.0154345 62
-0.33795333 0.63635743 2.0136113 91
-0.44538409 0.83796543 2.0251279 95
-0.47204167 0.88812757 1.715325 51
-0.47512168 0.89392823 1.414794 54
-0.47946468 0.90210509 1.1857939 56
-0.48294377 0.90293908 1.0860566 53
-0.48614243 0.908925 0.91322988 55
-0.4879795 0.91274273 0.76318777 50
-0.48526567 0.90767205 0.62509811 40
-0.48982999 0.91659421 0.5082103 38
-0.49517339 0.92698228 0.39865619 35
-0.4860411 0.90988618 0.28732237 14
-0.49483815 0.92674381 0.18708165 39
-0.48649186 0.91263998 1.0019536 60
-0.48401207 0.9083699 0.83300328 54
-0.48740551 0.91474414 0.69445503 50
-0.4912321 0.92231357 0.57052791 40
-0.49293834 0.92590666 0.45401797 37
-0.49329129 0.92695957 0.34397361 26
-0.48368314 0.9092871 0.23568225 34
-0.49711674 0.93493491 0.13638996 37
-0.014251925 0.027874973 1.9941976 71
-0.14411452 0.2744537 1.9711881 93
-0.19372131 0.36688209 2.0180943 95
-0.2882728 0.545093 2.0172744 88
-0.39060387 0.73830676 2.0273302 95
-0.46413791 0.87694639 1.8848437 62
-0.47024834 0.88849735 1.549068 45
-0.47778606 0.90274507 1.2990707 45
-0.057115592 0.11124669 1.9960728 89
-0.099364214 0.19600682 2.0032918 93
-0.23954782 0.45485929 2.0154345 62
-0.33595249 0.63741601 2.0136113 91
-0.4426029 0.83943772 2.0251279 93
-0.46787763 0.88738102 1.7110591 51
-0.47074908 0.89283282 1.4108044 54
-0.4766283 0.90360695 1.1857939 56
-0.47994688 0.90453565 1.0860566 53
-0.48130107 0.90709329 0.91009212 53
-0.48299083 0.91066176 0.76044625 50
-0.48017728 0.90536237 0.62278008 40
-0.48477587 0.914033 0.50633723 38
-0.49225876 0.92853338 0.39865619 32
-0.480721 0.90715247 0.28638974 14
-0.49176222 0.92837971 0.18708165 39
-0.48346272 0.91424829 1.0019536 60
-0.47910824 0.90639639 0.83006012 54
-0.48452935 0.91627085 0.69445503 50
-0.48621127 0.9198398 0.56842989 40
-0.48782104 0.92327523 0.45237529 36
-0.49037671 0.92850465 0.34397361 26
-0.47851223 0.90642273 0.23499241 39
-0.4941771 0.93649203 0.13638996 36
-0.014154537 0.027924551 1.9941976 69
-0.14315563 0.27495506 1.9711881 93
-0.19243947 0.3675561 2.0180943 96
-0.28636834 0.54609591 2.0172744 86
-0.38802427 0.73966575 2.0273302 95
-0.46107399 0.8785612 1.8848437 60
-0.46583638 0.88764167 1.544935 44
-0.47314224 0.90156865 1.2952337 49
-0.056707468 0.11145529 1.9960728 89
-0.09888421 0.19684711 2.0082631 93
-0.23787907 0.45573422 2.0154345 64
-0.33361399 0.63864303 2.0136113 91
-0.43952319 0.84105438 2.0251279 95
-0.46462205 0.88909 1.7110591 51
-0.46747354 0.89455223 1.4108044 54
-0.47315517 0.90543044 1.1857939 58
-0.47512606 0.90304929 1.0825521 53
-0.4781318 0.90876776 0.91009212 53
-0.47980911 0.91234213 0.76044625 50
-0.47701403 0.90703297 0.62278008 40
-0.48142251 0.91580361 0.50633723 38
-0.48885217 0.93033129 0.39865619 32
-0.47739291 0.90890831 0.28638974 14
-0.48835626 0.93017584 0.18708165 37
-0.47837505 0.91270649 0.9986288 60
-0.4757829 0.90814632 0.83006012 52
-0.47900689 0.91430563 0.69192261 50
-0.48267573 0.92169994 0.56842989 40
-0.4842723 0.92514157 0.45237529 36
-0.48680794 0.93038076 0.34397361 25
-0.47518679 0.90817046 0.23499241 35
-0.488426 0.93386996 0.13618843 36
-0.014052092 0.027976241 1.9941976 69
-0.14250304 0.27616847 1.9761273 95
-0.19109102 0.36825895 2.0180943 95
-0.28367615 0.5458166 2.0125027 86
-0.38531065 0.74108297 2.0273302 95
-0.45785081 0.88024527 1.8848437 56
-0.46257991 0.88934308 1.544935 46
-0.46983466 0.90329677 1.2952337 49
-0.05629858 0.11166238 1.9960728 89
-0.09816207 0.19720821 2.0082631 95
-0.23620714 0.45660302 2.0154345 64
-0.33127099 0.63986146 2.0136113 91
-0.43643764 0.84265965 2.0251279 95
-0.46016085 0.88847107 1.7067931 51
-0.4628056 0.89358324 1.4068149 54
-0.46827438 0.90414822 1.1821188 58
-0.47181302 0.90478468 1.0825521 47
-0.47299781 0.90706235 0.90695435 53
-0.47452927 0.91038674 0.75770473 50
-0.47368637 0.90877521 0.62278008 40
-0.47592068 0.91345072 0.50446421 38
-0.48543909 0.93211681 0.39865619 33
-0.47179016 0.9062947 0.28545713 14
-0.48264498 0.92754185 0.18663543 37
-0.47502658 0.91445369 0.9986288 60
-0.47245118 0.90988404 0.83006012 54
-0.47565258 0.91605514 0.69192261 51
-0.47720355 0.91943455 0.5663318 40
-0.48087823 0.92691034 0.45237529 36
-0.48339462 0.93215877 0.34397361 25
-0.46957523 0.90550983 0.23430261 35
-0.4849999 0.93565392 0.13618843 34
-0.013954351 0.028025124 1.9941976 73
-0.14153816 0.27666423 1.9761273 91
-0.18980439 0.36892372 2.0180943 95
-0.28176916 0.54680353 2.0125027 84
-0.38182634 0.74068689 2.0227277 95
-0.4536773 0.87970871 1.8804549 53
-0.45818293 0.8884514 1.5408021 44
-0.46520928 0.90208197 1.2913967 49
-0.055908464 0.11185823 1.9960728 89
-0.097473085 0.19754966 2.0082631 95
-0.23461185 0.45742476 2.0154345 66
-0.32903543 0.64101392 2.0136113 91
-0.43364087 0.84410226 2.0251279 95
-0.45602033 0.88767231 1.7025272 51
-0.4584626 0.89243209 1.4028255 56
-0.46527353 0.90569609 1.1821188 60
-0.46865186 0.90642613 1.0825521 47
-0.46982872 0.90870792 0.90695435 53
-0.47134852 0.91203761 0.75770473 50
-0.47051126 0.9104231 0.62278008 42
-0.47272924 0.91510642 0.50446421 38
-0.47998145 0.92954308 0.39724702 34
-0.46878219 0.9078542 0.28545713 14
-0.47956648 0.92913729 0.18663543 37
-0.47028112 0.91270447 0.99530393 58
-0.46758065 0.90785247 0.82711697 54
-0.47063819 0.91379476 0.68939018 50
-0.47415197 0.92101192 0.5663318 40
-0.47564095 0.92430061 0.45073256 36
-0.48030084 0.93375665 0.34397361 24
-0.46641156 0.90714341 0.23430261 35
-0.47944731 0.93289769 0.13598689 35
-0.01386134 0.028071243 1.9941976 73
-0.14061993 0.27713206 1.9761273 93
-0.18857995 0.36955112 2.0180943 96
-0.27995434 0.54773486 2.0125027 84
-0.37936807 0.74194908 2.0227277 93
-0.45075756 0.8812083 1.8804549 48
-0.45523423 0.88996583 1.5408021 46
-0.46075538 0.90076542 1.2875599 49
-0.055556774 0.11203332 1.9960728 89
-0.096617848 0.19737506 2.0032918 95
-0.23317365 0.45815954 2.0154345 66
-0.32702002 0.64204448 2.0136113 91
-0.43083933 0.84553564 2.0251279 95
-0.45189017 0.8868559 1.6982613 48
-0.45550066 0.89394754 1.4028255 54
-0.46088627 0.90413296 1.1784436 61
-0.46401614 0.90480202 1.0790476 53
-0.46503639 0.90679705 0.90381652 53
-0.4683215 0.91359562 0.75770473 52
-0.4654687 0.90803599 0.62046206 42
-0.46773726 0.91246152 0.50259119 38
-0.47705883 0.93104643 0.39724702 33
-0.46352977 0.90503156 0.2845245 14
-0.4742133 0.92628956 0.18618923 38
-0.4672519 0.9142589 0.99530393 58
-0.46456751 0.90939802 0.82711697 54
-0.46776512 0.91526872 0.68939018 48
-0.46919152 0.91845536 0.56423378 39
-0.47273487 0.92579037 0.45073256 36
-0.47736499 0.93526089 0.34397361 24
-0.46355936 0.9086042 0.23430261 35
-0.4765141 0.93439931 0.13598689 35
-0.01375836 0.028121859 1.9941976 71
-0.13995214 0.27833983 1.9810666 95
-0.18722421 0.37023982 2.0180943 95
-0.27794492 0.54875731 2.0125027 86
-0.37664613 0.74333447 2.0227277 93
-0.44752476 0.88285452 1.8804549 46
-0.45069697 0.88911843 1.5366691 46
-0.45745081 0.90244818 1.2875599 49
-0.055253405 0.11250594 2.0010643 89
-0.095859267 0.19774459 2.0032918 95
-0.23141272 0.45905149 2.0154345 67
-0.32455233 0.64329541 2.0136113 91
-0.42758954 0.8471837 2.0251279 95
-0.44848156 0.88858449 1.6982613 48
-0.45070681 0.89299929 1.3988359 56
-0.45572561 0.90294909 1.1747683 60
-0.46069679 0.90649664 1.0790476 53
-0.46170968 0.90849537 0.90381652 55
-0.46307606 0.91157794 0.75496328 50
-0.46213746 0.90973592 0.62046206 40
-0.46423024 0.91425079 0.50259119 38
-0.47130916 0.9285934 0.39583781 34
-0.4600513 0.90680474 0.2845245 14
-0.47065312 0.92810351 0.18618923 37
-0.46205133 0.91271454 0.99197906 58
-0.46107224 0.91117507 0.82711697 56
-0.46214065 0.91329223 0.68685776 48
-0.4655008 0.92033136 0.56423378 39
-0.46688393 0.92346609 0.44908988 36
-0.47141445 0.93283147 0.3428013 24
-0.45783356 0.90595758 0.23361278 36
-0.47067025 0.93176275 0.13578537 32
-0.013683524 0.028206848 1.9991974 73
-0.13902836 0.27880242 1.9810666 95
-0.18599543 0.37085864 2.0180943 95
-0.27612364 0.54967594 2.0125027 86
-0.37417907 0.74457937 2.0227277 93
-0.44351861 0.88219327 1.8760663 44
-0.44648212 0.88809383 1.5325361 46
-0.45301571 0.90109581 1.2837229 49
-0.054899681 0.11267896 2.0010643 89
-0.095237568 0.19804476 2.0032918 95
-0.22996944 0.45977622 2.0154345 67
-0.32252976 0.64431185 2.0136113 91
-0.42395085 0.84657556 2.020627 92
-0.44452003 0.88765699 1.6939954 48
-0.44789916 0.89441085 1.3988359 56
-0.4530445 0.90429735 1.1747683 58
-0.456083 0.90483475 1.0755429 51
-0.45694226 0.90654522 0.90067875 53
-0.46005061 0.91310853 0.75496328 47
-0.45911816 0.91126341 0.62046206 40
-0.46135575 0.91570467 0.50259119 38
-0.46623176 0.92578483 0.39442861 35
-0.45499155 0.90385789 0.2835919 14
-0.46773505 0.92957753 0.18618923 38
-0.4591817 0.91416162 0.99197906 58
-0.45639381 0.90900677 0.82417381 54
-0.45942885 0.91465938 0.68685776 46
-0.46073169 0.91765249 0.5621357 39
-0.46414191 0.9248473 0.44908988 36
-0.46864462 0.9342261 0.3428013 24
-0.45498514 0.90739149 0.23361278 38
-0.46774068 0.93323684 0.13578537 31
-0.013580049 0.028256811 1.9991974 73
-0.13834958 0.28000683 1.9860058 95
-0.18463491 0.37153783 2.0180943 95
-0.27410713 0.55068427 2.0125027 84
-0.3723183 0.74769467 2.0273302 95
-0.44028223 0.88381296 1.8760663 44
-0.4432241 0.88972437 1.5325361 44
-0.44828051 0.89988059 1.279886 50
-0.054466624 0.11288893 2.0010643 89
-0.094476424 0.19840899 2.0032918 95
-0.22820233 0.46065587 2.0154345 67
-0.32005343 0.64554554 2.0136113 91
-0.42069709 0.84819716 2.020627 90
-0.44110841 0.88935733 1.6939954 48
-0.44312245 0.89342386 1.3948464 56
-0.44790447 0.90307152 1.1710931 58
-0.45276359 0.90650034 1.0755429 51
-0.45361656 0.90821391 0.90067875 51
-0.4567008 0.91478854 0.75496328 47
-0.45577511 0.91294008 0.62046206 40
-0.45783627 0.91746938 0.50259119 38
-0.4626736 0.9275682 0.39442861 36
-0.45151764 0.90559822 0.2835919 14
-0.46416232 0.93136668 0.18618923 37
-0.45400485 0.91257453 0.98865426 58
-0.45290011 0.91075253 0.82417381 54
-0.45575348 0.91649628 0.68685776 48
-0.4570443 0.91949457 0.5621357 39
-0.46042562 0.92670298 0.44908988 36
-0.46489063 0.93609983 0.3428013 24
-0.4514977 0.90913177 0.23361278 36
-0.46415389 0.93502599 0.13578537 32
-0.013486272 0.02830169 1.9991974 73
-0.13742028 0.28046405 1.9860058 95
-0.18340182 0.3721481 2.0180943 95
-0.2722795 0.55159026 2.0125027 84
-0.36983684 0.74892521 2.0273302 95
-0.43628782 0.88312012 1.8716776 44
-0.43902487 0.88866633 1.5284033 44
-0.44529396 0.90136224 1.279886 50
-0.054111704 0.11305948 2.0010643 89
-0.093852647 0.19870481 2.0032918 93
-0.22675402 0.4613705 2.0154345 69
-0.31878543 0.64809632 2.0183041 91
-0.41803035 0.84951466 2.020627 88
-0.43716076 0.88839871 1.6897295 48
-0.44031346 0.89481163 1.3948464 56
-0.44522303 0.90439653 1.1710931 60
-0.44975501 0.90799671 1.0755429 51
-0.45060229 0.90971315 0.90067875 53
-0.4518095 0.91255075 0.75222182 49
-0.45077953 0.91047627 0.61814404 39
-0.45289472 0.91474855 0.50071812 38
-0.45762944 0.92471755 0.39301944 36
-0.44649234 0.90260929 0.28265926 14
-0.46123406 0.93282026 0.18618923 37
-0.45113569 0.91399634 0.98865426 56
-0.45003667 0.91217083 0.82417381 54
-0.45112401 0.91397858 0.68432534 48
-0.45230603 0.91677648 0.56003767 39
-0.45558533 0.92382962 0.44744721 36
-0.46211112 0.93747509 0.3428013 23
-0.44645059 0.90610343 0.23292297 41
-0.4612141 0.93647951 0.13578537 38
-0.013387398 0.028348591 1.9991974 73
-0.13677971 0.28164107 1.9909451 95
-0.18210167 0.37278599 2.0180943 95
-0.27035242 0.55253732 2.0125027 84
-0.36722034 0.75021154 2.0273302 95
-0.43320251 0.88463765 1.8716776 42
-0.43592015 0.8901934 1.5284033 46
-0.44073495 0.90003181 1.276049 50
-0.053696953 0.11325706 2.0010643 89
-0.093123719 0.19904746 2.0032918 93
-0.22506149 0.4621985 2.0154345 73
-0.31640789 0.64926034 2.0183041 93
-0.41506243 0.85096866 2.020627 90
-0.43405703 0.88991922 1.6897295 48
-0.43586609 0.8936342 1.390857 56
-0.44041914 0.9029752 1.167418 60
-0.44501102 0.90635991 1.0720384 53
-0.44742408 0.91128051 0.90067875 53
-0.44862136 0.91412228 0.75222182 50
-0.44759864 0.91204417 0.61814404 39
-0.44953895 0.91640222 0.50071812 38
-0.4542371 0.92638862 0.39301944 34
-0.44333893 0.90416235 0.28265926 13
-0.45797509 0.93442452 0.18618923 35
-0.44794244 0.91556555 0.98865426 56
-0.44507414 0.91010511 0.82123065 56
-0.44777113 0.91562587 0.68432534 48
-0.44894281 0.91842806 0.56003767 39
-0.45219627 0.92549318 0.44744721 36
-0.45867202 0.93916249 0.3428013 19
-0.44312656 0.90773368 0.23292297 34
-0.45558786 0.9336738 0.13558383 39
-0.013288362 0.02839515 1.9991974 75
-0.13579577 0.2821168 1.9909451 95
-0.18079931 0.37341937 2.0180943 95
-0.26842207 0.55347764 2.0125027 86
-0.36459938 0.75148886 2.0273302 95
-0.42906579 0.88398916 1.8672891 42
-0.43158141 0.88917804 1.5242703 46
-0.43759054 0.90156478 1.276049 52
-0.053301286 0.11344381 2.0010643 89
-0.092428342 0.19937132 2.0032918 93
-0.22344674 0.46298128 2.0154345 80
-0.31413963 0.65036094 2.0183041 93
-0.41208947 0.85241234 2.020627 88
-0.42981285 0.88908082 1.6854634 48
-0.43274406 0.89515018 1.390857 56
-0.43726444 0.90450704 1.167418 58
-0.44184455 0.90790778 1.0720384 53
-0.44253692 0.90933645 0.89754099 51
-0.44542775 0.91568273 0.75222182 52
-0.44441226 0.9136011 0.61814404 40
-0.44431022 0.91379666 0.49884507 37
-0.45100063 0.92796856 0.39301944 35
-0.44018012 0.90570438 0.28265926 14
-0.45471054 0.93601751 0.18618923 36
-0.44311437 0.91376334 0.98532933 58
-0.44189459 0.91165322 0.82123065 54
-0.44457224 0.91718334 0.68432534 48
-0.44375539 0.9159053 0.55793959 39
-0.44896293 0.92706597 0.44744721 36
-0.45539093 0.94075781 0.3428013 22
-0.43779835 0.90481716 0.23223317 35
-0.45232597 0.93525845 0.13558383 41
-0.013189163 0.028441362 1.9991974 73
-0.13514456 0.28329048 1.9958843 96
-0.17949471 0.37404823 2.0180943 95
-0.26648843 0.55441129 2.0125027 86
-0.36112738 0.75099635 2.0227277 95
-0.42493892 0.88332248 1.8629003 44
-0.42847496 0.89067912 1.5242703 48
-0.43444085 0.90308678 1.276049 52
-0.052904971 0.11362916 2.0010643 89
-0.091731846 0.19969273 2.0032918 95
-0.22182927 0.46375847 2.0154345 88
-0.31186754 0.65145344 2.0183041 91
-0.40911147 0.85384554 2.020627 88
-0.42557991 0.88822377 1.6811975 48
-0.42961675 0.89665532 1.390857 56
-0.43410447 0.90602779 1.167418 58
-0.43712333 0.90623242 1.0685339 51
-0.43936005 0.91087562 0.89754099 51
-0.44041273 0.91346538 0.74948037 52
-0.43929651 0.91115612 0.61582601 40
-0.44111773 0.91534203 0.49884507 37
-0.4456768 0.9252153 0.39161023 35
-0.43488416 0.90280986 0.28172666 14
-0.44928002 0.93311197 0.18574302 34
-0.43992203 0.91530454 0.98532933 58
-0.43870965 0.91319013 0.82123065 54
-0.43950111 0.91484356 0.68179291 48
-0.44055554 0.9174487 0.55793959 39
-0.4457241 0.92862755 0.44744721 36
-0.45210427 0.94234174 0.3428013 20
-0.43463731 0.90633982 0.23223317 41
-0.44689909 0.9323265 0.13538231 46
-0.013089804 0.028487228 1.9991974 73
-0.13415486 0.28376049 1.9958843 96
-0.17818795 0.37467253 2.0180943 95
-0.26455155 0.55533808 2.0125027 84
-0.3585037 0.75225234 2.0227277 93
-0.42185292 0.88480043 1.8629003 42
-0.42415228 0.88962919 1.5201373 48
-0.43128586 0.9045977 1.276049 52
-0.052508011 0.11381315 2.0010643 89
-0.091034226 0.20001173 2.0032918 93
-0.22074784 0.46566659 2.0202737 96
-0.30885199 0.65097904 2.0136113 91
-0.40612853 0.85526848 2.020627 85
-0.42247683 0.88970393 1.6811975 46
-0.42519146 0.89542699 1.3868674 56
-0.42948505 0.90447521 1.1637428 56
-0.43395731 0.90775281 1.0685339 51
-0.43617782 0.9124037 0.89754099 51
-0.43722144 0.91499716 0.74948037 49
-0.4361133 0.91268402 0.61582601 42
-0.43791991 0.91687626 0.49884507 37
-0.4424445 0.92676532 0.39161023 35
-0.43173012 0.90432233 0.28172666 13
-0.44602013 0.93467456 0.18574302 34
-0.43511844 0.91346318 0.98200446 56
-0.43551931 0.91471595 0.82123065 54
-0.43630499 0.91637206 0.68179291 48
-0.43735036 0.91898096 0.55793959 39
-0.44045132 0.92591327 0.44580451 36
-0.44672495 0.93952447 0.34162897 22
-0.43147093 0.90785146 0.23223317 41
-0.44149822 0.92936814 0.13518077 46
-0.012990285 0.028532747 1.9991974 73
-0.13349302 0.28493074 2.0008237 97
-0.17687902 0.37529221 2.0180943 95
-0.26261142 0.5562582 2.0125027 86
-0.35587564 0.75349915 2.0227277 93
-0.41773838 0.88410151 1.8585117 42
-0.42104429 0.89110434 1.5201373 40
-0.42675602 0.90319908 1.272212 49
-0.052110404 0.11399574 2.0010643 88
-0.090335503 0.20032828 2.0032918 93
-0.21912101 0.4664343 2.0202737 96
-0.30657774 0.65205312 2.0136113 91
-0.4031406 0.85668087 2.020627 81
-0.41825816 0.88881338 1.6769315 48
-0.42206326 0.89690566 1.3868674 56
-0.4263252 0.90596884 1.1637428 58
-0.42925912 0.90603918 1.0650294 53
-0.43132356 0.91040266 0.89440322 49
-0.43223521 0.91273868 0.74673891 50
-0.43292475 0.91420072 0.61582601 40
-0.43273336 0.91420901 0.49697202 37
-0.43715513 0.9239676 0.39020103 35
-0.42857081 0.90582383 0.28172666 14
-0.44062579 0.93172389 0.1852968 35
-0.4319272 0.91497648 0.98200446 56
-0.43059888 0.91257513 0.81828749 54
-0.43310362 0.91788954 0.68179291 48
-0.43220386 0.91639704 0.55584157 39
-0.43721664 0.92744511 0.44580451 36
-0.44344267 0.94107807 0.34162897 22
-0.42618918 0.90487194 0.23154333 41
-0.43825141 0.93090361 0.13518077 48
-0.012890607 0.028577916 1.9991974 73
-0.13249759 0.28539494 2.0008237 97
-0.17556792 0.37590733 2.0180943 95
-0.26130098 0.55852431 2.0172744 86
-0.35324329 0.75473678 2.0227277 93
-0.41363385 0.88338459 1.854123 42
-0.41673794 0.89002013 1.5160043 40
-0.42360067 0.90468323 1.272212 50
-0.05171217 0.11417694 2.0010643 88
-0.089635678 0.20064238 2.0032918 95
-0.21749152 0.46719632 2.0202737 96
-0.30429977 0.65311933 2.0136113 91
-0.40014777 0.85808295 2.020627 81
-0.41515306 0.89026797 1.6769315 48
-0.41765615 0.89564186 1.3828779 56
-0.4231602 0.90745157 1.1637428 60
-0.42609385 0.90753204 1.0650294 51
-0.42814302 0.91190267 0.89440322 51
-0.42904654 0.91424185 0.74673891 50
-0.42973098 0.91570634 0.61582601 40
-0.42953956 0.91571403 0.49697202 38
-0.43392718 0.92548794 0.39020103 35
-0.42540628 0.9073143 0.28172666 14
-0.43737078 0.93325621 0.1852968 32
-0.42714837 0.91309607 0.9786796 56
-0.42741078 0.91407263 0.81828749 52
-0.42807084 0.91549033 0.67926049 46
-0.4290024 0.91790015 0.55584157 39
-0.43397656 0.92896563 0.44580451 36
-0.43809852 0.93821603 0.34045666 20
-0.42302805 0.90635413 0.23154333 40
-0.43288711 0.92790025 0.13497925 46
-0.012790774 0.028622739 1.9991974 73
-0.13150057 0.28585574 2.0008237 97
-0.17425469 0.37651789 2.0180943 95
-0.25934976 0.55943298 2.0172744 84
-0.35060662 0.75596523 2.0227277 95
-0.40953946 0.88264984 1.8497344 40
-0.41362864 0.89146936 1.5160043 46
-0.41909087 0.90324819 1.2683752 47
-0.051313303 0.11435676 2.0010643 89
-0.088934757 0.20095403 2.0032918 93
-0.21585937 0.46795267 2.0202737 97
-0.30274144 0.65574431 2.0183041 93
-0.39715004 0.85947448 2.020627 80
-0.41094896 0.88934416 1.6726656 48
-0.41452718 0.89709431 1.3828779 56
-0.41856802 0.90584558 1.1600677 60
-0.42141905 0.90578049 1.0615247 53
-0.42495728 0.91339165 0.89440322 51
-0.42408949 0.91194248 0.74399745 50
-0.4246639 0.91318375 0.61350799 40
-0.42438638 0.9130038 0.49509901 38
-0.42867264 0.92264628 0.38879183 37
-0.42223662 0.90879375 0.28172666 14
-0.43201283 0.93026048 0.1848506 34
-0.42395848 0.91458148 0.9786796 56
-0.42251816 0.91189152 0.81534433 52
-0.42487255 0.91697896 0.67926049 45
-0.4257957 0.91939199 0.55584157 39
-0.42874739 0.9261893 0.44416183 36
-0.43277976 0.93532836 0.33928433 20
-0.41986167 0.90782523 0.23154333 40
-0.42964551 0.92940563 0.13497925 44
-0.012690784 0.028667213 1.9991974 73
-0.13050196 0.286313 2.0008237 97
-0.17293933 0.37712389 2.0180943 95
-0.25739542 0.56033492 2.0172744 86
-0.34796566 0.75718451 2.0227277 95
-0.4064559 0.88407403 1.8497344 40
-0.40933886 0.89035106 1.5118713 47
-0.41593537 0.90470564 1.2683752 47
-0.050796632 0.11427037 1.9960728 89
-0.088232756 0.20126326 2.0032918 93
-0.21422461 0.4687033 2.0202737 97
-0.30045059 0.65679705 2.0183041 91
-0.39414749 0.86085552 2.020627 80
-0.40784204 0.89077324 1.6726656 51
-0.41013855 0.8957954 1.3788885 56
-0.41540349 0.90730113 1.1600677 58
-0.41825473 0.90724599 1.0615247 53
-0.4201366 0.91133428 0.89126545 51
-0.42090362 0.91341728 0.74399745 50
-0.42147368 0.91466057 0.61350799 40
-0.42119682 0.91447961 0.49509901 38
-0.42544937 0.924137 0.38879183 36
-0.41700751 0.90579993 0.28079402 13
-0.428763 0.93176275 0.1848506 33
-0.4207634 0.9160558 0.9786796 56
-0.41933253 0.91336083 0.81534433 52
-0.42166916 0.91845649 0.67926049 45
-0.42069095 0.91674781 0.55374354 39
-0.42551175 0.92768019 0.44416183 35
-0.42951223 0.93683338 0.33928433 22
-0.41669023 0.90928525 0.23154333 40
-0.42639863 0.93089974 0.13497925 47
-0.012590639 0.028711338 1.9991974 71
-0.12950176 0.2867668 2.0008237 97
-0.17162187 0.37772524 2.0180943 95
-0.25481927 0.5598706 2.0125027 84
-0.34532046 0.75839454 2.0227277 95
-0.40237436 0.88330722 1.8453457 40
-0.40622848 0.89177448 1.5118713 45
-0.41144589 0.90323448 1.2645382 50
-0.050397445 0.114447 1.9960728 88
-0.087529682 0.20157003 2.0032918 93
-0.21258722 0.46944827 2.0202737 96
-0.29815611 0.65784186 2.0183041 91
-0.39114013 0.86222613 2.020627 80
-0.40365279 0.8898164 1.6683997 51
-0.40700915 0.89722162 1.3788885 56
-0.41083336 0.90565825 1.1563925 58
-0.41508529 0.90870047 1.0615247 53
-0.41695288 0.91279525 0.89126545 51
-0.41771263 0.91488099 0.74399745 50
-0.41643834 0.9120962 0.61118996 40
-0.41800213 0.91594434 0.49509901 38
-0.42222092 0.92561656 0.38879183 36
-0.4138431 0.90725011 0.28079402 13
-0.42344192 0.92872244 0.18440439 37
-0.41601634 0.91412008 0.97535479 56
-0.41614175 0.91481906 0.81534433 50
-0.41846055 0.91992283 0.67926049 45
-0.41748837 0.91821074 0.55374354 39
-0.42227092 0.92915994 0.44416183 35
-0.42422917 0.93390149 0.33811203 23
-0.41351366 0.91073424 0.23154333 40
-0.42314664 0.93238246 0.13497925 46
-0.012490341 0.028755112 1.9991974 71
-0.12849997 0.28721708 2.0008237 97
-0.17030233 0.37832198 2.0180943 95
-0.25286341 0.56075668 2.0125027 82
-0.3426711 0.75959527 2.0227277 95
-0.39830306 0.88252276 1.8409572 40
-0.40311316 0.89318705 1.5118713 45
-0.40829051 0.90466523 1.2645382 50
-0.049997643 0.11462222 1.9960728 88
-0.086825535 0.20187433 2.0032918 93
-0.21094723 0.47018746 2.0202737 96
-0.29515114 0.65730435 2.0136113 91
-0.38812801 0.86358625 2.020627 81
-0.39947522 0.88884109 1.6641337 51
-0.40263933 0.89588785 1.3748989 56
-0.40766951 0.90708685 1.1563925 58
-0.41044042 0.90689474 1.0580202 45
-0.41215906 0.91069853 0.88812768 48
-0.41451654 0.91633344 0.74399745 50
-0.41325203 0.91354424 0.61118996 40
-0.41480234 0.91739786 0.49509901 38
-0.41898739 0.92708462 0.38879183 36
-0.41067374 0.90868908 0.28079402 13
-0.42019749 0.93019491 0.18440439 37
-0.41282296 0.91556662 0.97535479 55
-0.4129459 0.91626602 0.81534433 52
-0.41347545 0.91744733 0.67672807 43
-0.41241658 0.91552442 0.55164546 39
-0.41902503 0.93062824 0.44416183 35
-0.42096668 0.93537658 0.33811203 23
-0.41033211 0.91217214 0.23154333 38
-0.41988942 0.93385381 0.13497925 45
-0.012389891 0.028798535 1.9991974 73
-0.1274966 0.28766388 2.0008237 96
-0.16898069 0.37891421 2.0180943 95
-0.25090444 0.56163585 2.0125027 69
-0.3392204 0.75900316 2.0181251 95
-0.39522007 0.88390768 1.8409572 40
-0.39884427 0.89201975 1.5077385 45
-0.40382162 0.90315825 1.2607013 50
-0.04971163 0.11506206 2.0010643 89
-0.086120337 0.20217618 2.0032918 91
-0.20930469 0.47092092 2.0202737 97
-0.29285493 0.65833062 2.0136113 91
-0.38511118 0.86493582 2.020627 81
-0.39637014 0.89023012 1.6641337 51
-0.39950967 0.89728785 1.3748989 56
-0.40312186 0.90540731 1.1527174 58
-0.40727225 0.90832192 1.0580202 44
-0.4089776 0.91213167 0.88812768 50
-0.40960538 0.91395903 0.741256 50
-0.40824884 0.91093844 0.60887194 40
-0.41159749 0.91884017 0.49509901 38
-0.41378829 0.9241631 0.38738266 37
-0.40749928 0.91011703 0.28079402 14
-0.41491368 0.92711049 0.18395817 36
-0.40810144 0.91359246 0.97202992 56
-0.40809715 0.91401106 0.81240118 52
-0.41027045 0.91888505 0.67672807 45
-0.40921828 0.91695845 0.55164546 39
-0.41577396 0.93208522 0.44416183 35
-0.41571972 0.93240106 0.33693972 23
-0.40714553 0.9135989 0.23154333 38
-0.41662711 0.93531388 0.13497925 47
-0.01228929 0.028841609 1.9991974 73
-0.1264917 0.28810716 2.0008237 96
-0.167657 0.3795017 2.0180943 95
-0.24894245 0.56250829 2.0125027 60
-0.33656892 0.76018262 2.0181251 93
-0.39116198 0.88309139 1.8365685 40
-0.39572811 0.89340657 1.5077385 45
-0.40066653 0.90456235 1.2607013 52
-0.049309686 0.11523489 2.0010643 89
-0.085414082 0.20247558 2.0032918 91
-0.2076596 0.47164866 2.0202737 97
-0.29055518 0.65934885 2.0136113 89
-0.38208967 0.86627477 2.020627 81
-0.3922078 0.88922203 1.6598678 53
-0.39637509 0.89867693 1.3748989 56
-0.39995894 0.90680891 1.1527174 60
-0.40409917 0.90973806 1.0580202 51
-0.40421093 0.90999609 0.88498992 46
-0.40641254 0.91538322 0.741256 49
-0.40506655 0.91235799 0.60887194 40
-0.4083876 0.92027128 0.49509901 38
-0.41055983 0.9256019 0.38738266 37
-0.40431991 0.91153401 0.28079402 13
-0.41167495 0.92855316 0.18395817 38
-0.40490991 0.91501147 0.97202992 56
-0.40490416 0.91543007 0.81240118 52
-0.40706044 0.92031157 0.67672807 45
-0.40417987 0.91423023 0.54954737 39
-0.41251785 0.93353087 0.44416183 35
-0.4124625 0.93384647 0.33693972 22
-0.40195397 0.91048408 0.23085353 41
-0.4133597 0.93676245 0.13497925 46
-0.01218854 0.028884333 1.9991974 73
-0.12548524 0.28854698 2.0008237 97
-0.16633126 0.38008463 2.0180943 93
-0.24697742 0.56337386 2.0125027 47
-0.33391336 0.76135278 2.0181251 93
-0.38807705 0.88445139 1.8365685 42
-0.39147648 0.89220554 1.5036055 45
-0.39750656 0.90595543 1.2607013 50
-0.048907142 0.1154063 2.0010643 89
-0.084706791 0.20277248 2.0032918 91
-0.20601198 0.47237065 2.0202737 96
-0.28825182 0.66035908 2.0136113 89
-0.37906346 0.8676033 2.020627 81
-0.38910142 0.89058572 1.6598678 53
-0.39323568 0.90005505 1.3748989 56
-0.39543387 0.9050929 1.1490421 58
-0.39948478 0.90787888 1.0545157 53
-0.40103194 0.91140151 0.88498992 46
-0.40321478 0.91679633 0.741256 49
-0.40187937 0.91376632 0.60887194 40
-0.4033072 0.91744733 0.49322596 37
-0.40732634 0.92702937 0.38738266 36
-0.39915952 0.9084425 0.27986142 13
-0.40843117 0.92998451 0.18395817 37
-0.40171346 0.91641927 0.97202992 56
-0.40170622 0.91683793 0.81240118 52
-0.40384546 0.92172688 0.67672807 45
-0.40098614 0.91563553 0.54954737 39
-0.40925667 0.93496513 0.44416183 35
-0.40725195 0.93082744 0.33576739 23
-0.39877334 0.91188163 0.23085353 40
-0.41008726 0.93819964 0.13497925 46
-0.012087639 0.0289267 1.9991974 75
-0.12447726 0.28898323 2.0008237 97
-0.16500352 0.38066292 2.0180943 93
-0.24500938 0.56423253 2.0125027 44
-0.33203208 0.76430565 2.0227277 93
-0.38498738 0.88580066 1.8365685 42
-0.38835973 0.89356667 1.5036055 47
-0.3943418 0.90733749 1.2607013 52
-0.048503999 0.11557632 2.0010643 89
-0.083998471 0.20306693 2.0032918 91
-0.20436183 0.47308689 2.0202737 96
-0.285945 0.66136122 2.0136113 91
-0.37603265 0.8689211 2.020627 81
-0.3849546 0.88954496 1.6556019 53
-0.39009154 0.90142226 1.3748989 58
-0.39227214 0.90646774 1.1490421 58
-0.39631328 0.90926778 1.0545157 53
-0.39784816 0.91279578 0.88498992 48
-0.40001214 0.91819823 0.741256 42
-0.3986873 0.91516358 0.60887194 40
-0.40010229 0.91884953 0.49322596 38
-0.40408796 0.92844558 0.38738266 36
-0.39598608 0.90983027 0.27986142 14
-0.40518245 0.93140447 0.18395817 39
-0.39702487 0.9143905 0.96870506 55
-0.39689422 0.91452652 0.80945796 52
-0.40062559 0.92313093 0.67672807 43
-0.39778754 0.91702956 0.54954737 39
-0.40411201 0.93205523 0.44251916 35
-0.40400028 0.93224335 0.33576739 23
-0.39558783 0.91326809 0.23085353 38
-0.40482488 0.93504071 0.13477771 45
-0.011986593 0.02896872 1.9991974 75
-0.12346776 0.28941599 2.0008237 97
-0.16367376 0.38123658 2.0180943 95
-0.24303836 0.56508434 2.0125027 40
-0.32936212 0.76546001 2.0227277 93
-0.38094577 0.88493854 1.8321797 42
-0.38523823 0.89491683 1.5036055 47
-0.38990465 0.9057638 1.2568643 52
-0.04810027 0.11574493 2.0010643 89
-0.083289117 0.2033589 2.0032918 93
-0.20270921 0.47379738 2.0202737 96
-0.28363466 0.6623553 2.0136113 91
-0.37299725 0.87022841 2.020627 80
-0.38184717 0.89088327 1.6556019 55
-0.38575527 0.90000808 1.3709093 58
-0.38910556 0.90783143 1.1490421 58
-0.39313692 0.91064566 1.0545157 53
-0.39465946 0.91417903 0.88498992 50
-0.39514792 0.91574967 0.73851454 42
-0.39549035 0.91654974 0.60887194 40
-0.39689243 0.92024058 0.49322596 37
-0.4008446 0.9298504 0.38738266 35
-0.39086312 0.90669596 0.27892879 14
-0.40192875 0.93281317 0.18395817 37
-0.39383063 0.91577077 0.96870506 55
-0.3936995 0.91590637 0.80945796 50
-0.3974008 0.92452377 0.67672807 45
-0.39279252 0.91424257 0.54744929 39
-0.40085608 0.93346018 0.44251916 35
-0.39882657 0.92918128 0.33459508 22
-0.39044508 0.91009235 0.23016369 41
-0.40155855 0.9364481 0.13477771 46
-0.011885401 0.029010385 1.9991974 73
-0.12275898 0.29056102 2.0057628 97
-0.162342 0.3818056 2.0180943 95
-0.24106435 0.56592923 2.0125027 42
-0.3266882 0.76660502 2.0227277 95
-0.37785444 0.88626289 1.8321797 42
-0.38100842 0.89366746 1.4994725 47
-0.38674054 0.90711927 1.2568643 52
-0.04769595 0.11591212 2.0010643 89
-0.082578748 0.20364839 2.0032918 93
-0.20105413 0.47450206 2.0202737 96
-0.2813209 0.66334134 2.0136113 89
-0.37080824 0.87352979 2.0251279 78
-0.37771603 0.88981009 1.651336 55
-0.38261127 0.90134913 1.3709093 58
-0.38593429 0.90918416 1.1490421 56
-0.38855374 0.90873325 1.0510112 51
-0.39146599 0.91555101 0.88498992 48
-0.39194897 0.91712338 0.73851454 50
-0.3922886 0.91792464 0.60887194 38
-0.3936778 0.92162037 0.49322596 37
-0.39571267 0.92683202 0.38597345 36
-0.38769579 0.90805483 0.27892879 14
-0.3986702 0.93421048 0.18395817 38
-0.38916826 0.91370428 0.96538025 55
-0.39050001 0.91727507 0.80945796 50
-0.39248252 0.9219386 0.67419565 45
-0.38959885 0.91560817 0.54744929 39
-0.39759526 0.93485379 0.44251916 36
-0.39367914 0.92609465 0.33342275 24
-0.38726592 0.91144973 0.23016369 41
-0.3982873 0.9378441 0.13477771 45
-0.011784064 0.029051695 1.9991974 73
-0.12174398 0.29098776 2.0057628 97
-0.16100825 0.38236994 2.0180943 95
-0.23908742 0.56676728 2.0125027 44
-0.32401022 0.76774073 2.0227277 95
-0.37382662 0.88536936 1.8277911 42
-0.37788662 0.89499205 1.4994725 47
-0.38232473 0.90551019 1.2530273 52
-0.047291048 0.11607791 2.0010643 89
-0.081867389 0.20393541 2.0032918 93
-0.19939657 0.47520101 2.0202737 97
-0.27900368 0.66431928 2.0136113 89
-0.36775678 0.87481886 2.0251279 76
-0.37460768 0.89112312 1.651336 53
-0.37829468 0.89990079 1.3669199 56
-0.38275829 0.91052586 1.1490421 56
-0.38537931 0.91008407 1.0510112 53
-0.38826773 0.9169119 0.88498992 48
-0.38874522 0.91848594 0.73851454 49
-0.38735527 0.91520852 0.60655391 38
-0.38865215 0.91871941 0.49135295 37
-0.39247504 0.92820764 0.38597345 36
-0.38452375 0.90940261 0.27892879 14
-0.39540675 0.93559641 0.18395817 35
-0.38597646 0.91505718 0.96538025 56
-0.3857255 0.91490805 0.8065148 50
-0.38926199 0.92330301 0.67419565 45
-0.38640037 0.9169625 0.54744929 39
-0.3924965 0.93188375 0.44087645 35
-0.39044407 0.92746317 0.33342275 24
-0.38216135 0.90823138 0.22947389 41
-0.39307436 0.93462342 0.13457619 49
-0.011682581 0.029092653 1.9991974 75
-0.1207275 0.29141095 2.0057628 96
-0.15967254 0.38292962 2.0180943 95
-0.23710756 0.5675984 2.0125027 45
-0.32132837 0.76886708 2.0227277 95
-0.37073383 0.88666886 1.8277911 42
-0.37367472 0.89370942 1.4953396 47
-0.3791616 0.90683925 1.2530273 52
-0.046885572 0.11624227 2.0010643 89
-0.081155017 0.20421992 2.0032918 91
-0.19773659 0.47589415 2.0202737 96
-0.27668306 0.66528916 2.0136113 91
-0.36470085 0.87609726 2.0251279 76
-0.37049258 0.89001757 1.6470701 51
-0.37515116 0.90121579 1.3669199 56
-0.3782748 0.90872651 1.145367 60
-0.38220015 0.91142374 1.0510112 51
-0.38355935 0.9146716 0.88185215 48
-0.38392043 0.91598094 0.73577303 49
-0.38415828 0.91655505 0.60655391 40
-0.38544282 0.92007041 0.49135295 37
-0.38737971 0.92514688 0.38456425 38
-0.38134697 0.91073924 0.27892879 14
-0.39213851 0.93697095 0.18395817 38
-0.38134065 0.91295302 0.96205539 55
-0.38252953 0.91624892 0.8065148 50
-0.38437569 0.92067766 0.67166322 47
-0.38144946 0.91411722 0.54535127 39
-0.38924125 0.9332481 0.44087645 34
-0.38533396 0.92433405 0.33225045 24
-0.37898868 0.90955991 0.22947389 40
-0.38980955 0.9359898 0.13457619 47
-0.011580958 0.029133253 1.9991974 75
-0.11970955 0.2918306 2.0057628 96
-0.15833491 0.38348463 2.0180943 95
-0.23512484 0.56842262 2.0125027 47
-0.31864253 0.76998401 2.0227277 93
-0.36672008 0.88574398 1.8234024 44
-0.37055281 0.89500833 1.4953396 49
-0.37599379 0.90815729 1.2530273 52
-0.046479531 0.11640523 2.0010643 89
-0.080441669 0.20450197 2.0032918 91
-0.1960742 0.47658145 2.0202737 96
-0.27435908 0.66625094 2.0136113 91
-0.36164051 0.87736493 2.0251279 74
-0.36738357 0.89130539 1.6470701 51
-0.37085456 0.89973336 1.3629304 56
-0.37510043 0.91004139 1.145367 60
-0.37764874 0.90945876 1.0475066 53
-0.38036418 0.9160049 0.88185215 48
-0.3807207 0.9173156 0.73577303 47
-0.3809565 0.91789043 0.60655391 40
-0.38222885 0.92141026 0.49135295 37
-0.384148 0.92649347 0.38456425 36
-0.3781656 0.91206491 0.27892879 14
-0.38886547 0.93833411 0.18395817 38
-0.37815154 0.91427857 0.96205539 55
-0.37932891 0.91757858 0.8065148 50
-0.3811596 0.92201376 0.67166322 45
-0.37825623 0.91544318 0.54535127 39
-0.38417858 0.93023628 0.43923378 34
-0.38210511 0.92567348 0.33225045 24
-0.37581143 0.91087723 0.22947389 41
-0.3846353 0.9327262 0.13437465 46
-0.011479193 0.029173501 1.9991974 73
-0.11869015 0.29224667 2.0057628 96
-0.15699534 0.38403502 2.0180943 95
-0.23313923 0.56923985 2.0125027 47
-0.31595287 0.77109164 2.0227277 93
-0.3627173 0.88480192 1.8190137 42
-0.3674264 0.89629638 1.4953396 47
-0.37160546 0.9064979 1.2491904 52
-0.046072915 0.11656676 2.0010643 89
-0.079727337 0.20478152 2.0032918 91
-0.19440943 0.47726297 2.0202737 97
-0.27203178 0.66720456 2.0136113 91
-0.35857573 0.87862194 2.0251279 73
-0.36328468 0.89016759 1.642804 51
-0.36771163 0.90102237 1.3629304 56
-0.37192151 0.91134518 1.145367 58
-0.37447187 0.91077143 1.0475066 51
-0.37568411 0.91372663 0.87871432 46
-0.37751639 0.91863889 0.73577303 47
-0.37606627 0.91511697 0.60423589 39
-0.3790102 0.92273885 0.49135295 37
-0.38091159 0.92782873 0.38456425 35
-0.37311402 0.90883523 0.27799615 14
-0.38369715 0.93507844 0.18351197 38
-0.37354261 0.91213727 0.95873052 55
-0.37459245 0.9151563 0.80357164 50
-0.37793884 0.92333865 0.67166322 43
-0.37505847 0.91675794 0.54535127 39
-0.38092914 0.93157166 0.43923378 35
-0.37703267 0.92250228 0.33107814 24
-0.37075683 0.90759909 0.22878408 40
-0.38137716 0.93406308 0.13437465 49
-0.01137729 0.029213395 1.9991974 73
-0.11766929 0.29265919 2.0057628 96
-0.15565383 0.38458067 2.0180943 95
-0.23115079 0.57005018 2.0125027 49
-0.31325933 0.7721898 2.0227277 93
-0.35962656 0.88606268 1.8190137 44
-0.36323723 0.89496601 1.4912066 44
-0.36843896 0.90778947 1.2491904 52
-0.045665741 0.11672688 2.0010643 89
-0.079012021 0.20505859 2.0032918 91
-0.19274229 0.47793868 2.0202737 97
-0.26970115 0.66815001 2.0136113 91
-0.35550657 0.87986821 2.0251279 74
-0.36017519 0.89143032 1.642804 51
-0.36343518 0.89950591 1.3589408 54
-0.36746809 0.90949458 1.1416918 58
-0.37129042 0.91207302 1.0475066 51
-0.37249231 0.91503245 0.87871432 46
-0.37430742 0.91995114 0.73577303 47
-0.37286961 0.9164241 0.60423589 39
-0.37404054 0.91976184 0.4894799 38
-0.37767056 0.92915273 0.38456425 35
-0.36993933 0.91013211 0.27799615 14
-0.38043079 0.9364121 0.18351197 36
-0.37035638 0.91343558 0.95873052 55
-0.37139571 0.91645831 0.80357164 48
-0.37471351 0.92465228 0.67166322 45
-0.37185609 0.91806155 0.54535127 39
-0.37767503 0.93289572 0.43923378 35
-0.37198704 0.91930699 0.32990581 25
-0.36758649 0.90888774 0.22878408 41
-0.37624201 0.93075675 0.13417313 48
-0.011275247 0.02925293 1.9991974 73
-0.11664701 0.29306817 2.0057628 97
-0.15431046 0.38512167 2.0180943 95
-0.22915955 0.57085359 2.0125027 49
-0.31056198 0.77327853 2.0227277 95
-0.35563824 0.88508958 1.814625 44
-0.36011103 0.89622843 1.4912066 44
-0.36407268 0.90609527 1.2453535 50
-0.045258012 0.11688557 2.0010643 89
-0.078295752 0.20533313 2.0032918 91
-0.19107279 0.47860858 2.0202737 97
-0.26736721 0.66908741 2.0136113 91
-0.35243312 0.88110387 2.0251279 71
-0.35609281 0.89026064 1.6385381 51
-0.36029309 0.90076905 1.3589408 56
-0.36429113 0.91077179 1.1416918 58
-0.3681044 0.91336358 1.0475066 51
-0.36929598 0.91632712 0.87871432 48
-0.36953157 0.91737348 0.73303157 48
-0.36966842 0.91772008 0.60423589 39
-0.3708277 0.92106181 0.4894799 38
-0.3744249 0.93046534 0.38456425 37
-0.36676013 0.91141784 0.27799615 14
-0.3771598 0.93773431 0.18351197 40
-0.36716563 0.9147228 0.95873052 55
-0.36668941 0.91399783 0.80062848 48
-0.36987835 0.9219535 0.6691308 45
-0.36864921 0.91935402 0.54535127 39
-0.37441632 0.93420833 0.43923378 35
-0.36877581 0.92059988 0.32990581 26
-0.36257091 0.90556794 0.22809425 41
-0.37299076 0.93206441 0.13417313 48
-0.011173066 0.02929211 1.9991974 73
-0.1156233 0.29347354 2.0057628 97
-0.1529652 0.38565797 2.0180943 95
-0.22716551 0.57165003 2.0125027 58
-0.30786085 0.77435791 2.0227277 95
-0.35254654 0.8863256 1.814625 42
-0.35698041 0.89748001 1.4912066 49
-0.36090761 0.90736061 1.2453535 45
-0.044849727 0.11704284 2.0010643 91
-0.077578537 0.20560518 2.0032918 93
-0.18940099 0.47927263 2.0202737 96
-0.26503003 0.67001665 2.0136113 91
-0.34935531 0.88232869 2.0251279 68
-0.35298303 0.89149821 1.6385381 51
-0.35714662 0.90202123 1.3589408 56
-0.36110973 0.91203779 1.1416918 58
-0.36359242 0.91133052 1.0440021 51
-0.36465263 0.91399491 0.87557656 48
-0.36632711 0.91865778 0.73303157 48
-0.36646277 0.91900492 0.60423589 39
-0.36589393 0.91804415 0.48760688 37
-0.37117466 0.93176669 0.38456425 36
-0.36175853 0.90812904 0.27706355 15
-0.37204206 0.93441838 0.18306577 40
-0.36259148 0.91252846 0.95540571 55
-0.36349672 0.91527224 0.80062848 48
-0.36665785 0.92323893 0.6691308 45
-0.36543781 0.92063522 0.54535127 39
-0.3694115 0.93111998 0.43759111 35
-0.3637684 0.91736317 0.3287335 25
-0.35940772 0.90682805 0.22809425 41
-0.369735 0.9333607 0.13417313 47
-0.011070749 0.029330932 1.9991974 75
-0.11459818 0.29387537 2.0057628 97
-0.15161806 0.38618961 2.0180943 95
-0.22516868 0.57243955 2.0125027 67
-0.30587131 0.7772457 2.0273302 95
-0.34945053 0.88755077 1.814625 44
-0.35281458 0.89610225 1.4870737 49
-0.35656366 0.9056319 1.2415166 45
-0.044440895 0.11719868 2.0010643 89
-0.076860368 0.20587474 2.0032918 93
-0.18772686 0.47993085 2.0202737 97
-0.26268962 0.67093772 2.0136113 91
-0.3462733 0.88354284 2.0251279 66
-0.34891737 0.89029676 1.6342722 51
-0.3539958 0.90326238 1.3589408 56
-0.35668692 0.9101364 1.1380167 56
-0.36040908 0.91259414 1.0440021 53
-0.36145997 0.91526222 0.87557656 46
-0.36158293 0.91604149 0.73029011 47
-0.361626 0.9161576 0.60191786 40
-0.36268714 0.91931576 0.48760688 37
-0.36791995 0.93305665 0.38456425 33
-0.3585864 0.90938634 0.27706355 15
-0.36877802 0.93571132 0.18306577 39
-0.35940391 0.91378856 0.95540571 53
-0.36029962 0.9165355 0.80062848 48
-0.36343291 0.92451322 0.6691308 45
-0.36222199 0.92190522 0.54535127 39
-0.36615902 0.9324038 0.43759111 34
-0.36056396 0.91862738 0.3287335 25
-0.35624009 0.90807706 0.22809425 41
-0.36647469 0.93464565 0.13417313 46
-0.010968298 0.029369399 1.9991974 73
-0.11357167 0.29427359 2.0057628 97
-0.15026908 0.38671646 2.0180943 95
-0.22316912 0.57322198 2.0125027 84
-0.30315632 0.77830869 2.0273302 95
-0.34548041 0.88653296 1.8102365 44
-0.34968445 0.89732838 1.4870737 49
-0.35340026 0.90687102 1.2415166 49
-0.044031527 0.11735309 2.0010643 89
-0.076141261 0.20614178 2.0032918 93
-0.18605044 0.48058322 2.0202737 97
-0.26034603 0.67185056 2.0136113 91
-0.34239951 0.8827157 2.020627 62
-0.34580755 0.89150929 1.6342722 48
-0.34975076 0.90168256 1.3549514 58
-0.35350779 0.91137588 1.1380167 58
-0.35592297 0.91052514 1.0404975 51
-0.35826293 0.91651833 0.87557656 46
-0.35838315 0.91729808 0.73029011 47
-0.35842583 0.91741437 0.60191786 39
-0.35947594 0.92057621 0.48760688 37
-0.36291659 0.92986625 0.38315508 33
-0.35540989 0.91063243 0.27706355 14
-0.36550954 0.93699294 0.18306577 39
-0.35621202 0.91503757 0.95540571 53
-0.35563248 0.91402066 0.79768533 48
-0.36020356 0.92577618 0.6691308 43
-0.35900173 0.92316401 0.54535127 38
-0.3629021 0.93367624 0.43759111 34
-0.35735515 0.91988033 0.3287335 25
-0.35306814 0.90931505 0.22809425 41
-0.36320993 0.93591917 0.13417313 46
-0.010865713 0.029407505 1.9991974 73
-0.1122667 0.2939423 2.0008237 97
-0.14891827 0.38723865 2.0180943 95
-0.22116685 0.57399756 2.0125027 88
-0.30043769 0.7793622 2.0273302 95
-0.34238374 0.88773346 1.8102365 44
-0.34553748 0.89591801 1.4829408 49
-0.35023257 0.90809906 1.2415166 49
-0.043621622 0.11750607 2.0010643 89
-0.075421229 0.2064063 2.0032918 93
-0.18437175 0.48122972 2.0202737 97
-0.25799924 0.67275524 2.0136113 91
-0.33931619 0.88390553 2.020627 62
-0.34269348 0.89271092 1.6342722 48
-0.34660116 0.90289795 1.3549514 58
-0.34910938 0.90943933 1.1343416 58
-0.35274249 0.911762 1.0404975 47
-0.35365686 0.91413271 0.87243879 46
-0.35517898 0.91854346 0.73029011 47
-0.35362351 0.91452795 0.59959984 39
-0.35626033 0.92182541 0.48760688 37
-0.35966849 0.93112743 0.38315508 36
-0.35222897 0.9118675 0.27706355 15
-0.36223662 0.93826306 0.18306577 39
-0.35301578 0.91627544 0.95540571 55
-0.35243979 0.91525644 0.79768533 48
-0.35542056 0.92300463 0.66659838 45
-0.35577706 0.92441148 0.54535127 39
-0.35964075 0.93493736 0.43759111 35
-0.35414204 0.92112219 0.3287335 25
-0.34989187 0.91054195 0.22809425 41
-0.35994074 0.93718129 0.13417313 44
-0.010762995 0.029445255 1.9991974 73
-0.11123997 0.29433239 2.0008237 95
-0.14756565 0.38775611 2.0180943 95
-0.21916187 0.57476604 2.0125027 88
-0.29771537 0.78040612 2.0273302 95
-0.33842862 0.88668495 1.8058478 42
-0.34240803 0.89711869 1.4829408 45
-0.3459174 0.90632093 1.2376796 49
-0.043211181 0.11765763 2.0010643 89
-0.074700274 0.2066683 2.0032918 93
-0.18269083 0.48187035 2.0202737 97
-0.2556493 0.6736517 2.0136113 85
-0.33545539 0.88304889 2.0161262 59
-0.33957523 0.89390171 1.6342722 48
-0.34344736 0.90410239 1.3549514 58
-0.34593272 0.9106524 1.1343416 60
-0.3495577 0.91298777 1.0404975 47
-0.35046381 0.91536164 0.87243879 44
-0.35197052 0.91977769 0.73029011 47
-0.35042906 0.91575664 0.59959984 39
-0.3530404 0.9230634 0.48760688 37
-0.35641608 0.93237728 0.38315508 36
-0.34904382 0.91309148 0.27706355 15
-0.35895926 0.93952185 0.18306577 39
-0.34848487 0.91401273 0.95208085 55
-0.3478035 0.91270405 0.79474217 46
-0.35219651 0.92423964 0.66659838 45
-0.35254809 0.9256478 0.54535127 39
-0.35637501 0.93618697 0.43759111 34
-0.34919614 0.91780984 0.32756117 26
-0.34495118 0.90712893 0.22740445 41
-0.35666719 0.93843204 0.13417313 44
-0.010660145 0.029482644 1.9991974 75
-0.11021188 0.29471889 2.0008237 95
-0.14621124 0.38826886 2.0180943 95
-0.21715423 0.57552755 2.0125027 88
-0.29429954 0.77961284 2.0227277 95
-0.33533144 0.88786095 1.8058478 42
-0.33828017 0.89567596 1.4788078 42
-0.34275165 0.90752286 1.2376796 49
-0.042800218 0.11780775 2.0010643 89
-0.073978417 0.20692781 2.0032918 93
-0.18100767 0.48250514 2.0202737 97
-0.25329626 0.67453998 2.0136113 69
-0.33237097 0.88421446 2.0161262 57
-0.33553526 0.89264029 1.6300063 51
-0.33922893 0.90247446 1.3509619 56
-0.34155908 0.90868098 1.1306664 58
-0.34510517 0.91086751 1.036993 51
-0.34726647 0.91657943 0.87243879 46
-0.34875774 0.92100066 0.73029011 47
-0.34723037 0.91697431 0.59959984 39
-0.3481752 0.91995436 0.48573384 37
-0.35315931 0.93361568 0.38315508 35
-0.34585443 0.91430432 0.27706355 15
-0.35567755 0.94076914 0.18306577 40
-0.34529227 0.9152236 0.95208085 55
-0.34461546 0.91391259 0.79474217 46
-0.34896818 0.92546332 0.66659838 43
-0.3477143 0.92262584 0.54325324 39
-0.35144031 0.93300599 0.4359484 34
-0.34599024 0.91902316 0.32756117 26
-0.3417826 0.90832746 0.22740445 40
-0.35338926 0.9396714 0.13417313 45
