# .PCD v0.7 - Point Cloud Data file format
VERSION 0.7
FIELDS x y z intensity
SIZE 4 4 4 4
TYPE F F F F
COUNT 1 1 1 1
WIDTH 1329
HEIGHT 1
VIEWPOINT 0 0 0 1 0 0 0
POINTS 1329
DATA ascii
-0.029608883 -0.010304328 1.9991974 66
-0.29602477 -0.10665473 2.0008237 90
-0.38808712 -0.14083041 2.0083039 54
-0.48546031 -0.17652588 1.6975689 38
-0.55360633 -0.201406 1.447412 38
-0.99089086 -0.36066851 1.9989488 85
-1.2302246 -0.44777614 1.9954264 29
-1.5140984 -0.55109507 2.0050688 78
-0.11831462 -0.041378416 2.0010643 55
-0.20780368 -0.071481116 2.0032918 71
-0.4811011 -0.17390141 2.0057559 37
-0.47794548 -0.17294142 1.4364011 38
-0.87996268 -0.31873223 1.9981228 88
-1.1124048 -0.40291825 2.0054085 85
-1.4024098 -0.50795317 2.0491242 27
-1.6681714 -0.60420722 2.0016804 85
-1.8395301 -0.67172492 2.0042477 39
-2.2371051 -0.8168993 2.0020387 32
-2.7438023 -1.0013806 1.999589 64
-3.4472477 -1.2581065 2.0066421 45
-4.5084357 -1.6445047 2.02724 12
-1.7040141 -0.62122387 0.62271833 14
-9.4148502 -3.4323125 1.9940171 19
nan nan nan 0
-2.0388741 -0.74128926 2.0127075 38
-2.4717734 -0.89819223 1.9984947 73
-3.0771666 -1.1181757 2.0087843 68
-3.8915453 -1.4133338 2.0013998 52
-5.1542811 -1.8709158 1.9964989 45
-7.3977237 -2.6837847 1.9887351 25
-1.6805515 -0.60934943 0.34122404 22
-3.0528235 -1.1063151 0.22466049 3
-0.029603219 -0.010187291 1.9941976 66
-0.29639524 -0.10562076 2.0008237 93
-0.38857633 -0.13947487 2.0083039 58
-0.48466814 -0.17432481 1.6927972 38
-0.55430603 -0.19947234 1.447412 38
-0.99214375 -0.35720745 1.9989488 81
-1.2317801 -0.44347909 1.9954264 26
-1.5160129 -0.54580653 2.0050688 78
-0.11845835 -0.040965162 2.0010643 55
-0.20805193 -0.070755318 2.0032918 73
-0.48170519 -0.17222099 2.0057559 38
-0.47854623 -0.17127201 1.4364011 39
-0.87901968 -0.31492415 1.9936218 86
-1.1138043 -0.39903277 2.0054085 89
-1.401337 -0.50203824 2.0451348 27
-1.6702702 -0.59838051 2.0016804 83
-1.8385097 -0.66408819 2.0007432 46
-2.239943 -0.80908537 2.0020387 32
-2.7512143 -0.99321675 2.0023305 64
-3.4516184 -1.2460657 2.0066421 59
-4.5446739 -1.6397711 2.0403512 12
-1.7061721 -0.61527193 0.62271833 14
-9.4313955 -3.4010942 1.9949498 16
-9.4963856 -3.4226573 0.99739873 15
-2.0414493 -0.73416775 2.0127075 37
-2.4748936 -0.88955867 1.9984947 69
-3.0810509 -1.1074276 2.0087843 68
-3.896455 -1.3997411 2.0013998 51
-5.1607804 -1.8529128 1.9964989 44
-7.411622 -2.6595871 1.9899074 25
-1.7013141 -0.61016667 0.34398332 25
-3.0331521 -1.0872233 0.22365284 3
-0.0296386 -0.010083893 1.9941976 64
-0.29676214 -0.10458551 2.0008237 92
-0.3900204 -0.13845819 2.0131991 64
-0.48527369 -0.17263193 1.6927972 38
-0.55499893 -0.19753623 1.447412 38
-0.9933846 -0.35374206 1.9989488 83
-1.2333206 -0.43917671 1.9954264 26
-1.5179088 -0.54051137 2.0050688 78
-0.11860061 -0.040551417 2.0010643 53
-0.20829764 -0.070028648 2.0032918 73
-0.48230344 -0.17053849 2.0057559 38
-0.47914118 -0.16960053 1.4364011 40
-0.88011366 -0.31185389 1.9936218 86
-1.1151905 -0.39514244 2.0054085 89
-1.4030809 -0.49714363 2.0451348 26
-1.6723487 -0.59254658 2.0016804 86
-1.8408165 -0.65766656 2.0007432 56
-2.2427535 -0.80126166 2.0020387 32
-2.7546647 -0.98360717 2.0023305 64
-3.4559472 -1.2340097 2.0066421 60
-4.5547361 -1.6254554 2.0422242 12
-1.7263833 -0.61575902 0.62835509 19
-9.4478369 -3.369802 1.9958825 16
-9.5364208 -3.3995211 1.0000761 42
-2.0439997 -0.72703731 2.0127075 38
-2.4779837 -0.88091421 1.9984947 73
-3.084898 -1.0966659 2.0087843 67
-3.9013171 -1.3861314 2.0013998 50
-5.1672168 -1.8348869 1.9964989 44
-7.4208608 -2.6336997 1.9899074 24
-1.7314372 -0.61415738 0.34812221 26
-3.0651815 -1.086645 0.22486204 3
-0.029673619 -0.0099803749 1.9941976 64
-0.2971254 -0.10354898 2.0008237 90
-0.39050132 -0.13709593 2.0131991 67
-0.48446438 -0.17044136 1.6880255 38
-0.55568504 -0.19559772 1.447412 38
-0.99461329 -0.35027236 1.9989488 85
-1.2348461 -0.43486893 1.9954264 25
-1.5197864 -0.53520954 2.0050688 78
-0.11874145 -0.040137175 2.0010643 53
-0.20854083 -0.069301121 2.0032918 73
-0.48289576 -0.16885388 2.0057559 38
-0.47810149 -0.16735691 1.4317083 46
-0.88119686 -0.30877984 1.9936218 83
-1.116563 -0.3912473 2.0054085 89
-1.4019634 -0.49124631 2.0411453 24
-1.6744069 -0.58670533 2.0016804 86
-1.843101 -0.65123689 2.0007432 56
-2.2455368 -0.79342806 2.0020387 31
-2.7580812 -0.97398555 2.0023305 64
-3.4602334 -1.2219386 2.0066421 62
-4.564754 -1.6110897 2.0440972 12
-1.7375705 -0.61292076 0.63117349 7
-9.4641752 -3.3384364 1.9968151 17
-9.5200481 -3.3562772 0.99739873 39
-2.046525 -0.71989793 2.0127075 38
-2.4810436 -0.87225908 1.9984947 73
-3.088707 -1.085891 2.0087843 67
-3.906132 -1.3725047 2.0013998 50
-5.1735902 -1.8168389 1.9964989 45
-7.4300089 -2.60778 1.9899074 24
nan nan nan 0
-3.0783851 -1.0792445 0.22526509 4
-0.029708277 -0.0098767336 1.9941976 64
-0.2967504 -0.10225822 1.9958843 90
-0.3909775 -0.13573198 2.0131991 71
-0.48505637 -0.16874921 1.6880255 38
-0.55636448 -0.19365683 1.447412 38
-0.99582994 -0.34679839 1.9989488 81
-1.239014 -0.43148133 1.9995594 23
-1.5216453 -0.52990121 2.0050688 80
-0.11888083 -0.03972245 2.0010643 53
-0.20827399 -0.068406798 1.9983203 75
-0.48348224 -0.16716723 2.0057559 38
-0.47868276 -0.16568701 1.4317083 46
-0.88226932 -0.305702 1.9936218 83
-1.1179218 -0.3873474 2.0054085 89
-1.4036696 -0.48634955 2.0411453 24
-1.6764448 -0.58085704 2.0016804 86
-1.8487295 -0.64597559 2.0042477 52
-2.2482927 -0.78558487 2.0020387 31
-2.7614644 -0.96435207 2.0023305 64
-3.460295 -1.208392 2.004324 63
-4.5703502 -1.5951458 2.0440972 13
-6.1923337 -2.160038 2.0164127 5
-9.4804087 -3.306998 1.9977478 21
-9.5317059 -3.3230257 0.99739873 40
-2.0490255 -0.7127499 2.0127075 38
-2.4840732 -0.86359328 1.9984947 73
-3.0965509 -1.0765183 2.0113168 67
-3.9108992 -1.3588614 2.0013998 50
-5.1799011 -1.7987685 1.9964989 45
-7.4390664 -2.5818286 1.9899074 24
-9.722249 -3.3723359 1.5256377 80
-3.0726926 -1.0652196 0.22486204 5
-0.029742571 -0.0097729722 1.9941976 64
-0.29710555 -0.10122175 1.9958843 86
-0.39144892 -0.13436639 2.0131991 73
-0.48423016 -0.16656926 1.6832538 38
-0.55703706 -0.19171357 1.447412 39
-0.99703443 -0.34332013 1.9989488 81
-1.2405126 -0.42715371 1.9995594 23
-1.5234857 -0.52458644 2.0050688 81
-0.11901876 -0.039307233 2.0010643 53
-0.2085115 -0.067679361 1.9983203 75
-0.48406282 -0.16547856 2.0057559 39
-0.47925818 -0.16401507 1.4317083 48
-0.88333106 -0.30262044 1.9936218 81
-1.1192671 -0.38344273 2.0054085 89
-1.4025073 -0.48047003 2.0371556 24
-1.678462 -0.57500154 2.0016804 86
-1.8509731 -0.63951838 2.0042477 48
-2.2510211 -0.77773201 2.0020387 31
-2.7648137 -0.95470697 2.0023305 64
-3.4644921 -1.1963061 2.004324 63
-4.5758901 -1.5791827 2.0440972 13
-6.1862302 -2.1337168 2.0121851 14
-9.4965391 -3.2754867 1.9986804 22
-9.5244131 -3.2832413 0.99561387 39
-2.051501 -0.70559305 2.0127075 38
-2.4870727 -0.85491699 1.9984947 73
-3.1002896 -1.0657028 2.0113168 67
-3.9156187 -1.3452016 2.0013998 51
-5.1816821 -1.7791429 1.9948562 37
-7.4480333 -2.5558455 1.9899074 25
-9.7199068 -3.3335583 1.5235683 95
-3.0763927 -1.0544875 0.22486204 7
-0.029776502 -0.0096690916 1.9941976 62
-0.29745704 -0.10018404 1.9958843 81
-0.39191556 -0.13299915 2.0131991 75
-0.48480865 -0.16487798 1.6832538 38
-0.55770284 -0.18976797 1.447412 39
-0.99822676 -0.33983773 1.9989488 83
-1.2446599 -0.42372775 2.0036924 25
-1.5253077 -0.51926529 2.0050688 74
-0.11915524 -0.038891543 2.0010643 53
-0.20874648 -0.066951111 1.9983203 73
-0.48463747 -0.16378784 2.0057559 39
-0.47982779 -0.16234115 1.4317083 52
-0.88644475 -0.30023378 1.9981228 80
-1.1205989 -0.37953344 2.0054085 89
-1.4013213 -0.47460467 2.0331662 24
-1.680459 -0.56913918 2.0016804 83
-1.8565691 -0.63420624 2.0077524 40
-2.257406 -0.77112818 2.0051763 32
-2.7681293 -0.94505018 2.0023305 64
-3.4686468 -1.1842054 2.004324 63
-4.5813746 -1.5632002 2.0440972 14
-6.1845598 -2.1090131 2.0093668 14
-9.5172119 -3.2454884 2.0005455 22
-9.5263901 -3.2467625 0.99472153 40
-2.0539515 -0.69842774 2.0127075 37
-2.4900415 -0.84623027 1.9984947 73
-3.1039908 -1.0548743 2.0113168 67
-3.9202905 -1.3315253 2.0013998 50
-5.1833892 -1.7595266 1.9932135 16
-7.4569097 -2.5298314 1.9899074 25
-9.7267942 -3.2980192 1.5228784 88
-3.0753229 -1.0421391 0.22466049 8
-0.029810073 -0.0095650926 1.9941976 64
-0.29780495 -0.099145114 1.9958843 76
-0.39237741 -0.1316303 2.0131991 77
-0.48396552 -0.16270879 1.6784821 38
-0.55651021 -0.18719728 1.4428096 39
-0.99940693 -0.33635122 1.9989488 81
-1.2461315 -0.41938049 2.0036924 25
-1.5271109 -0.51393783 2.0050688 73
-0.11929027 -0.038475379 2.0010643 51
-0.20897891 -0.066222034 1.9983203 77
-0.48520628 -0.16209516 2.0057559 39
-0.48039153 -0.16066526 1.4317083 52
-0.88748729 -0.29713768 1.9981228 78
-1.1219169 -0.3756195 2.0054085 91
-1.4029695 -0.46971023 2.0331662 25
-1.6824353 -0.56326979 2.0016804 83
-1.8587714 -0.62772173 2.0077524 40
-2.2600839 -0.76324362 2.0051763 32
-2.7714112 -0.93538183 2.0023305 64
-3.4727592 -1.1720905 2.004324 62
-4.5868034 -1.5471987 2.0440972 14
-6.1827917 -2.084347 2.0065484 13
-9.542448 -3.2169552 2.0033436 23
-9.5282259 -3.210309 0.99382907 39
-2.0563769 -0.69125384 2.0127075 37
-2.4929805 -0.8375333 1.9984947 73
-3.1076541 -1.0440329 2.0113168 67
-3.9249144 -1.3178329 2.0013998 50
-5.1850224 -1.7399201 1.9915709 16
-7.4656949 -2.5037868 1.9899074 25
-9.7288561 -3.2608984 1.5214988 85
-3.0742049 -1.0298109 0.22445896 9
-0.02984328 -0.0094609782 1.9941976 62
-0.29814923 -0.098104984 1.9958843 76
-0.39283451 -0.13025987 2.0131991 81
-0.48453054 -0.16101845 1.6784821 38
-0.55716026 -0.18525356 1.4428096 39
-1.0005749 -0.33286059 1.9989488 83
-1.2502581 -0.41591641 2.0078254 25
-1.5288955 -0.50860411 2.0050688 78
-0.11942385 -0.038058743 2.0010643 51
-0.20920879 -0.065492161 1.9983203 77
-0.48457474 -0.16000617 2.0009167 38
-0.48094943 -0.15898739 1.4317083 56
-0.88851911 -0.29403797 1.9981228 80
-1.123221 -0.371701 2.0054085 91
-1.4017391 -0.46386328 2.0291767 26
-1.6843913 -0.55739355 2.0016804 85
-1.8643341 -0.6223588 2.0112567 39
-2.2627344 -0.75534976 2.0051763 32
-2.7746596 -0.92570204 2.0023305 64
-3.4768295 -1.1599611 2.004324 62
-4.5877776 -1.5297117 2.0422242 14
-6.1900296 -2.0627522 2.0065484 11
-9.5675993 -3.1882854 2.0061414 25
-9.5299234 -3.173882 0.99293667 42
-2.0587773 -0.68407154 2.0127075 38
-2.4958887 -0.82882607 1.9984947 75
-3.1112795 -1.0331788 2.0113168 67
-3.9294908 -1.3041245 2.0013998 50
-5.2000289 -1.7247838 1.9948562 26
-7.479003 -2.4792409 1.9910797 25
-9.7401791 -3.2269185 1.5214988 78
-3.0777807 -1.0190736 0.22445896 9
-0.029876124 -0.0093567483 1.9941976 62
-0.29848984 -0.097063646 1.9958843 76
-0.39328682 -0.12888782 2.0131991 87
-0.48508963 -0.15932612 1.6784821 38
-0.55780351 -0.18330757 1.4428096 39
-1.0017307 -0.32936591 1.9989488 81
-1.2570487 -0.41330749 2.0160913 26
-1.5306616 -0.50326419 2.0050688 78
-0.11955597 -0.037641644 2.0010643 53
-0.20994642 -0.06491857 2.0032918 78
-0.48513031 -0.15831371 2.0009167 38
-0.48150149 -0.15730761 1.4317083 58
-0.88954002 -0.29093468 1.9981228 80
-1.1245117 -0.36777797 2.0054085 91
-1.400485 -0.45803058 2.025187 26
-1.6863267 -0.55151057 2.0016804 83
-1.8664953 -0.61584729 2.0112567 38
-2.2653573 -0.74744678 2.0051763 31
-2.777874 -0.9160111 2.0023305 64
-3.485065 -1.149205 2.0066421 62
-4.5930896 -1.5136882 2.0422242 15
-6.1926355 -2.0396316 2.0051391 11
-9.6019993 -3.1625521 2.0108044 25
-9.5362139 -3.13904 0.99249041 41
-2.0611525 -0.6768809 2.0127075 37
-2.4987667 -0.82010871 1.9984947 73
-3.1148672 -1.022312 2.0113168 67
-3.9340186 -1.2903999 2.0013998 50
-5.210505 -1.7080928 1.9964989 46
-7.4876118 -2.453119 1.9910797 26
-9.7466793 -3.1913586 1.5208091 71
-3.0765712 -1.0067703 0.22425744 9
-0.029908601 -0.0092524039 1.9941976 64
-0.29956663 -0.096258648 2.0008237 71
-0.39373431 -0.1275142 2.0131991 91
-0.48564285 -0.15763189 1.6784821 38
-0.55843997 -0.18135937 1.4428096 39
-1.0028744 -0.32586721 1.9989488 81
-1.2638363 -0.41065621 2.0243571 27
-1.5324091 -0.4979181 2.0050688 80
-0.11968663 -0.037224084 2.0010643 53
-0.21017176 -0.064185329 2.0032918 82
-0.48448282 -0.15623336 1.9960775 38
-0.48204765 -0.15562589 1.4317083 64
-0.8905502 -0.28782782 1.9981228 78
-1.1257887 -0.36385044 2.0054085 89
-1.4020753 -0.45313913 2.025187 27
-1.6882415 -0.5456208 2.0016804 83
-1.8720241 -0.61043382 2.0147614 38
-2.2679527 -0.73953462 2.0051763 31
-2.7810545 -0.90630883 2.0023305 64
-3.4890552 -1.1370327 2.0066421 62
-4.5939379 -1.4962105 2.0403512 15
-6.1997175 -2.018003 2.0051391 13
-9.6129799 -3.1290157 2.0108044 26
-9.5376415 -3.1026523 0.99159801 43
-2.0635028 -0.66968203 2.0127075 37
-2.5016143 -0.8113814 1.9984947 73
-3.114316 -1.0101029 2.0087843 67
-3.9384992 -1.2766597 2.0013998 51
-5.2209282 -1.6913497 1.9981416 45
-7.5007534 -2.4284647 1.9922521 27
-9.7530479 -3.1557922 1.5201193 68
-3.0800669 -0.99602479 0.22425744 11
-0.029939121 -0.0091531724 1.9941976 62
-0.2998842 -0.095264718 2.0008237 71
-0.394155 -0.12620783 2.0131991 91
-0.48474076 -0.15556425 1.6737103 38
-0.55903834 -0.17950651 1.4428096 39
-1.0039494 -0.32253978 1.9989488 81
-1.2732286 -0.40904501 2.0367558 28
-1.5340518 -0.4928337 2.0050688 80
-0.11980298 -0.036847897 2.0010643 53
-0.21088368 -0.063678436 2.0082631 82
-0.48497126 -0.15471053 1.9960775 38
-0.4825342 -0.15411074 1.4317083 66
-0.89149982 -0.28487307 1.9981228 78
-1.1269891 -0.3601152 2.0054085 89
-1.4006994 -0.44756988 2.0211978 28
-1.6899472 -0.54031438 2.0016804 83
-1.8740381 -0.60422266 2.0147614 39
-2.2703924 -0.73200983 2.0051763 31
-2.7840447 -0.89708155 2.0023305 64
-3.4928064 -1.1254566 2.0066421 64
-4.5942035 -1.4803491 2.0384781 16
-6.2014599 -1.9970454 2.0037298 14
-9.6233034 -3.0971208 2.0108044 27
-9.5383978 -3.0679579 0.99070561 44
-2.0657122 -0.66283548 2.0127075 37
-2.5042911 -0.80308133 1.9984947 73
-3.1174738 -1.000314 2.0087843 67
-3.9468117 -1.265666 2.0034976 50
-5.2307129 -1.6763806 1.9997842 45
-7.5129738 -2.4063709 1.9934242 28
-9.7629137 -3.1251366 1.5201193 66
-3.087939 -0.98786592 0.22445896 13
-0.029970888 -0.00904861 1.9941976 62
-0.30095631 -0.094449833 2.0057628 71
-0.39459315 -0.12483121 2.0131991 89
-0.48528087 -0.15387125 1.6737103 38
-0.55966151 -0.17755401 1.4428096 40
-1.0050693 -0.31903338 1.9989488 81
-1.2826953 -0.40715218 2.0491548 27
-1.5357627 -0.48747584 2.0050688 76
-0.12021445 -0.036492188 2.0060561 55
-0.21111566 -0.062905081 2.0082631 89
-0.48433533 -0.15255417 1.9912384 37
-0.48309579 -0.15234111 1.4317083 62
-0.89248878 -0.28175941 1.9981228 78
-1.1282393 -0.35617906 2.0054085 89
-1.4022532 -0.4426778 2.0211978 29
-1.6919163 -0.53411674 2.0016804 85
-1.8761358 -0.59767729 2.0147614 39
-2.272934 -0.72408015 2.0051763 31
-2.787159 -0.88735801 2.0023305 64
-3.4967136 -1.1132575 2.0066421 64
-4.5995979 -1.4635004 2.0384781 17
-6.2087383 -1.9743025 2.0037298 16
-9.6293745 -3.0620215 2.0098717 28
-9.5348091 -3.0301187 0.98936695 41
-2.0680134 -0.65562075 2.0127075 37
-2.5070789 -0.79433477 1.9984947 73
-3.121119 -0.98888123 2.0087843 67
-3.9514241 -1.2511919 2.0034976 50
-5.2413244 -1.6586226 2.0014269 45
-7.5263777 -2.3802841 1.9945965 27
-9.7743025 -3.0893331 1.5201193 60
-3.0915391 -0.97654134 0.22445896 10
-0.03000229 -0.0089439368 1.9941976 62
-0.30128416 -0.093398727 2.0057628 71
-0.3950265 -0.12345306 2.0131991 91
-0.48438972 -0.15172997 1.6689386 38
-0.56027788 -0.17559934 1.4428096 40
-1.0061767 -0.31552309 1.9989488 81
-1.2894789 -0.40435618 2.0574207 28
-1.537455 -0.48211205 2.0050688 78
-0.12034111 -0.03607234 2.0060561 55
-0.21133396 -0.062167764 2.0082631 91
-0.48486489 -0.1508626 1.9912384 37
-0.48362461 -0.15065387 1.4317083 60
-0.89346683 -0.2786423 1.9981228 78
-1.1294756 -0.3522386 2.0054085 87
-1.4009126 -0.43688306 2.0172081 30
-1.6970068 -0.52921689 2.0053556 86
-1.8782105 -0.59112477 2.0147614 39
-2.2754474 -0.71614176 2.0051763 31
-2.7902396 -0.87762362 2.0023305 58
-3.5005784 -1.1010449 2.0066421 63
-4.600256 -1.4460458 2.0366051 17
-6.2110152 -1.9511803 2.0023208 19
-9.6400042 -3.0283902 2.0098717 32
-9.5358267 -2.9938345 0.98847455 41
-2.0702894 -0.64839804 2.0127075 38
-2.5098364 -0.78557861 1.9984947 73
-3.124552 -0.97798049 2.0087843 67
-3.9557676 -1.2373911 2.0034976 51
-5.2470818 -1.640317 2.0014269 45
-7.5346408 -2.3539975 1.9945965 25
-9.7897539 -3.0566714 1.5208091 60
-3.0996978 -0.96723205 0.22466049 3
-0.030033328 -0.0088391546 1.9941976 62
-0.30160835 -0.092346475 2.0057628 68
-0.39545503 -0.12207341 2.0131991 95
-0.48491639 -0.15003821 1.6689386 38
-0.56088746 -0.17364255 1.4428096 45
-1.0072719 -0.31200895 1.9989488 81
-1.2989465 -0.40235043 2.0698195 28
-1.5391285 -0.47674242 2.0050688 78
-0.12046628 -0.035652053 2.0060561 56
-0.21154967 -0.061429691 2.0082631 91
-0.4841862 -0.14879976 1.9863992 38
-0.48414758 -0.14896479 1.4317083 56
-0.89443403 -0.27552184 1.9981228 80
-1.1306983 -0.34829384 2.0054085 87
-1.4024291 -0.4319903 2.0172081 32
-1.6988438 -0.52328998 2.0053556 86
-1.8802626 -0.58456492 2.0147614 38
-2.2779334 -0.70819455 2.0051763 31
-2.7932861 -0.8678785 2.0023305 58
-3.5044005 -1.0888189 2.0066421 63
-4.6008482 -1.4286042 2.0347321 18
-6.2177887 -1.9294879 2.0023208 21
-9.6505175 -2.9947219 2.0098717 37
-9.536705 -2.9575796 0.98758215 42
-2.07254 -0.64116746 2.0127075 37
-2.5125635 -0.77681285 1.9984947 73
-3.1279466 -0.96706784 2.0087843 67
-3.9600627 -1.2235755 2.0034976 50
-5.2527761 -1.621991 2.0014269 45
-7.5474563 -2.3291156 1.9957689 24
-9.8098278 -3.0253987 1.5221887 57
-3.1030552 -0.95640624 0.22466049 3
-0.030064 -0.0087342653 1.9941976 62
-0.30192885 -0.091293104 2.0057628 62
-0.39587876 -0.12069228 2.0131991 93
-0.48400885 -0.14790821 1.6641669 38
-0.56335837 -0.1722548 1.447412 47
-1.0083549 -0.30849102 1.9989488 81
-1.3030339 -0.398637 2.0739524 28
-1.5407833 -0.47136697 2.0050688 78
-0.12059 -0.03523133 2.0060561 56
-0.2117628 -0.060690876 2.0082631 91
-0.48470265 -0.14710872 1.9863992 38
-0.48466462 -0.14727388 1.4317083 56
-0.89539027 -0.27239799 1.9981228 80
-1.1319072 -0.34434485 2.0054085 89
-1.4010448 -0.42621511 2.0132186 34
-1.7006601 -0.51735669 2.0053556 86
-1.8857007 -0.57904488 2.018266 38
-2.2803915 -0.70023882 2.0051763 31
-2.8002958 -0.85934949 2.0050719 64
-3.5039444 -1.0752798 2.004324 57
-4.6013746 -1.4111763 2.0328591 19
-6.2198992 -1.9063663 2.0009115 22
-9.6609116 -2.9610169 2.0098717 43
-9.537447 -2.9213552 0.98668975 42
-2.0747654 -0.63392907 2.0127075 37
-2.5152597 -0.76803762 1.9984947 73
-3.1354265 -0.95740235 2.0113168 68
-3.9643097 -1.2097447 2.0034976 50
-5.2538886 -1.6022681 1.9997842 45
-7.555541 -2.3027561 1.9957689 22
-9.8298035 -2.9940233 1.5235683 54
-3.1254923 -0.95138794 0.22546661 13
-0.030094303 -0.008629269 1.9941976 62
-0.30224571 -0.090238616 2.0057628 54
-0.3962976 -0.11930966 2.0131991 93
-0.48452222 -0.14621781 1.6641669 38
-0.5639562 -0.17028727 1.447412 51
-1.0094256 -0.30496931 1.9989488 83
-1.3098052 -0.39571378 2.0822184 28
-1.5424192 -0.46598572 2.0050688 78
-0.12071225 -0.034810174 2.0060561 56
-0.21145941 -0.05980666 2.0032918 93
-0.48521319 -0.1454159 1.9863992 38
-0.48517573 -0.1455812 1.4317083 52
-0.89633578 -0.26927084 1.9981228 80
-1.1331023 -0.34039167 2.0054085 91
-1.3996376 -0.42045486 2.0092292 35
-1.7024558 -0.51141715 2.0053556 86
-1.8877105 -0.57245898 2.018266 38
-2.2828219 -0.69227445 2.0051763 31
-2.8032784 -0.84956944 2.0050719 64
-3.5076766 -1.0630422 2.004324 57
-4.6018357 -1.3937622 2.0309861 19
-6.2265158 -1.8846432 2.0009115 23
-9.6711874 -2.9272761 2.0098717 48
-9.5380526 -2.8851616 0.98579729 41
-2.0769656 -0.62668288 2.0127075 37
-2.5179253 -0.75925303 1.9984947 73
-3.1387491 -0.94645178 2.0113168 67
-3.9728537 -1.1972089 2.0055959 50
-5.2594495 -1.5839188 1.9997842 48
-7.5681868 -2.2777689 1.9969412 21
-9.8496799 -2.9625456 1.524948 53
-3.1622858 -0.95053917 0.22687733 80
-0.030124243 -0.0085241683 1.9941976 64
-0.30255884 -0.08918304 2.0057628 50
-0.39671165 -0.11792559 2.0131991 93
-0.48502964 -0.14452562 1.6641669 38
-0.56641948 -0.1688758 1.4520147 53
-1.010484 -0.30144387 1.9989488 81
-1.3138751 -0.39194369 2.0863512 28
-1.5440365 -0.46059886 2.0050688 78
-0.12083302 -0.034388602 2.0060561 56
-0.2116669 -0.059068158 2.0032918 95
-0.48571786 -0.14372131 1.9863992 38
-0.48568094 -0.14388673 1.4317083 50
-0.89727014 -0.2661404 1.9981228 80
-1.1342837 -0.3364343 2.0054085 91
-1.4010968 -0.41556662 2.0092292 37
-1.7042304 -0.50547135 2.0053556 88
-1.8896973 -0.56586623 2.018266 39
-2.2852244 -0.68430179 2.0051763 31
-2.8062267 -0.83977896 2.0050719 64
-3.5113659 -1.0507917 2.004324 62
-4.6022315 -1.3763621 2.0291131 19
-6.2330565 -1.8628972 2.0009115 27
-9.6813478 -2.8934996 2.0098717 52
-9.5385227 -2.8489995 0.98490483 44
-2.0791404 -0.61942911 2.0127075 37
-2.5205603 -0.75045925 1.9984947 71
-3.1420341 -0.93548977 2.0113168 67
-3.9770088 -1.1833338 2.0055959 47
-5.2649465 -1.5655504 1.9997842 46
-7.5807514 -2.2527218 1.9981135 20
-9.8694553 -2.9309654 1.5263276 53
-3.2182686 -0.95513076 0.22909418 56
-0.030153815 -0.0084189624 1.9941976 62
-0.30286831 -0.088126369 2.0057628 49
-0.39712089 -0.11654009 2.0131991 89
-0.48409832 -0.14241023 1.6593952 38
-0.57075387 -0.1680008 1.4612198 55
-1.01153 -0.29791483 1.9989488 83
-1.3179345 -0.38815001 2.0904844 29
-1.5456347 -0.45520633 2.0050688 69
-0.12095232 -0.033966605 2.0060561 55
-0.2118718 -0.058328941 2.0032918 95
-0.48621657 -0.14202496 1.9863992 39
-0.48618022 -0.1421905 1.4317083 50
-0.89819372 -0.26300675 1.9981228 78
-1.1354511 -0.33247289 2.0054085 91
-1.3996464 -0.40982646 2.0052397 38
-1.7059845 -0.49951938 2.0053556 88
-1.8916609 -0.55926645 2.018266 39
-2.2875993 -0.67632067 2.0051763 31
-2.8091412 -0.82997835 2.0050719 64
-3.5150125 -1.0385283 2.004324 62
-4.607008 -1.3602889 2.0291131 19
-6.2395215 -1.8411283 2.0009115 29
-9.686677 -2.8582971 2.008939 57
-9.5388556 -2.8128693 0.98401242 44
-2.08129 -0.61216778 2.0127075 37
-2.5231643 -0.7416563 1.9984947 73
-3.1452801 -0.92451638 2.0113168 67
-3.9811151 -1.1694442 2.0055959 47
-5.2703795 -1.5471627 1.9997842 46
-7.5978966 -2.2289827 2.0004582 18
-9.8843784 -2.8978901 1.5270175 53
-3.2887046 -0.96355689 0.23191562 10
-0.030183019 -0.008313654 1.9941976 60
-0.30392092 -0.087282918 2.0107021 43
-0.39752525 -0.11515318 2.0131991 89
-0.4845925 -0.14071955 1.6593952 38
-0.57321292 -0.16655253 1.4658222 56
-1.0125638 -0.2943821 1.9989488 81
-1.3192815 -0.38354719 2.0904844 30
-1.5472144 -0.44980833 2.0050688 57
-0.12079097 -0.033467352 2.0010643 55
-0.2120741 -0.057589021 2.0032918 95
-0.48550078 -0.1399785 1.9815599 39
-0.48667362 -0.14049256 1.4317083 50
-0.89910632 -0.25986984 1.9981228 80
-1.1366047 -0.32850739 2.0054085 91
-1.4010684 -0.40493828 2.0052397 40
-1.7077178 -0.49356136 2.0053556 88
-1.8936018 -0.55265993 2.018266 38
-2.2899463 -0.66833127 2.0051763 31
-2.8120213 -0.82016754 2.0050719 63
-3.5228693 -1.0274928 2.0066421 63
-4.6072764 -1.3429018 2.02724 20
-6.2459102 -1.8193371 2.0009115 29
-9.6965952 -2.8244669 2.008939 63
-9.5390539 -2.7767718 0.98312008 43
-2.0834143 -0.60489899 2.0127075 37
-2.525738 -0.73284429 1.9984947 69
-3.1484883 -0.9135316 2.0113168 67
-3.985173 -1.1555403 2.0055959 47
-5.2802835 -1.5300707 2.0014269 47
-7.6102996 -2.2037997 2.0016305 18
-9.894433 -2.8633695 1.5270175 50
-3.3064456 -0.95623511 0.23252019 7
-0.030211855 -0.008208246 1.9941976 60
-0.30422378 -0.086221509 2.0107021 39
-0.39792481 -0.11376484 2.0131991 89
-0.48364496 -0.13861571 1.6546235 38
-0.57754678 -0.16562763 1.4750273 66
-1.0135852 -0.29084578 1.9989488 81
-1.3233171 -0.37971577 2.0946171 30
-1.5487751 -0.44440475 2.0050688 39
-0.12090706 -0.033045508 2.0010643 55
-0.21227384 -0.056848388 2.0032918 95
-0.48598644 -0.13828291 1.9815599 39
-0.48716107 -0.1387929 1.4317083 50
-0.90000796 -0.25672981 1.9981228 80
-1.1377444 -0.3245379 2.0054085 89
-1.3995749 -0.39921844 2.00125 46
-1.7094302 -0.48759732 2.0053556 86
-1.8955193 -0.54604661 2.018266 38
-2.2922652 -0.66033381 2.0051763 31
-2.814867 -0.81034672 2.0050719 63
-3.5264344 -1.0151894 2.0066421 63
-4.6119361 -1.3268112 2.02724 22
-6.2522225 -1.797524 2.0009115 19
-9.7016745 -2.7892454 2.0080066 69
-9.539115 -2.7407067 0.98222762 41
-2.0855131 -0.59762281 2.0127075 37
-2.5282807 -0.72402328 1.9984947 73
-3.1516581 -0.90253574 2.0113168 67
-3.9891825 -1.1416223 2.0055959 44
-5.2855926 -1.5116297 2.0014269 45
-7.6272926 -2.1798928 2.0039752 17
-9.9043684 -2.828814 1.5270175 50
-3.3049595 -0.94331652 0.23231867 6
-0.030240323 -0.0081027364 1.9941976 60
-0.30452287 -0.085159041 2.0107021 39
-0.39831948 -0.11237513 2.0131991 93
-0.48412588 -0.13692665 1.6546235 38
-0.58000118 -0.16414253 1.4796298 69
-1.0145943 -0.28730595 1.9989488 81
-1.3246343 -0.37509423 2.0946171 31
-1.5503168 -0.43899584 2.0050688 23
-0.12102168 -0.032623261 2.0010643 53
-0.21298739 -0.056242742 2.0082631 96
-0.48646617 -0.13658567 1.9815599 39
-0.48764259 -0.13709155 1.4317083 52
-0.90089864 -0.25358662 1.9981228 81
-1.1388704 -0.32056448 2.0054085 91
-1.4009598 -0.39433059 2.00125 40
-1.7111218 -0.48162735 2.0053556 86
-1.8974138 -0.53942674 2.018266 39
-2.2983007 -0.65339285 2.0083144 31
-2.8176785 -0.80051613 2.0050719 63
-3.5299566 -1.0028738 2.0066421 63
-4.6120801 -1.3094383 2.0253668 23
-6.2538443 -1.774379 1.9995023 15
-9.7113523 -2.7553632 2.0080066 73
-9.5342503 -2.7033169 0.98088896 22
-2.0911796 -0.5913555 2.0160325 37
-2.5307925 -0.71519351 1.9984947 73
-3.1547892 -0.89152896 2.0113168 67
-3.9931431 -1.1276908 2.0055959 39
-5.2908368 -1.4931704 2.0014269 45
-7.6442118 -2.155894 2.0063198 16
-9.9141827 -2.794224 1.5270175 49
-3.3082318 -0.93177432 0.23231867 6
-0.030268423 -0.0079971291 1.9941976 62
-0.3048183 -0.084095553 2.0107021 38
-0.39870933 -0.11098405 2.0131991 95
-0.4846009 -0.13523589 1.6546235 38
-0.58433396 -0.16316772 1.4888349 73
-1.015591 -0.2837626 1.9989488 81
-1.3259356 -0.37046811 2.0946171 32
-1.5518397 -0.43358153 2.0050688 23
-0.12113482 -0.032200616 2.0010643 51
-0.2131824 -0.055498932 2.0082631 97
-0.48693997 -0.13488676 1.9815599 39
-0.48978105 -0.13584968 1.4364011 52
-0.89967996 -0.24985763 1.9936218 81
-1.1399825 -0.31658709 2.0054085 89
-1.4052321 -0.39024439 2.0052397 39
-1.7127925 -0.47565144 2.0053556 86
-1.8992851 -0.53280026 2.018266 38
-2.3005674 -0.64536637 2.0083144 31
-2.8204558 -0.7906757 2.0050719 61
-3.5334358 -0.99054575 2.0066421 63
-4.6121593 -1.2920808 2.023494 25
-6.2599993 -1.7525382 1.9995023 14
-9.7161808 -2.7201231 2.0070741 75
-9.5340376 -2.6673365 0.97999662 16
-2.093231 -0.58405226 2.0160325 37
-2.5332737 -0.70635509 1.9984947 71
-3.157882 -0.88051122 2.0113168 67
-3.9970551 -1.1137451 2.0055959 39
-5.2960167 -1.4746927 2.0014269 45
-7.661056 -2.1318035 2.0086646 16
-9.9238758 -2.7595999 1.5270175 49
-3.2922103 -0.9148702 0.23151255 71
-0.030296152 -0.007891424 1.9941976 62
-0.30585977 -0.083234869 2.0156415 36
-0.39811242 -0.10932209 2.0083039 93
-0.48363003 -0.13314712 1.6498517 38
-0.58866704 -0.16216463 1.4980398 80
-1.0165753 -0.28021583 1.9989488 81
-1.3272208 -0.36583751 2.0946171 31
-1.5533439 -0.42816201 2.0050688 31
-0.12124648 -0.031777583 2.0010643 51
-0.21389216 -0.054886509 2.0132346 98
-0.48619452 -0.13285471 1.9767207 40
-0.49025226 -0.1341392 1.4364011 54
-0.90054667 -0.24671564 1.9936218 81
-1.1410806 -0.31260586 2.0054085 89
-1.4065858 -0.38533682 2.0052397 38
-1.7177123 -0.47056553 2.0090308 86
-1.9011333 -0.52616727 2.018266 38
-2.3028061 -0.6373319 2.0083144 31
-2.8231986 -0.78082561 2.0050719 55
-3.5368719 -0.97820568 2.0066421 63
-4.616641 -1.2759734 2.023494 25
-6.2707033 -1.7319533 2.0009115 32
-9.7208815 -2.6848831 2.0061414 77
-9.5384893 -2.632715 0.97955036 48
-2.095257 -0.57674205 2.0160325 38
-2.5357239 -0.69750798 1.9984947 71
-3.1609364 -0.86948282 2.0113168 67
-4.0009184 -1.099786 2.0055959 37
-5.3011317 -1.4561971 2.0014269 47
-7.6778259 -2.1076219 2.0110092 15
-9.9334478 -2.7249424 1.5270175 55
-3.2905655 -0.90205187 0.23131102 86
-0.030323513 -0.007785622 1.9941976 58
-0.30614847 -0.082166709 2.0156415 36
-0.39849162 -0.10793176 2.0083039 93
-0.48409185 -0.13145812 1.6498517 38
-0.59300017 -0.16113326 1.5072449 88
-1.0175472 -0.27666557 1.9989488 81
-1.3284897 -0.36120239 2.0946171 31
-1.554829 -0.42273718 2.0050688 38
-0.12135667 -0.031354159 2.0010643 49
-0.21408245 -0.054139547 2.0132346 99
-0.48665529 -0.13115677 1.9767207 42
-0.49071753 -0.1324271 1.4364011 56
-0.90140235 -0.24357067 1.9936218 83
-1.1421648 -0.3086209 2.0054085 89
-1.4079223 -0.38042462 2.0052397 37
-1.7193445 -0.4645668 2.0090308 83
-1.9029585 -0.51952791 2.018266 39
-2.3087723 -0.63031501 2.011452 31
-2.825907 -0.77096605 2.0050719 50
-3.5402651 -0.96585375 2.0066421 63
-4.6165943 -1.258631 2.021621 26
-6.2767105 -1.7100539 2.0009115 32
-9.7254553 -2.6496434 2.0052087 82
-9.5380106 -2.596787 0.97865796 43
-2.1008615 -0.57040322 2.0193572 38
-2.5381432 -0.68865246 1.9984947 71
-3.1639521 -0.85844386 2.0113168 65
-4.0091133 -1.0870011 2.007694 35
-5.3061829 -1.4376839 2.0014269 47
-7.6945186 -2.0833488 2.0133536 15
-9.9476786 -2.6915448 1.5277071 56
-3.2840486 -0.88795215 0.23090795 86
-0.030350506 -0.007679726 1.9941976 58
-0.30718458 -0.081296168 2.0205805 35
-0.39886594 -0.10654011 2.0083039 93
-0.48454776 -0.12976752 1.6498517 38
-0.60676855 -0.16260183 1.5394626 96
-1.0185069 -0.273112 1.9989488 81
-1.3297424 -0.35656291 2.0946171 32
-1.556295 -0.41730726 2.0050688 50
-0.12146537 -0.030930355 2.0010643 49
-0.21427014 -0.053391933 2.0132346 99
-0.48589453 -0.12913424 1.9718815 42
-0.48950914 -0.13026963 1.4317083 52
-0.90435141 -0.2409834 1.9981228 86
-1.1432352 -0.3046321 2.0054085 89
-1.4092416 -0.37550771 2.0052397 36
-1.7209556 -0.45856225 2.0090308 71
-1.9047605 -0.51288211 2.018266 38
-2.3109586 -0.62225199 2.011452 31
-2.8285809 -0.76109713 2.0050719 39
-3.5436149 -0.95349002 2.0066421 63
-4.6164827 -1.2413048 2.0197477 26
-6.2872739 -1.6893785 2.0023208 32
-9.7299013 -2.614404 2.004276 85
-9.5422068 -2.5621858 0.9782117 43
-2.1028399 -0.56306636 2.0193572 37
-2.5405316 -0.67978853 1.9984947 73
-3.1669295 -0.84739435 2.0113168 65
-4.0128832 -1.0730002 2.007694 33
-5.3111691 -1.4191531 2.0014269 45
-7.7111368 -2.0589855 2.0156984 15
-9.9570131 -2.6568046 1.5277071 58
-3.2823009 -0.87519616 0.23070642 86
-0.030377129 -0.0075737359 1.9941976 58
-0.30746651 -0.080223396 2.0205805 34
-0.3992354 -0.10514715 2.0083039 93
-0.48499778 -0.12807535 1.6498517 38
-0.61299896 -0.16197996 1.5532701 97
-1.019454 -0.26955506 1.9989488 81
-1.3309789 -0.35191905 2.0946171 32
-1.5577422 -0.41187218 2.0050688 73
-0.1215726 -0.030506175 2.0010643 53
-0.2144552 -0.052643664 2.0132346 99
-0.48634234 -0.12743735 1.9718815 40
-0.48996088 -0.12856013 1.4317083 54
-0.90518719 -0.23782517 1.9981228 90
-1.1442915 -0.30063963 2.0054085 89
-1.4076287 -0.36982042 2.00125 35
-1.7225457 -0.45255226 2.0090308 50
-1.909986 -0.50714535 2.0217705 37
-2.3131166 -0.61418146 2.011452 31
-2.8312204 -0.75121886 2.0050719 37
-3.5469215 -0.94111472 2.0066421 63
-4.6163063 -1.2239944 2.0178747 28
-6.2931328 -1.6674216 2.0023208 33
-9.7342196 -2.5791664 2.0033436 91
-9.546278 -2.5275869 0.9777655 47
-2.1047926 -0.55572265 2.0193572 37
-2.5428889 -0.67091626 1.9984947 73
-3.169868 -0.83633453 2.0113168 65
-4.0209932 -1.0601431 2.0097921 31
-5.3160906 -1.400605 2.0014269 45
-7.7276778 -2.0345309 2.018043 14
-9.9662275 -2.6220319 1.5277071 58
-3.280504 -0.86246318 0.2305049 86
-0.030402075 -0.0074729603 1.9941976 60
-0.30773085 -0.07920336 2.0205805 34
-0.40056738 -0.10407863 2.0131991 93
-0.48397455 -0.12608986 1.64508 38
-0.62676615 -0.16339581 1.5854878 98
-1.0226605 -0.26677769 2.0033376 83
-1.3321387 -0.34750342 2.0946171 32
-1.5590996 -0.40670428 2.0050688 74
-0.12166784 -0.030124092 2.0010643 55
-0.21461953 -0.051969677 2.0132346 100
-0.48674029 -0.12590884 1.9718815 40
-0.49036235 -0.12702024 1.4317083 50
-0.90597075 -0.23482212 1.9981228 92
-1.1452823 -0.29684335 2.0054085 89
-1.4088471 -0.36515051 2.00125 35
-1.723959 -0.44713849 2.0090308 19
-1.9116572 -0.50080884 2.0217705 38
-2.3151405 -0.60650754 2.011452 30
-2.8336961 -0.74182612 2.0050719 34
-3.5500228 -0.92934757 2.0066421 63
-4.6156449 -1.208312 2.0160019 29
-6.3029809 -1.6488569 2.0037298 33
-9.7379656 -2.54563 2.0024109 92
-9.5449696 -2.4933989 0.97687304 44
-2.1066239 -0.54873985 2.0193572 38
-2.5490112 -0.66349816 2.0014381 71
-3.1724799 -0.82637191 2.0113168 67
-4.0286961 -1.0486488 2.0118899 29
-5.3204646 -1.3838971 2.0014269 47
-7.7387362 -2.0114665 2.0192153 14
-9.9696226 -2.5894644 1.5270175 64
-3.2831974 -0.85215294 0.2305049 88
-0.030427977 -0.0073667918 1.9941976 60
-0.30725223 -0.077937827 2.0156415 35
-0.40092826 -0.10267976 2.0131991 89
-0.48441172 -0.12439971 1.64508 38
-0.6462546 -0.16606884 1.6315131 99
-1.0235856 -0.2632063 2.0033376 83
-1.336069 -0.34355208 2.0987501 32
-1.5605097 -0.40125951 2.0050688 76
-0.12177742 -0.029677955 2.0010643 55
-0.21480857 -0.051182706 2.0132346 102
-0.4871985 -0.124124 1.9718815 39
-0.48915243 -0.12479559 1.4270155 50
-0.9088949 -0.23219727 2.0026236 92
-1.1463114 -0.29284376 2.0054085 87
-1.4101132 -0.36023048 2.00125 35
-1.7255863 -0.44081682 2.0090308 19
-1.9099407 -0.49324113 2.018266 38
-2.3172433 -0.59842247 2.011452 30
-2.8362682 -0.73193014 2.0050719 31
-3.5532453 -0.91695005 2.0066421 64
-4.6155524 -1.1902288 2.0141287 30
-6.3089814 -1.6257441 2.0037298 33
-9.7420349 -2.5103967 2.0014782 96
-9.5487938 -2.4588242 0.9764269 44
-2.1085265 -0.54138303 2.0193572 38
-2.551312 -0.65459639 2.0014381 71
-3.1754873 -0.81473869 2.0113168 68
-4.0325122 -1.0338758 2.0118899 29
-5.3300753 -1.3655595 2.0030696 47
-7.7554741 -1.9855002 2.02156 15
-9.9790459 -2.5529065 1.5270175 66
-3.2814584 -0.83887625 0.23030338 88
-0.030496087 -0.0072700586 1.9991974 58
-0.30752242 -0.076864839 2.0156415 36
-0.40128425 -0.10127963 2.0131991 89
-0.48339513 -0.12234166 1.6403083 38
-0.66576916 -0.16860776 1.6775383 98
-1.0244981 -0.25963175 2.0033376 83
-1.3372601 -0.33888626 2.0987501 32
-1.5619009 -0.39580992 2.0050688 76
-0.12188029 -0.029252691 2.0010643 53
-0.21498591 -0.050432574 2.0132346 103
-0.48762879 -0.12242261 1.9718815 39
-0.4895851 -0.12308736 1.4270155 50
-0.90969992 -0.22902322 2.0026236 90
-1.1473267 -0.28884062 2.0054085 87
-1.4113622 -0.35530606 2.00125 35
-1.7271146 -0.43479073 2.0090308 29
-1.9116507 -0.48657119 2.018266 38
-2.3193183 -0.59033012 2.011452 31
-2.8388057 -0.72202528 2.0050719 26
-3.5564244 -0.90454125 2.0066421 64
-4.610693 -1.1718265 2.0103827 32
-6.3192682 -1.6048928 2.0051391 34
-9.7459774 -2.4751661 2.0005455 96
-9.5476646 -2.4230275 0.9755345 46
-2.1104033 -0.53401959 2.0193572 37
-2.5535815 -0.64568669 2.0014381 73
-3.1824915 -0.80470604 2.0138493 67
-4.0360966 -1.0197934 2.0118899 30
-5.3348098 -1.3469456 2.0030696 47
-7.7670693 -1.9596052 2.0227323 15
-9.9830942 -2.5168471 1.5263276 68
-3.2843668 -0.82741672 0.23030338 89
-0.030521277 -0.0071635633 1.9991974 58
-0.30703434 -0.075605318 2.0107021 37
-0.40163532 -0.099878274 2.0131991 93
-0.48381925 -0.12065356 1.6403083 37
-0.68341351 -0.17053941 1.7189611 98
-1.0253981 -0.25605398 2.0033376 83
-1.3384348 -0.3342163 2.0987501 31
-1.5632731 -0.39035544 2.0050688 74
-0.12198165 -0.028827071 2.0010643 55
-0.21516065 -0.049681824 2.0132346 103
-0.48683211 -0.12041777 1.9670423 39
-0.49001178 -0.12137764 1.4270155 50
-0.91049379 -0.22584639 2.0026236 93
-1.1483278 -0.28483391 2.0054085 89
-1.4125937 -0.35037732 2.00125 35
-1.7286217 -0.42875934 2.0090308 39
-1.9098786 -0.47902775 2.0147614 39
-2.3213649 -0.58223057 2.011452 31
-2.8413086 -0.71211153 2.0050719 26
-3.5595603 -0.89212149 2.0066421 64
-4.6102581 -1.1545988 2.0085096 33
-6.3248324 -1.5828246 2.0051391 34
-9.7450285 -2.4387465 1.9986804 98
-9.5512323 -2.3884771 0.97508824 44
-2.1122546 -0.52664965 2.0193572 37
-2.5558195 -0.63676912 2.0014381 71
-3.1852813 -0.79359221 2.0138493 67
-4.0396318 -1.0056986 2.0118899 31
-5.339479 -1.3283155 2.0030696 47
-7.7785792 -1.9336538 2.0239046 15
-9.9870129 -2.4807906 1.5256377 72
-3.2823858 -0.81474358 0.23010182 89
-0.030546099 -0.0070569804 1.9991974 58
-0.30729637 -0.074533105 2.0107021 38
-0.4019815 -0.098475687 2.0131991 93
-0.48423743 -0.11896399 1.6403083 37
-0.69538778 -0.1709509 1.7465762 97
-1.0262856 -0.25247315 2.0033376 81
-1.3395933 -0.32954222 2.0987501 31
-1.5646261 -0.38489625 2.0050688 76
-0.12208153 -0.028401101 2.0010643 55
-0.21533276 -0.048930474 2.0132346 103
-0.48724949 -0.11871767 1.9670423 39
-0.49043247 -0.11966643 1.4270155 48
-0.91127658 -0.22266679 2.0026236 92
-1.1493152 -0.28082377 2.0054085 89
-1.4167361 -0.3461597 2.0052397 35
-1.7268143 -0.42191803 2.0053556 59
-1.908077 -0.4715026 2.0112567 44
-2.3233831 -0.57412398 2.011452 31
-2.851896 -0.70419389 2.0105548 23
-3.5626526 -0.87969089 2.0066421 52
-4.6097598 -1.1373885 2.0066366 31
-6.3303189 -1.5607373 2.0051391 34
-9.7487125 -2.4035392 1.9977478 99
-9.5498409 -2.3527396 0.97419584 44
-2.1140802 -0.51927334 2.0193572 37
-2.5580268 -0.62784374 2.0014381 71
-3.1880322 -0.78246868 2.0138493 67
-4.0431175 -0.99159151 2.0118899 35
-5.3440828 -1.3096691 2.0030696 46
-7.7852817 -1.9064896 2.0239046 16
-9.9908018 -2.444737 1.524948 73
-3.2997689 -0.80684084 0.23070642 88
-0.030527867 -0.0069412328 1.9941976 58
-0.30755469 -0.07345999 2.0107021 39
-0.401333 -0.096833192 2.0083039 95
-0.48464972 -0.11727294 1.6403083 38
-0.69787902 -0.16898221 1.7511787 97
-1.0271606 -0.24888919 2.0033376 81
-1.3407356 -0.32486418 2.0987501 30
-1.56596 -0.37943232 2.0050688 76
-0.12217993 -0.027974783 2.0010643 56
-0.21550225 -0.04817852 2.0132346 104
-0.48766091 -0.11701613 1.9670423 39
-0.4908472 -0.11795378 1.4270155 50
-0.91204828 -0.21948451 2.0026236 92
-1.1502885 -0.27681023 2.0054085 91
-1.4179358 -0.34121227 2.0052397 35
-1.7282766 -0.41588777 2.0053556 83
-1.9062461 -0.46399587 2.0077524 50
-2.3291552 -0.56693101 2.0145898 31
-2.8746517 -0.69917572 2.0242622 22
-3.5657012 -0.86724961 2.0066421 52
-4.6091971 -1.1201956 2.0047636 31
-6.3357277 -1.5386308 2.0051391 33
-9.7522688 -2.3683357 1.9968151 101
-9.548316 -2.3170416 0.97330338 42
-2.1158798 -0.51189059 2.0193572 37
-2.5602028 -0.61891073 2.0014381 73
-3.1907439 -0.7713356 2.0138493 67
-4.0465541 -0.97747236 2.0118899 35
-5.3532128 -1.2921149 2.0047126 45
-7.7918897 -1.8793023 2.0239046 16
-9.9944601 -2.4086876 1.5242581 75
-3.9388433 -0.94854432 0.25710699 7
-0.03055191 -0.0068346281 1.9941976 56
-0.30780923 -0.072385974 2.0107021 43
-0.40166852 -0.095431685 2.0083039 95
-0.4836033 -0.11523437 1.6355366 38
-0.69656426 -0.16609204 1.7465762 97
-1.0280232 -0.24530223 2.0033376 83
-1.3418614 -0.32018214 2.0987501 30
-1.5672749 -0.3739638 2.0050688 74
-0.12227684 -0.027548125 2.0010643 56
-0.21566911 -0.047425982 2.0132346 104
-0.4868423 -0.11502402 1.9622031 39
-0.49125594 -0.11623969 1.4270155 50
-0.91280895 -0.2162995 2.0026236 92
-1.1512476 -0.27279326 2.0054085 91
-1.4191183 -0.33626065 2.0052397 36
-1.7297179 -0.40985239 2.0053556 86
-1.9078541 -0.45733902 2.0077524 39
-2.33112 -0.5587973 2.0145898 31
-2.8933406 -0.69303304 2.035228 19
-3.568707 -0.8547976 2.0066421 63
-4.6085701 -1.1030205 2.0028906 25
-6.3363948 -1.5153898 2.0037298 33
-9.7556992 -2.333137 1.9958825 101
-9.5515022 -2.2825398 0.97285718 41
-2.1176538 -0.5045017 2.0193572 37
-2.5623477 -0.60997015 2.0014381 73
-3.1934168 -0.76019317 2.0138493 67
-4.0499415 -0.96334136 2.0118899 38
-5.3576908 -1.2734208 2.0047126 45
-7.793673 -1.8509692 2.0227323 16
-9.9931707 -2.3714986 1.5228784 76
-3.9469912 -0.93594211 0.25730851 7
-0.030575585 -0.0067279404 1.9941976 56
-0.30806002 -0.071311086 2.0107021 45
-0.40199921 -0.094029017 2.0083039 93
-0.48400256 -0.11354558 1.6355366 38
-0.6819241 -0.16008797 1.709756 96
-1.0288732 -0.24171224 2.0033376 83
-1.3429708 -0.31549624 2.0987501 30
-1.5685709 -0.3684907 2.0050688 74
-0.12237225 -0.02712113 2.0010643 56
-0.21583334 -0.046672869 2.0132346 105
-0.48724085 -0.11332393 1.9622031 39
-0.49165872 -0.11452418 1.4270155 50
-0.91355836 -0.21311189 2.0026236 93
-1.1521928 -0.26877299 2.0054085 87
-1.4202833 -0.331305 2.0052397 36
-1.731138 -0.40381208 2.0053556 83
-1.905968 -0.44985738 2.0042477 12
-2.3330564 -0.5506568 2.0145898 31
-2.9120214 -0.68676841 2.0461938 18
-3.5716693 -0.84233534 2.0066421 62
-4.6123924 -1.0869269 2.0028906 25
-6.3416452 -1.4932623 2.0037298 33
-9.754221 -2.2968173 1.9940171 103
-9.5497169 -2.2469041 0.97196484 43
-2.115766 -0.49625388 2.0160325 38
-2.5644612 -0.60102218 2.0014381 71
-3.1960511 -0.74904138 2.0138493 67
-4.0532799 -0.94919848 2.0118899 38
-5.362103 -1.2547113 2.0047126 47
-7.7953544 -1.8226464 2.02156 18
-9.9965649 -2.3354747 1.5221887 77
-4.008616 -0.93578762 0.25972688 13
-0.030598883 -0.0066211708 1.9941976 56
-0.30754945 -0.070062906 2.0057628 50
-0.402325 -0.092625208 2.0083039 93
-0.48439598 -0.1118554 1.6355366 38
-0.66344368 -0.15330853 1.6637307 93
-1.0297107 -0.23811933 2.0033376 83
-1.3440639 -0.31080648 2.0987501 30
-1.5698475 -0.36301312 2.0050688 74
-0.12246618 -0.026693806 2.0010643 56
-0.21599495 -0.045919184 2.0132346 105
-0.48640731 -0.11134185 1.957364 39
-0.49205548 -0.11280727 1.4270155 50
-0.91429663 -0.20992167 2.0026236 93
-1.1531241 -0.26474947 2.0054085 87
-1.4214312 -0.32634524 2.0052397 37
-1.7325369 -0.3977668 2.0053556 83
-1.9075266 -0.44320154 2.0042477 12
-2.3349643 -0.54250956 2.0145898 31
-2.9306934 -0.68038172 2.0571599 17
-3.5745878 -0.82986271 2.0066421 64
-4.6116428 -1.0697725 2.0010173 25
-6.3468189 -1.4711168 2.0037298 31
-9.7573929 -2.2616456 1.9930845 105
-9.5429468 -2.2101843 0.97062618 43
-2.1174855 -0.48886544 2.0160325 38
-2.5665433 -0.59206688 2.0014381 71
-3.1986463 -0.73788053 2.0138493 67
-4.0565686 -0.93504417 2.0118899 40
-5.3664503 -1.2359864 2.0047126 44
-7.7969322 -1.7943342 2.0203876 23
-9.9950047 -2.2983468 1.5208091 80
-4.0654173 -0.93409538 0.26194373 30
-0.030621808 -0.0065143202 1.9941976 56
-0.30779213 -0.068988934 2.0057628 55
-0.40264586 -0.091220267 2.0083039 93
-0.48478347 -0.11016386 1.6355366 38
-0.64492446 -0.14666012 1.6177055 95
-1.0281996 -0.23399191 1.9989488 81
-1.3451407 -0.30611295 2.0987501 27
-1.5711052 -0.3575311 2.0050688 74
-0.12255861 -0.026266159 2.0010643 56
-0.21615392 -0.045164946 2.0132346 106
-0.48679301 -0.1096433 1.957364 39
-0.49244624 -0.11108899 1.4270155 50
-0.91289973 -0.20624903 1.9981228 93
-1.1540412 -0.2607227 2.0054085 89
-1.4225616 -0.32138157 2.0052397 37
-1.7339149 -0.39171672 2.0053556 85
-1.9090621 -0.43654034 2.0042477 32
-2.336844 -0.5343557 2.0145898 31
-2.9493556 -0.67387301 2.0681257 17
-3.5774629 -0.81738001 2.0066421 64
-4.6153488 -1.0536684 2.0010173 25
-6.3519154 -1.4489534 2.0037298 31
-9.7556496 -2.2253873 1.9912194 102
-9.5360365 -2.1735396 0.96928751 47
-2.1155376 -0.48064375 2.0127075 42
-2.5685945 -0.58310437 2.0014381 71
-3.2054067 -0.72766501 2.0163815 67
-4.0598078 -0.92087841 2.0118899 45
-5.3707318 -1.2172464 2.0047126 44
-7.7936664 -1.7649597 2.018043 23
-9.9933062 -2.2612576 1.5194294 79
-4.083272 -0.92320395 0.2625483 71
-0.030644361 -0.0064073908 1.9941976 55
-0.30803108 -0.067914121 2.0057628 59
-0.40296185 -0.089814208 2.0083039 93
-0.48370749 -0.10814517 1.6307648 38
-0.62446064 -0.1397164 1.5670776 83
-1.0290099 -0.2304014 1.9989488 81
-1.3462011 -0.30141565 2.0987501 27
-1.5723436 -0.35204476 2.0050688 74
-0.12264954 -0.025838189 2.0010643 56
-0.21631026 -0.04441015 2.0132346 107
-0.48717275 -0.1079434 1.957364 39
-0.49283102 -0.10936935 1.4270155 50
-0.91361403 -0.20306116 1.9981228 93
-1.1549443 -0.25669274 2.0054085 89
-1.4236748 -0.31641391 2.0052397 38
-1.7352716 -0.38566184 2.0053556 85
-1.9105742 -0.42987382 2.0042477 38
-2.338695 -0.52619529 2.0145898 32
-2.9639289 -0.66632515 2.07635 16
-3.5802941 -0.80488741 2.0066421 63
-4.618999 -1.0375513 2.0010173 32
-6.3569345 -1.4267721 2.0037298 32
-9.7585659 -2.1902442 1.9902868 94
-9.5338478 -2.1380603 0.96839511 45
-2.1135576 -0.47244155 2.0093827 50
-2.5706146 -0.57413477 2.0014381 73
-3.2037196 -0.71553195 2.0138493 67
-4.0629973 -0.90670139 2.0118899 48
-5.374948 -1.1984918 2.0047126 43
-7.7950354 -1.7366871 2.0168707 24
-9.9963045 -2.2252846 1.5187396 38
-4.0815935 -0.9078604 0.2623468 94
-0.030666539 -0.0063003832 1.9941976 56
-0.30826625 -0.066838473 2.0057628 64
-0.4032729 -0.088407069 2.0083039 95
-0.48408204 -0.10645606 1.6307648 38
-0.61349654 -0.13501668 1.5394626 78
-1.0298079 -0.22680807 1.9989488 81
-1.347245 -0.29671469 2.0987501 29
-1.5735629 -0.3465541 2.0050688 71
-0.12273899 -0.025409905 2.0010643 53
-0.21646397 -0.043654814 2.0132346 108
-0.48754659 -0.10624219 1.957364 39
-0.49320978 -0.10764839 1.4270155 50
-0.91431737 -0.19987081 1.9981228 93
-1.1558332 -0.25265968 2.0054085 87
-1.4247707 -0.31144243 2.0052397 38
-1.7399194 -0.38032621 2.0090308 83
-1.9120632 -0.42320204 2.0042477 60
-2.3405175 -0.51802856 2.0145898 31
-2.9744024 -0.65778089 2.0818331 16
-3.5830817 -0.79238492 2.0066421 62
-4.622592 -1.0214217 2.0010173 28
-6.3665605 -1.4056078 2.0051391 32
-9.7613544 -2.1551082 1.9893541 94
-9.5072098 -2.0972583 0.96527165 33
-2.1151941 -0.46506098 2.0093827 39
-2.5765507 -0.56602538 2.0043812 71
-3.2104084 -0.70526952 2.0163815 67
-4.0661378 -0.89251333 2.0118899 50
-5.3744864 -1.1787106 2.0030696 37
-7.7963023 -1.7084262 2.0156984 28
-9.9943361 -2.1882591 1.51736 37
-4.0847373 -0.89360744 0.2623468 93
-0.030688345 -0.0061932979 1.9941976 55
-0.3084977 -0.065762013 2.0057628 69
-0.40457436 -0.087213315 2.0131991 95
-0.48445067 -0.10476565 1.6307648 38
-0.60059786 -0.12998202 1.5072449 71
-1.0305935 -0.223212 1.9989488 83
-1.345522 -0.29141447 2.0946171 28
-1.5747631 -0.34105924 2.0050688 69
-0.12282694 -0.024981311 2.0010643 53
-0.21661502 -0.042898949 2.0132346 108
-0.48668456 -0.10427624 1.9525248 39
-0.49526983 -0.10628814 1.4317083 50
-0.91500944 -0.19667804 1.9981228 93
-1.1567082 -0.24862352 2.0054085 87
-1.4258491 -0.30646715 2.0052397 39
-1.7412364 -0.37425044 2.0090308 83
-1.9135288 -0.41652513 2.0042477 73
-2.3385077 -0.50902748 2.011452 31
-2.9848523 -0.64917153 2.087316 17
-3.5858262 -0.77987283 2.0066421 62
-4.6261296 -1.0052797 2.0010173 28
-6.371429 -1.3833759 2.0051391 32
-9.7640171 -2.1199791 1.9884216 102
-9.5339413 -2.0682826 0.96705645 30
-2.1168044 -0.45767474 2.0093827 8
-2.5785108 -0.55702817 2.0043812 71
-3.2128508 -0.69405884 2.0163815 67
-4.0692282 -0.87831444 2.0118899 52
-5.3785677 -1.159943 2.0030696 13
-7.7974668 -1.6801778 2.0145259 30
-9.9970722 -2.1523166 1.5166701 82
-4.0829477 -0.87829292 0.26214525 94
-0.030709775 -0.0060861381 1.9941976 53
-0.30872539 -0.064684764 2.0057628 71
-0.40487635 -0.085800558 2.0131991 93
-0.48481342 -0.10307396 1.6307648 38
-0.5895825 -0.12544562 1.4796298 67
-1.0313663 -0.21961319 1.9989488 83
-1.3465312 -0.28671592 2.0946171 28
-1.5759439 -0.3355602 2.0050688 78
-0.1229134 -0.024552412 2.0010643 55
-0.21676345 -0.042142559 2.0132346 108
-0.48704559 -0.10257676 1.9525248 39
-0.4956378 -0.10455868 1.4317083 48
-0.91782111 -0.19393304 2.0026236 93
-1.1575689 -0.24458434 2.0054085 87
-1.4239612 -0.30086508 2.00125 44
-1.7425321 -0.36817011 2.0090308 85
-1.914971 -0.40984312 2.0042477 73
-2.34027 -0.50086147 2.011452 31
-2.9952779 -0.64049727 2.0927989 17
-3.5885262 -0.76735121 2.0066421 62
-4.6296105 -0.98912531 2.0010173 30
-6.3809104 -1.3621285 2.0065484 32
-9.7665539 -2.0848582 1.9874889 103
-9.536232 -2.0339513 0.96661025 47
-2.1183894 -0.45028296 2.0093827 8
-2.5804393 -0.54802406 2.0043812 71
-3.2110369 -0.68194407 2.0138493 65
-4.072269 -0.86410487 2.0118899 53
-5.3825841 -1.1411612 2.0030696 13
-7.8032837 -1.6529493 2.0145259 30
-9.9996786 -2.1163819 1.5159802 82
-4.0762129 -0.86196822 0.26174217 22
-0.030730832 -0.0059789042 1.9941976 53
-0.30894929 -0.063606709 2.0057628 73
-0.40517339 -0.084386751 2.0131991 95
-0.48370826 -0.1010756 1.6259931 38
-0.58810455 -0.12298699 1.4750273 67
-1.0321267 -0.21601172 1.9989488 81
-1.3475237 -0.28201392 2.0946171 28
-1.5771056 -0.33005711 2.0050688 78
-0.12299835 -0.024123214 2.0010643 55
-0.21690923 -0.041385658 2.0132346 108
-0.48740068 -0.10087603 1.9525248 39
-0.49599975 -0.10282794 1.4317083 48
-0.91849244 -0.19072805 2.0026236 93
-1.1584157 -0.24054219 2.0054085 87
-1.4250028 -0.29589272 2.00125 53
-1.7438067 -0.36208534 2.0090308 85
-1.9163899 -0.40315613 2.0042477 71
