# .PCD v0.7 - Point Cloud Data file format
VERSION 0.7
FIELDS x y z intensity
SIZE 4 4 4 4
TYPE F F F F
COUNT 1 1 1 1
WIDTH 1431
HEIGHT 1
VIEWPOINT 0 0 0 1 0 0 0
POINTS 1431
DATA ascii
1.0827925 1.9014313 2.0293317 77
1.3258189 2.3272498 2.0338128 29
1.6483976 2.8934739 2.0417061 61
2.1017497 3.6877563 2.049655 66
2.8141718 4.9357758 2.0654917 50
4.0820351 7.1565766 2.0778313 36
2.0296857 3.5569816 0.66267818 2
nan nan nan 0
0.015982971 0.026970536 1.9991974 78
0.15784061 0.27309671 2.0057628 97
0.2164281 0.3764523 2.1111035 40
0.32111561 0.55938709 2.1079371 37
0.41183224 0.71768308 2.0089202 93
0.52944922 0.92300183 2.0165036 81
0.66121429 1.1526996 2.0243571 77
0.81130087 1.4143366 2.0280902 76
0.063587926 0.1076782 1.9960728 89
0.11271331 0.18864684 2.0032918 95
0.26872161 0.46605954 2.1073792 60
0.35797927 0.6213311 2.0042257 64
0.4712964 0.81864846 2.0161262 54
0.59420335 1.0321263 2.0182064 89
0.73366886 1.2743657 2.0211978 55
0.89706635 1.5581735 2.0274065 88
0.98504138 1.7213882 2.0287795 77
1.2002624 2.0974848 2.0302787 69
1.4781331 2.5820217 2.035228 63
1.8869932 3.2962155 2.0738649 6
2.4172299 4.2207274 2.0534625 7
3.4200599 5.9693518 2.1108286 4
5.2649565 9.1894207 2.102201 20
1.5922587 2.7779975 0.37984428 24
1.0894231 1.89764 2.0293317 77
1.3339345 2.3226075 2.0338128 29
1.6584877 2.8877022 2.0417061 62
2.1146097 3.6803973 2.049655 70
2.8313835 4.9259229 2.0654917 50
4.1094141 7.1464968 2.0790036 37
2.0420897 3.549875 0.66267818 2
1.5872248 2.7580464 0.22204059 1
0.016054122 0.026877437 1.9941976 78
0.15879293 0.27254406 2.0057628 97
0.2172302 0.37481362 2.1062086 42
0.32306629 0.55826277 2.1079371 37
0.41433489 0.71624112 2.0089202 95
0.53266788 0.921148 2.0165036 83
0.66523397 1.1503844 2.0243571 81
0.81623292 1.4114959 2.0280902 78
0.063963398 0.10745557 1.9960728 89
0.11364715 0.18870927 2.0082631 93
0.27034679 0.46511865 2.1073792 60
0.36014596 0.62007773 2.0042257 67
0.47415113 0.81699836 2.0161262 52
0.59780246 1.0300459 2.0182064 87
0.73962557 1.2744036 2.025187 36
0.90249997 1.5550328 2.0274065 86
0.98926204 1.7148502 2.025275 75
1.2075766 2.0932822 2.0302787 69
1.4871371 2.5768464 2.035228 63
1.8896298 3.2742605 2.0645928 11
2.4319482 4.2122636 2.0534625 7
3.4264798 5.9324522 2.1023736 6
5.2970018 9.1709862 2.102201 19
1.5919801 2.7551744 0.37805945 38
1.0960405 1.8938258 2.0293317 79
1.3420337 2.3179371 2.0338128 36
1.6685575 2.8818955 2.0417061 61
2.1274436 3.6729934 2.049655 69
2.848561 4.9160094 2.0654917 38
4.1367726 7.1363139 2.0801759 36
2.091733 3.6069844 0.67302543 2
1.6319408 2.812988 0.22486204 2
0.016147844 0.026821233 1.9941976 77
0.15974331 0.27198815 2.0057628 97
0.21853721 0.37405309 2.1062086 40
0.32501298 0.55713165 2.1079371 37
0.41683254 0.71479046 2.0089202 93
0.53588003 0.91928309 2.0165036 81
0.66924554 1.1480553 2.0243571 81
0.82115501 1.4086382 2.0280902 78
0.064338103 0.10723165 1.9960728 89
0.11430518 0.18831144 2.0082631 93
0.2713328 0.46308693 2.1025403 56
0.36230823 0.61881685 2.0042257 77
0.47700012 0.81533831 2.0161262 50
0.60139441 1.027953 2.0182064 87
0.74406964 1.2718141 2.025187 30
0.90792257 1.551873 2.0274065 88
0.995242 1.7113866 2.025275 77
1.2148764 2.0890541 2.0302787 71
1.4961228 2.5716398 2.035228 63
1.8832252 3.2370102 2.0460486 7
2.4443049 4.1997423 2.0515895 7
3.4278562 5.8872895 2.0911002 8
5.3289819 9.152441 2.102201 20
1.5940682 2.736691 0.37672085 37
1.1026443 1.8899882 2.0293317 79
1.3501167 2.3132386 2.0338128 48
1.6786072 2.8760536 2.0417061 61
2.1402519 3.665545 2.049655 60
2.8657036 4.9060364 2.0654917 23
4.1616578 7.1218309 2.0801759 37
2.1368017 3.6552393 0.68199301 3
1.6316619 2.7900245 0.22405592 2
0.01624137 0.026764702 1.9941976 75
0.16069177 0.27142885 2.0057628 97
0.21984158 0.37328798 2.1062086 40
0.3269558 0.55599374 2.1079371 38
0.42031521 0.71501535 2.0135226 93
0.53787184 0.91534138 2.012115 81
0.67324889 1.1457124 2.0243571 81
0.82769108 1.4085273 2.0319271 74
0.064712018 0.10700642 1.9960728 88
0.1149618 0.18791129 2.0082631 91
0.27294764 0.46213701 2.1025403 56
0.36446607 0.61754841 2.0042257 89
0.47984326 0.81366831 2.0161262 47
0.60497892 1.0258473 2.0182064 87
0.74850452 1.2692089 2.025187 30
0.91333401 1.5486943 2.0274065 88
1.0012097 1.7079021 2.025275 77
1.2221609 2.084801 2.0302787 71
1.5050904 2.5664015 2.035228 63
1.8945128 3.2304168 2.0460486 7
2.45895 4.191185 2.0515895 7
3.4313874 5.8463264 2.0812356 9
5.360898 9.1337833 2.102201 20
1.5935249 2.7139323 0.37493598 37
1.1092349 1.8861278 2.0293317 79
1.3561337 2.305028 2.0308697 66
1.6886362 2.8701766 2.0417061 61
2.1507318 3.6541402 2.0475569 60
2.8852074 4.9000721 2.0671344 23
4.1889586 7.1114478 2.0813482 37
2.1470339 3.643492 0.68130326 2
nan nan nan 0
0.016357981 0.026744749 1.9991974 75
0.16163826 0.2708663 2.0057628 97
0.22114326 0.3725183 2.1062086 40
0.32889459 0.55484909 2.1079371 38
0.42280853 0.71354383 2.0135226 95
0.54106373 0.91345829 2.012115 81
0.67724413 1.1433553 2.0243571 81
0.83260286 1.4056294 2.0319271 69
0.06508515 0.10677987 1.9960728 88
0.11561704 0.18750885 2.0082631 91
0.27455914 0.46118143 2.1025403 53
0.36661953 0.61627239 2.0042257 91
0.48268056 0.81198835 2.0161262 47
0.60855603 1.0237293 2.0182064 87
0.75293028 1.2665884 2.025187 34
0.91873437 1.5454967 2.0274065 90
1.0071653 1.7043967 2.025275 73
1.2294309 2.0805218 2.0302787 69
1.5140398 2.5611322 2.035228 63
1.8967597 3.2085292 2.0367765 12
2.4735646 4.1825762 2.0515895 7
3.4297891 5.7971539 2.068553 10
5.3952489 9.1192427 2.1031337 20
1.5953789 2.6954963 0.37359735 38
1.1139079 1.8790323 2.0260069 77
1.3641715 2.3002799 2.0308697 67
1.6964455 2.8605561 2.0391736 61
2.1634741 3.6466103 2.0475569 59
2.9022942 4.8899708 2.0671344 22
4.2112756 7.0926032 2.0801759 37
nan nan nan 0
nan nan nan 0
0.016451236 0.026687486 1.9991974 78
0.16258276 0.27030042 2.0057628 95
0.22244225 0.3717441 2.1062086 39
0.33082932 0.55369765 2.1079371 38
0.42529666 0.71206361 2.0135226 95
0.544249 0.91156405 2.012115 81
0.67978841 1.1385682 2.0202241 83
0.83914781 1.4054673 2.0357642 64
0.065457478 0.10655203 1.9960728 89
0.11627087 0.18710414 2.0082631 91
0.27616727 0.46022022 2.1025403 53
0.36876845 0.61498892 2.0042257 91
0.48551196 0.81029856 2.0161262 47
0.61212587 1.0215988 2.0182064 87
0.75734693 1.2639525 2.025187 39
0.92412359 1.5422803 2.0274065 90
1.0131087 1.7008708 2.025275 73
1.2366858 2.0762177 2.0302787 69
1.5229706 2.5558317 2.035228 63
1.9102156 3.2056942 2.0390942 29
2.4881496 4.1739163 2.0515895 7
3.4450898 5.776906 2.0657346 12
5.4270487 9.1003542 2.1031337 23
1.5971239 2.6770806 0.37225875 38
1.12046 1.8751326 2.0260069 77
1.3721926 2.2955043 2.0308697 67
1.7064202 2.8546171 2.0391736 57
2.1761897 3.6390364 2.0475569 58
2.9193456 4.8798103 2.0671344 40
4.2360077 7.0778599 2.0801759 38
2.1418908 3.5774274 0.67302543 2
1.5940439 2.6613505 0.2188161 1
0.016544294 0.026629897 1.9991974 77
0.16352528 0.26973125 2.0057628 95
0.22373854 0.37096536 2.1062086 39
0.33198956 0.55126005 2.1031654 38
0.42777964 0.71057469 2.0135226 95
0.54742765 0.90965873 2.012115 83
0.68375862 1.1361883 2.0202241 83
0.84570169 1.4052762 2.0396011 57
0.065981857 0.10656884 2.0010643 89
0.11663931 0.18624498 2.0032918 91
0.27777207 0.45925343 2.1025403 51
0.37091294 0.61369795 2.0042257 93
0.48833749 0.80859888 2.0161262 52
0.61568815 1.0194559 2.0182064 87
0.76175427 1.2613012 2.025187 53
0.92950153 1.5390451 2.0274065 90
1.0190396 1.6973239 2.025275 75
1.2439256 2.0718882 2.0302787 66
1.5318826 2.5504999 2.035228 63
1.9213939 3.199007 2.0390942 38
2.5003164 4.1612315 2.0497162 8
3.465234 5.7648454 2.0657346 20
5.4613123 9.0855646 2.1040664 25
1.5987597 2.6586859 0.37092009 37
1.1269987 1.87121 2.0260069 77
1.3801969 2.2907002 2.0308697 67
1.7163743 2.8486431 2.0391736 39
2.1865363 3.6275313 2.045459 57
2.9363618 4.8695903 2.0671344 54
4.2581778 7.0588684 2.0790036 35
nan nan nan 0
1.5929959 2.6386621 0.21800998 1
0.016637148 0.026571985 1.9991974 77
0.16446584 0.26915881 2.0057628 97
0.22503208 0.3701821 2.1062086 39
0.33391181 0.55009788 2.1031654 38
0.43025738 0.70907712 2.0135226 93
0.55059963 0.90774226 2.012115 83
0.68772048 1.1337945 2.0202241 81
0.85060191 1.4023155 2.0396011 50
0.066353463 0.10633787 2.0010643 89
0.11728872 0.18583669 2.0032918 93
0.27937347 0.45828101 2.1025403 49
0.37305287 0.6123994 2.0042257 93
0.49002469 0.80502909 2.0116253 57
0.61924297 1.0173006 2.0182064 89
0.76615238 1.2586346 2.025187 72
0.9348681 1.5357913 2.0274065 88
1.0249581 1.6937565 2.025275 77
1.2511503 2.0675337 2.0302787 66
1.5407764 2.5451372 2.035228 63
1.932549 3.1922805 2.0390942 55
2.5148265 4.1524782 2.0497162 7
3.4828503 5.748611 2.0643253 20
5.490448 9.0622454 2.1031337 26
1.6002865 2.6403124 0.36958149 35
1.1335236 1.8672646 2.0260069 77
1.3860865 2.2824135 2.0279264 66
1.7195939 2.8315799 2.0315762 29
2.1991854 3.6198766 2.045459 55
2.9533422 4.8593106 2.0671344 54
4.2827916 7.0439615 2.0790036 32
5.6461773 9.2826881 1.6056564 51
1.6021967 2.6330855 0.21800998 1
0.0167298 0.02651375 1.9991974 78
0.16540436 0.26858306 2.0057628 97
0.22632289 0.36939433 2.1062086 39
0.33582997 0.54892892 2.1031654 38
0.43272993 0.70757097 2.0135226 93
0.55376488 0.90581477 2.012115 85
0.69167399 1.131387 2.0202241 81
0.85716403 1.4020731 2.0434382 49
0.066724241 0.10610561 2.0010643 91
0.11793669 0.18542616 2.0032918 91
0.28097147 0.45730302 2.1025403 47
0.37518829 0.61109352 2.0042257 93
0.49283177 0.80331367 2.0116253 61
0.62279028 1.0151327 2.0182064 89
0.77054119 1.2559524 2.025187 80
0.94022328 1.5325185 2.0274065 88
1.0308642 1.6901683 2.025275 77
1.2583596 2.0631537 2.0302787 62
1.5496511 2.5397432 2.035228 53
1.9413729 3.1817336 2.0367765 59
2.5293059 4.1436744 2.0497162 7
3.4978952 5.72823 2.061507 22
5.522048 9.0430241 2.1031337 26
1.604301 2.6262107 0.36868906 35
1.1400347 1.8632965 2.0260069 77
1.3940451 2.2775612 2.0279264 67
1.7339689 2.8329141 2.0366411 13
2.2094378 3.6083074 2.0433607 55
2.9678197 4.8449454 2.0654917 55
4.3048143 7.0248251 2.0778313 29
5.678546 9.2629213 1.6056564 46
1.5852594 2.5848882 0.21599467 1
0.016822249 0.02645519 1.9991974 78
0.16634089 0.26800406 2.0057628 97
0.22761093 0.3686021 2.1062086 40
0.33774403 0.54775333 2.1031654 38
0.4351972 0.70605612 2.0135226 95
0.55692339 0.9038763 2.012115 83
0.69561905 1.1289657 2.0202241 83
0.86205292 1.3990726 2.0434382 45
0.067094207 0.10587204 2.0010643 89
0.11858323 0.18501335 2.0032918 91
0.28256601 0.45631942 2.1025403 44
0.37731913 0.60978013 2.0042257 93
0.49563286 0.80158854 2.0116253 73
0.62632996 1.0129526 2.0182064 89
0.77650577 1.2558187 2.0291767 76
0.94556707 1.5292273 2.0274065 88
1.0367577 1.6865597 2.025275 75
1.2675923 2.0620649 2.0334165 56
1.5585071 2.5343184 2.035228 53
1.9524673 3.1749377 2.0367765 59
2.5437548 4.1348205 2.0497162 7
3.5153546 5.7118998 2.0600977 23
5.5510054 9.0195093 2.102201 27
1.6056254 2.6078722 0.36735043 36
1.1465318 1.8593057 2.0260069 79
1.401987 2.2726812 2.0279264 67
1.7642189 2.8598678 2.059433 10
2.2220199 3.6005731 2.0433607 55
2.9847133 4.8345561 2.0654917 56
4.326755 7.00562 2.076659 26
5.6796083 9.1924877 1.5973786 48
1.6152866 2.6133366 0.21760692 2
0.016909884 0.026399259 1.9991974 78
0.16722873 0.26745099 2.0057628 97
0.22883201 0.36784527 2.1062086 44
0.33877042 0.54536164 2.0983937 38
0.43753612 0.7046091 2.0135226 95
0.55991763 0.90202451 2.012115 83
0.699359 1.1266528 2.0202241 83
0.86668766 1.3962061 2.0434382 47
0.067426488 0.10566074 2.0010643 89
0.11916389 0.1846399 2.0032918 91
0.28399822 0.45542949 2.1025403 40
0.37923291 0.60859174 2.0042257 91
0.4982883 0.79994053 2.0116253 80
0.62968558 1.0108701 2.0182064 89
0.78066599 1.2532368 2.0291767 65
0.95036662 1.5262491 2.0274065 90
1.0423449 1.6831124 2.025275 75
1.2744235 2.0578501 2.0334165 38
1.5669026 2.5291362 2.035228 64
1.9629852 3.1684453 2.0367765 49
2.5567322 4.1268086 2.0497162 8
3.5307543 5.6967497 2.0586886 26
5.5808849 9.0010519 2.102201 28
1.6090146 2.5940695 0.366458 39
1.1526912 1.8554934 2.0260069 79
1.4095155 2.2680194 2.0279264 67
1.8050449 2.9055805 2.0948868 6
2.23332 3.5935745 2.0433607 54
2.9973931 4.8211451 2.063849 55
4.3487425 6.9919925 2.076659 24
5.6770654 9.1241446 1.5891008 52
1.6287687 2.6167319 0.21800998 2
0.017006529 0.026337104 1.9991974 78
0.16820785 0.26683626 2.0057628 97
0.23017868 0.3670041 2.1062086 40
0.34076703 0.54411626 2.0983937 35
0.44011572 0.70300066 2.0135226 95
0.56321996 0.8999663 2.012115 83
0.7034837 1.124082 2.0202241 83
0.87179923 1.3930203 2.0434382 47
0.067831695 0.10540106 2.0010643 89
0.11987197 0.18418099 2.0032918 93
0.28574485 0.45433569 2.1025403 39
0.38156694 0.60713112 2.0042257 91
0.50135618 0.79802132 2.0116253 81
0.63356239 1.0084448 2.0182064 89
0.78707564 1.252782 2.0331662 63
0.95648575 1.5224217 2.0274065 90
1.0485069 1.6792808 2.025275 75
1.2819574 2.0531654 2.0334165 28
1.5761617 2.5233762 2.035228 63
1.9745848 3.1612298 2.0367765 49
2.5725589 4.116961 2.0497162 7
3.5500593 5.6790829 2.0572793 29
5.6128006 8.9753933 2.1012685 29
1.6110396 2.5752063 0.36511937 39
1.1598072 1.8510537 2.0260069 79
1.4182137 2.2625909 2.0279264 67
1.8464603 2.9457996 2.1278083 5
2.2453167 3.5807352 2.0412626 54
3.0167224 4.8090739 2.063849 55
4.3741908 6.9703617 2.0754867 19
5.6804719 9.0519409 1.5808229 50
1.6520859 2.6316149 0.21901764 2
0.01709836 0.026277579 1.9991974 78
0.16913825 0.26624748 2.0057628 97
0.23145837 0.36619839 2.1062086 40
0.34186709 0.54166049 2.093622 28
0.44256696 0.70146006 2.0135226 93
0.56635803 0.89799476 2.012115 83
0.70890445 1.1239997 2.0243571 85
0.87665641 1.3899688 2.0434382 47
0.068199202 0.10516365 2.0010643 89
0.12051415 0.18376142 2.0032918 91
0.28732902 0.45333546 2.1025403 39
0.38368389 0.6057955 2.0042257 91
0.50399977 0.79635435 2.0116253 90
0.63690305 1.0063384 2.0182064 87
0.79122567 1.2501651 2.0331662 63
0.96152902 1.5192415 2.0274065 90
1.0543623 1.6756105 2.025275 75
1.2891165 2.0486779 2.0334165 18
1.5849605 2.5178592 2.035228 63
1.9856076 3.1543179 2.0367765 60
2.5869143 4.1079564 2.0497162 7
3.5698612 5.6666565 2.0572793 34
5.6425333 8.9567308 2.1012685 32
1.6169152 2.5656366 0.36467317 33
1.1659392 1.8471975 2.0260069 77
1.4278672 2.2612932 2.0308697 67
1.8562191 2.9396603 2.1278083 5
2.2571783 3.5732698 2.0412626 56
3.0301304 4.7950516 2.0622063 55
4.3972816 6.9558182 2.0754867 15
5.6829162 8.9860191 1.573235 50
1.6105115 2.545615 0.21518856 2
0.017189981 0.026217736 1.9991974 78
0.1700666 0.26565546 2.0057628 97
0.23273523 0.36538824 2.1062086 40
0.34375572 0.54046386 2.093622 18
0.44501281 0.699911 2.0135226 95
0.56948918 0.89601237 2.012115 85
0.71282351 1.1215184 2.0243571 81
0.88150293 1.3869001 2.0434382 45
0.068565875 0.10492494 2.0010643 89
0.12115486 0.18333963 2.0032918 89
0.2889097 0.45232975 2.1025403 40
0.38579619 0.60445249 2.0042257 91
0.50677645 0.79459023 2.0116253 92
0.64041191 1.004109 2.0182064 87
0.79558474 1.2473956 2.0331662 63
0.96682626 1.5158759 2.0274065 90
1.0602047 1.6719198 2.025275 79
1.2962598 2.0441654 2.0334165 18
1.5937397 2.5123115 2.035228 64
1.9966062 3.1473675 2.0367765 60
2.6012378 4.0989008 2.0497162 7
3.5896196 5.654161 2.0572793 36
5.6579661 8.912097 2.0956728 36
1.6205212 2.5515692 0.36378074 33
1.17238 1.8431163 2.0260069 79
1.4357518 2.2562952 2.0308697 67
1.8734125 2.9440749 2.1354055 6
2.2696376 3.5653691 2.0412626 51
3.0468497 4.7844448 2.0622063 55
4.4189234 6.936327 2.0743141 15
5.6823101 8.9160137 1.5649573 49
1.6167018 2.5357652 0.21498701 2
0.017281394 0.026157573 1.9991974 77
0.17099287 0.26506019 2.0057628 97
0.23400927 0.3645736 2.1062086 40
0.34564021 0.53926069 2.093622 14
0.44745326 0.69835329 2.0135226 95
0.57261336 0.89401895 2.012115 83
0.71673405 1.1190232 2.0243571 83
0.88633877 1.3838146 2.0434382 45
0.068931714 0.10468496 2.0010643 89
0.1217941 0.18291561 2.0032918 91
0.2904869 0.4513185 2.1025403 40
0.38790378 0.60310209 2.0042257 91
0.50954705 0.79281646 2.0116253 92
0.64391303 1.0018674 2.0182064 87
0.79993409 1.2446109 2.0331662 63
0.97211182 1.5124919 2.0274065 90
1.0660344 1.6682088 2.025275 77
1.3033874 2.0396285 2.0334165 26
1.6024995 2.5067327 2.035228 63
2.0075803 3.1403787 2.0367765 60
2.6155298 4.0897961 2.0497162 8
3.6093347 5.6415963 2.0572793 35
5.6731572 8.867466 2.0900772 38
1.629418 2.5458972 0.36378074 64
1.1788064 1.8390126 2.0260069 77
1.443619 2.2512696 2.0308697 67
1.8766962 2.92663 2.1278083 7
2.2796187 3.5536048 2.0391645 35
3.0635324 4.7737803 2.0622063 55
4.443109 6.9208598 2.0743141 14
5.6839614 8.8502884 1.5573692 49
1.6120412 2.5090904 0.21397936 2
0.017372595 0.026097089 1.9991974 77
0.17191708 0.2644617 2.0057628 97
0.23528042 0.36375454 2.1062086 40
0.34671009 0.53679627 2.0888503 14
0.44988823 0.69678718 2.0135226 93
0.57573056 0.89201468 2.012115 83
0.72063577 1.1165146 2.0243571 75
0.89116383 1.3807123 2.0434382 45
0.06929671 0.10444371 2.0010643 89
0.12243186 0.18248935 2.0032918 91
0.29274496 0.45135698 2.1073792 39
0.39000663 0.60174441 2.0042257 91
0.5123114 0.79103291 2.0116253 90
0.64740628 0.99961364 2.0182064 87
0.80427378 1.241811 2.0331662 63
0.97738552 1.5090894 2.0274065 90
1.071851 1.6644776 2.025275 77
1.3104991 2.0350661 2.0334165 34
1.61124 2.5011237 2.035228 63
2.0185301 3.133352 2.0367765 60
2.6297901 4.0806413 2.0497162 8
3.6290057 5.628963 2.0572793 35
5.6774583 8.8063221 2.0807509 38
1.6409941 2.5443788 0.36422694 38
1.1852187 1.8348868 2.0260069 79
1.4514685 2.246217 2.0308697 67
1.8798809 2.9091983 2.1202111 9
2.2920094 3.5456259 2.0391645 16
3.0801771 4.7630577 2.0622063 55
4.4645996 6.9012275 2.0731418 16
5.6852231 8.7846613 1.5497813 49
1.5990685 2.469898 0.21236712 2
0.017463585 0.026036289 1.9991974 78
0.17283915 0.26385999 2.0057628 98
0.23654874 0.36293101 2.1062086 39
0.34369326 0.52807236 2.06022 16
0.45231771 0.69521248 2.0135226 95
0.57884085 0.88999963 2.012115 83
0.72452879 1.1139923 2.0243571 75
0.89597797 1.3775932 2.0434382 47
0.069660872 0.10420118 2.0010643 89
0.12306812 0.18206087 2.0032918 93
0.29431874 0.45033237 2.1073792 39
0.39210472 0.60037941 2.0042257 91
0.51506948 0.78923982 2.0116253 90
0.65089166 0.99734771 2.0182064 89
0.80860358 1.238996 2.0331662 63
0.98264724 1.5056684 2.0274065 90
1.0776546 1.660726 2.025275 77
1.3154758 2.0272136 2.0302787 39
1.6199607 2.4954841 2.035228 63
2.0294552 3.126287 2.0367765 60
2.6440182 4.0714364 2.0497162 8
3.6486325 5.6162605 2.0572793 38
5.6814022 8.7452574 2.0714247 38
1.6525794 2.5428109 0.36467317 36
1.1916165 1.8307384 2.0260069 79
1.4593005 2.2411366 2.0308697 69
1.8853197 2.8953929 2.1151462 8
2.3043718 3.5376036 2.0391645 16
3.0967846 4.7522769 2.0622063 55
4.4886622 6.8856006 2.0731418 20
5.6860962 8.7191343 1.5421933 47
1.6022208 2.4559326 0.21196404 2
0.017554361 0.02597517 1.9991974 78
0.17375916 0.26325503 2.0057628 97
0.23781416 0.3621031 2.1062086 39
0.34225801 0.52187389 2.0411332 25
0.45474172 0.69362938 2.0135226 95
0.58194393 0.88797367 2.012115 83
0.72687036 1.1091027 2.0202241 81
0.90078115 1.3744571 2.0434382 42
0.070024177 0.10395738 2.0010643 89
0.12370287 0.18163016 2.0032918 93
0.2958889 0.44930226 2.1073792 38
0.39419806 0.59900701 2.0042257 93
0.51782131 0.78743708 2.0116253 93
0.65436912 0.99506956 2.0182064 87
0.81292361 1.2361659 2.0331662 63
0.98789704 1.5022292 2.0274065 88
1.0834451 1.6569542 2.025275 77
1.322544 2.0226097 2.0302787 38
1.6286616 2.4898143 2.035228 63
2.0403557 3.1191838 2.0367765 60
2.6582141 4.0621824 2.0497162 8
3.6682146 5.6034908 2.0572793 38
5.6849899 8.6842737 2.0620987 38
1.6641737 2.5411928 0.36511937 36
1.1979996 1.8265678 2.0260069 77
1.4671146 2.2360291 2.0308697 69
1.8883195 2.8779802 2.107549 6
2.3167064 3.5295384 2.0391645 17
3.1133542 4.7414379 2.0622063 54
4.5100017 6.8658276 2.0719695 24
5.6865816 8.6537075 1.5346054 46
1.619017 2.4628491 0.21256864 2
0.017644927 0.025913736 1.9991974 78
0.17424658 0.26200005 2.0008237 97
0.23907667 0.36127079 2.1062086 39
0.33913681 0.51319993 2.0125027 35
0.45716017 0.69203782 2.0135226 95
0.58504003 0.88593686 2.012115 83
0.73073745 1.1065587 2.0202241 79
0.90380675 1.3686291 2.0396011 42
0.070386626 0.10371233 2.0010643 89
0.12433612 0.18119726 2.0032918 91
0.29745546 0.44826669 2.1073792 38
0.39628661 0.59762734 2.0042257 93
0.52056676 0.78562474 2.0116253 93
0.65783846 0.99277931 2.0182064 87
0.81723356 1.2333207 2.0331662 63
0.99313468 1.4987715 2.0274065 88
1.0892223 1.6531622 2.025275 75
1.3295962 2.0179806 2.0302787 31
1.6350417 2.4806228 2.0324864 61
2.0512311 3.1120427 2.0367765 60
2.6723776 4.0528789 2.0497162 7
3.687752 5.590652 2.0572793 38
5.688221 8.6233711 2.0527723 37
1.6785197 2.5436816 0.3660118 52
1.2043684 1.8223748 2.0260069 77
1.4726818 2.2275224 2.0279264 67
1.893599 2.8641784 2.102484 6
2.3315163 3.5252154 2.0412626 37
3.12728 4.726603 2.0605636 54
4.5312572 6.8459897 2.0707972 24
5.6894135 8.592514 1.5277071 46
1.6386396 2.4738429 0.21337476 2
0.017735275 0.025851985 1.9991974 77
0.17516008 0.26139021 2.0008237 97
0.2403363 0.36043403 2.1062086 40
0.3392705 0.50952673 2.0029593 39
0.45957306 0.69043779 2.0135226 95
0.58812892 0.88388932 2.012115 83
0.7345956 1.1040013 2.0202241 71
0.90857863 1.365466 2.0396011 45
0.070748217 0.103466 2.0010643 89
0.12496787 0.18076214 2.0032918 91
0.29901835 0.44722563 2.1073792 38
0.39837027 0.5962404 2.0042257 93
0.52330595 0.78380281 2.0116253 93
0.66129994 0.99047697 2.0182064 87
0.81986022 1.227954 2.0291767 65
0.99836034 1.4952958 2.0274065 88
1.0949863 1.64935 2.025275 75
1.3387852 2.0165703 2.0334165 31
1.6436907 2.4749005 2.0324864 61
2.0620818 3.1048636 2.0367765 60
2.6865084 4.0435262 2.0497162 7
3.7045894 5.5737505 2.0558703 37
5.6910963 8.5625525 2.0434461 37
1.6929033 2.5461011 0.3669042 48
1.2107221 1.8181595 2.0260069 77
1.4804482 2.2223682 2.0279264 67
1.8964148 2.8467872 2.0948868 5
2.3438075 3.5170557 2.0412626 53
3.1437597 4.7156577 2.0605636 56
4.5524306 6.8260884 2.0696251 23
5.6918888 8.5314083 1.5208091 45
1.647265 2.4681079 0.21337476 2
0.017825406 0.02578992 1.9991974 77
0.17607144 0.26077718 2.0008237 97
0.24159299 0.35959291 2.1062086 40
0.34104705 0.50833935 2.0029593 49
0.46198034 0.68882942 2.0135226 95
0.59121078 0.88183099 2.012115 83
0.73844481 1.1014303 2.0202241 54
0.9133395 1.3622862 2.0396011 45
0.071108952 0.10321841 2.0010643 89
0.12559809 0.18032482 2.0032918 91
0.30057767 0.44617915 2.1073792 38
0.4004491 0.59484619 2.0042257 91
0.52603877 0.7819714 2.0116253 93
0.66475338 0.98816258 2.0182064 87
0.82414162 1.2250847 2.0291767 65
1.0035739 1.4918017 2.0274065 90
1.100737 1.6455177 2.025275 73
1.3479809 2.0151207 2.0365543 34
1.6523197 2.4691477 2.0324864 64
2.0729072 3.0976465 2.0367765 60
2.7006063 4.0341234 2.0497162 8
3.7240226 5.5607853 2.0558703 37
5.6936169 8.5018196 2.0341198 37
1.7073243 2.5484509 0.36779663 37
1.2170615 1.8139224 2.0260069 75
1.4881967 2.2171869 2.0279264 67
1.8991321 2.829411 2.0872896 5
2.35607 3.5088527 2.0412626 58
3.1602015 4.7046552 2.0605636 55
4.5735197 6.8061209 2.0684528 24
5.6940064 8.4703884 1.5139109 45
1.6196274 2.4084485 0.21075487 2
0.017915322 0.02572754 1.9991974 78
0.17698064 0.26016098 2.0008237 95
0.24227586 0.35790423 2.1013131 40
0.34281936 0.50714576 2.0029593 56
0.46438199 0.68721259 2.0135226 95
0.59428525 0.87976187 2.012115 85
0.74228501 1.0988458 2.0202241 38
0.91808915 1.3590896 2.0396011 45
0.071303308 0.10273196 1.9960728 91
0.12622677 0.17988531 2.0032918 89
0.30213329 0.44512719 2.1073792 38
0.40252307 0.59344476 2.0042257 91
0.5287652 0.78013039 2.0116253 93
0.66819865 0.98583615 2.0182064 87
0.83010393 1.2246952 2.0331662 63
1.0087751 1.4882896 2.0274065 90
1.1064742 1.6416655 2.025275 73
1.3571823 2.0136311 2.0396919 36
1.658591 2.4598982 2.0297451 64
2.0837073 3.0903919 2.0367765 60
2.7120793 4.0208292 2.0478432 8
3.7407274 5.5437751 2.054461 37
5.6957827 8.4411736 2.0247936 37
1.7189958 2.5466037 0.36824286 37
1.2233858 1.8096629 2.0260069 75
1.4959271 2.2119787 2.0279264 69
1.8993362 2.8084798 2.0771599 6
2.368304 3.500607 2.0412626 57
3.1766045 4.6935959 2.0605636 56
4.597249 6.7901154 2.0684528 24
5.6957674 8.4094582 1.5070127 46
1.6028035 2.3655567 0.2089411 2
0.018005017 0.025664849 1.9991974 78
0.17788769 0.25954163 2.0008237 93
0.24352372 0.35705638 2.1013131 40
0.34458753 0.50594604 2.0029593 55
0.46677798 0.68558747 2.0135226 93
0.59735262 0.87768209 2.012115 85
0.74611628 1.0962483 2.0202241 37
0.92282772 1.3558767 2.0396011 45
0.07166148 0.10248244 1.9960728 91
0.12685393 0.1794436 2.0032918 89
0.30368522 0.44406986 2.1073792 38
0.40459216 0.59203607 2.0042257 91
0.53148508 0.7782799 2.0116253 93
0.67163575 0.98349768 2.0182064 89
0.83437383 1.2217901 2.0331662 63
1.0139641 1.4847591 2.0274065 90
1.1121979 1.6377931 2.025275 77
1.3685769 2.0153222 2.0459676 39
1.6671675 2.4540935 2.0297451 66
2.0919926 3.0794349 2.0344584 59
2.7287042 4.0151715 2.0497162 8
3.760056 5.5306835 2.054461 37
5.7003565 8.3846788 2.0164001 37
1.733476 2.5488236 0.36913526 40
1.2296952 1.8053815 2.0260069 79
1.5036392 2.2067432 2.0279264 67
1.9018451 2.7911441 2.0695627 6
2.3805087 3.4923189 2.0412626 58
3.1929686 4.6824784 2.0605636 56
4.6181841 6.7700109 2.0672803 24
5.6999645 8.3527107 1.5008044 46
1.5941501 2.3351905 0.2077319 2
0.018094495 0.025601842 1.9991974 78
0.17879257 0.25891912 2.0008237 96
0.24476859 0.35620415 2.1013131 40
0.34635153 0.50474012 2.0029593 55
0.46916828 0.68395394 2.0135226 93
0.60041267 0.87559158 2.012115 85
0.74993831 1.0936372 2.0202241 37
0.92755497 1.3526472 2.0396011 45
0.072018772 0.10223167 1.9960728 89
0.12747952 0.17899969 2.0032918 91
0.30523348 0.44300708 2.1073792 38
0.40665624 0.59062016 2.0042257 91
0.53419852 0.77641994 2.0116253 90
0.67506468 0.98114729 2.0182064 89
0.83863348 1.2188703 2.0331662 63
1.0191406 1.4812107 2.0274065 90
1.1179081 1.6339008 2.025275 75
1.3778015 2.0137455 2.0491054 39
1.6757238 2.4482594 2.0297451 66
2.1027291 3.0721138 2.0344584 59
2.7400839 4.0017972 2.0478432 8
3.7766278 5.513567 2.0530517 38
5.7018309 8.3242035 2.0070741 36
1.7479923 2.5509732 0.37002769 61
1.2359897 1.8010781 2.0260069 79
1.511333 2.2014813 2.0279264 67
1.9018164 2.7702718 2.059433 7
2.3926847 3.483988 2.0412626 59
3.2092943 4.6713042 2.0605636 54
4.6417875 6.753849 2.0672803 24
5.7010298 8.2919559 1.4939061 47
1.6504216 2.3995886 0.21115792 2
0.018183751 0.025538526 1.9991974 77
0.17969529 0.25829345 2.0008237 96
0.24601048 0.35534757 2.1013131 40
0.34811127 0.50352806 2.0029593 58
0.47155285 0.68231201 2.0135226 95
0.60346538 0.87349045 2.012115 83
0.75375116 1.0910126 2.0202241 37
0.93227094 1.3494011 2.0396011 45
0.072375186 0.10197965 1.9960728 89
0.12810357 0.17855363 2.0032918 91
0.30677798 0.44193894 2.1073792 38
0.4087154 0.5891971 2.0042257 91
0.53566492 0.77276087 2.0071244 90
0.67848545 0.97878486 2.0182064 89
0.84288317 1.2159355 2.0331662 63
1.0243049 1.4776443 2.0274065 90
1.1236045 1.6299886 2.025275 75
1.3870318 2.0121291 2.052243 44
1.6866333 2.4458368 2.0324864 58
2.11344 3.064755 2.0344584 59
2.7540362 3.992208 2.0478432 8
3.7931259 5.4964023 2.0516424 37
5.7057424 8.2678633 1.9986804 36
1.7625451 2.5530524 0.37092009 39
1.242269 1.7967527 2.0260069 77
1.5190084 2.1961923 2.0279264 67
1.9041175 2.7529788 2.0518358 9
2.4048319 3.4756148 2.0412626 58
3.222893 4.6561904 2.0589211 54
4.6653347 6.7376051 2.0672803 24
5.6989207 8.2272243 1.4863183 45
1.6502512 2.381494 0.21055335 2
0.018272787 0.025474895 1.9991974 77
0.18059579 0.25766459 2.0008237 97
0.24724936 0.35448664 2.1013131 40
0.34986681 0.5023098 2.0029593 55
0.4739317 0.68066186 2.0135226 95
0.60651076 0.87137866 2.012115 83
0.75755501 1.088375 2.0202241 38
0.9369756 1.3461387 2.0396011 45
0.07273072 0.10172639 1.9960728 89
0.12872607 0.17810538 2.0032918 93
0.30831879 0.4408654 2.1073792 38
0.41076961 0.58776683 2.0042257 91
0.53835905 0.7708863 2.0071244 88
0.68189794 0.97641051 2.0182064 87
0.84712243 1.2129858 2.0331662 63
1.0313978 1.4768392 2.0310817 88
1.1292876 1.6260566 2.025275 75
1.3962678 2.0104725 2.0553811 48
1.6951607 2.4399347 2.0324864 58
2.1215973 3.053721 2.0321403 59
2.7679546 3.9825702 2.0478432 7
3.80955 5.4791894 2.0502334 34
5.7065253 8.2075634 1.9893541 36
1.779977 2.5591497 0.37225875 39
1.2485335 1.7924054 2.0260069 77
1.5266652 2.1908767 2.0279264 67
1.9063212 2.7357039 2.0442383 11
2.4169493 3.4671991 2.0412626 58
3.2391269 4.6449122 2.0589211 56
4.6888247 6.7212787 2.0672803 24
5.6935954 8.1585493 1.4780405 46
nan nan nan 0
0.0183616 0.025410958 1.9991974 78
0.18194245 0.25766724 2.0057628 97
0.24848527 0.35362145 2.1013131 40
0.35161808 0.50108546 2.0029593 55
0.4763048 0.67900336 2.0135226 95
0.60954875 0.86925614 2.012115 83
0.7613495 1.0857239 2.0202241 40
0.94166869 1.3428597 2.0396011 47
0.073085368 0.10147189 1.9960728 89
0.12934697 0.17765495 2.0032918 93
0.30985582 0.43978643 2.1073792 38
0.41281879 0.58632934 2.0042257 91
0.54104662 0.76900238 2.0071244 88
0.68530208 0.97402436 2.0182064 87
0.84961706 1.2075565 2.0291767 63
1.0365465 1.4732301 2.0310817 90
1.1349566 1.6221048 2.025275 75
1.403277 2.0055864 2.0553811 39
1.7036672 2.4340024 2.0324864 64
2.1322436 3.0462964 2.0321403 49
2.7791805 3.9690866 2.0459704 7
3.8286531 5.465858 2.0502334 25
5.7069578 8.1473598 1.9800279 36
1.794615 2.5610778 0.37315115 45
1.2547824 1.7880362 2.0260069 77
1.5343035 2.1855342 2.0279264 67
1.9133818 2.7255046 2.0417061 15
2.426429 3.4550273 2.0391645 57
3.2526062 4.6297135 2.0572784 57
4.7094631 6.7008944 2.066108 24
5.6907086 8.0940628 1.4704524 44
nan nan nan 0
0.018450189 0.025346708 1.9991974 78
0.18284078 0.25703058 2.0057628 96
0.24971813 0.35275191 2.1013131 40
0.35250285 0.49863559 1.9981875 60
0.47867206 0.67733657 2.0135226 95
0.61257929 0.86712325 2.012115 83
0.76513475 1.0830598 2.0202241 50
0.9463504 1.3395646 2.0396011 47
0.073439136 0.10121617 1.9960728 89
0.12996632 0.17720236 2.0032918 91
0.31066099 0.43767655 2.1025403 38
0.41486299 0.58488482 2.0042257 93
0.5437277 0.76710916 2.0071244 90
0.68869793 0.97162628 2.0182064 87
0.85382712 1.2045835 2.0291767 63
1.0416827 1.4696028 2.0310817 90
1.1406119 1.6181332 2.025275 75
1.4102694 2.0006759 2.0553811 39
1.7121532 2.428041 2.0324864 64
2.1428645 3.0388348 2.0321403 49
2.7930183 3.9593613 2.0459704 9
3.8449428 5.4485407 2.0488243 22
5.7070394 8.0872536 1.9707017 37
1.8121601 2.567003 0.37448978 60
1.2610162 1.7836454 2.0260069 77
1.5419232 2.1801653 2.0279264 67
1.917905 2.7117691 2.0366411 22
2.4384742 3.4465363 2.0391645 57
3.2660189 4.6144772 2.0556357 56
4.7300158 6.6804471 2.0649357 24
5.67313 8.009491 1.4594154 30
nan nan nan 0
0.018538553 0.02528215 1.9991974 78
0.18373686 0.25639078 2.0057628 96
0.25094792 0.35187808 2.1013131 40
0.35424128 0.49740204 1.9981875 56
0.4799003 0.67407006 2.0089202 93
0.61560243 0.86497962 2.012115 85
0.76891071 1.0803823 2.0202241 62
0.95102066 1.336253 2.0396011 47
0.073791988 0.1009592 1.9960728 89
0.13058408 0.17674762 2.0032918 91
0.31218687 0.43658945 2.1025403 38
0.41690207 0.58343309 2.0042257 93
0.54640216 0.76520646 2.0071244 88
0.69208533 0.96921629 2.0182064 87
0.85802668 1.2015957 2.0291767 63
1.0468063 1.4659579 2.0310817 90
1.1462532 1.6141418 2.025275 75
1.4172443 1.995741 2.0553811 46
1.7181966 2.4186406 2.0297451 50
2.1534588 3.0313363 2.0321403 59
2.8041365 3.9458089 2.0440972 11
3.8639383 5.4350863 2.0488243 22
5.7096181 8.031251 1.962308 36
1.8297683 2.5728366 0.37582842 40
1.2672346 1.7792327 2.0260069 77
1.5495238 2.1747696 2.0279264 67
1.9248575 2.7015467 2.0341086 31
2.4504902 3.4380035 2.0391645 58
3.2821062 4.6030478 2.0556357 36
4.750483 6.6599383 2.0637634 24
5.6981773 7.9856071 1.4587256 26
nan nan nan 0
0.018626692 0.025217285 1.9991974 78
0.18463072 0.25574785 2.0057628 97
0.25217468 0.35099995 2.1013131 46
0.35597539 0.49616247 1.9981875 51
0.48225033 0.67239082 2.0089202 93
0.61861795 0.86282545 2.012115 85
0.77267718 1.0776918 2.0202241 73
0.95567918 1.3329253 2.0396011 45
0.074143961 0.100701 1.9960728 88
0.13120024 0.17629072 2.0032918 91
0.31370896 0.43549708 2.1025403 37
0.41893607 0.58197427 2.0042257 93
0.55034149 0.76506227 2.0116253 90
0.69546431 0.96679461 2.0182064 87
0.86221582 1.1985933 2.0291767 63
1.0499374 1.4595426 2.0274065 90
1.1518807 1.6101308 2.025275 77
1.4242022 1.9907817 2.0553811 44
1.7290622 2.4160287 2.0324864 38
2.164027 3.0238011 2.0321403 59
2.817893 3.9359965 2.0440972 12
3.8828869 5.4215655 2.0488243 23
5.7090154 7.9713354 1.9529821 36
1.838738 2.5664339 0.37582842 40
1.2734375 1.7747984 2.0260069 77
1.5571058 2.1693475 2.0279264 67
1.934276 2.6948111 2.0341086 41
2.462476 3.4294288 2.0391645 58
3.300909 4.5953984 2.0572784 16
4.7708659 6.6393685 2.0625911 22
5.7028933 7.9334998 1.453207 26
1.6798958 2.3361061 0.20974723 2
0.018714603 0.025152111 1.9991974 78
0.18552232 0.2551018 2.0057628 97
0.25339836 0.35011759 2.1013131 46
0.35770512 0.49491686 1.9981875 45
0.48459449 0.67070335 2.0089202 93
0.62162602 0.86066085 2.012115 83
0.77808207 1.0772692 2.0243571 71
0.96032625 1.3295811 2.0396011 47
0.074495018 0.10044158 1.9960728 89
0.13181482 0.17583168 2.0032918 91
0.31522721 0.4343994 2.1025403 37
0.41995195 0.57911146 1.9995331 91
0.55300874 0.76313657 2.0116253 90
0.69883478 0.96436107 2.0182064 89
0.8663944 1.1955763 2.0291767 63
1.0550257 1.4558687 2.0274065 86
1.1574941 1.6061001 2.025275 77
1.4334185 1.9889562 2.0585186 42
1.730149 2.3998029 2.0242622 27
2.1745689 3.0162289 2.0321403 59
2.831615 3.9261365 2.0440972 16
3.901788 5.407979 2.0488243 30
5.7109389 7.9155068 1.9445884 37
1.8505999 2.5640383 0.37627462 53
1.2796251 1.7703425 2.0260069 77
1.5646688 2.1638992 2.0279264 69
1.9436709 2.6880429 2.0341086 62
2.477092 3.4244895 2.0412626 59
3.3030877 4.5647192 2.0490649 5
4.791162 6.6187372 2.0614188 17
5.7131248 7.8894796 1.4490682 31
1.6763164 2.3140445 0.2089411 2
0.018806664 0.025083352 1.9991974 78
0.18645605 0.25442013 2.0057628 97
0.25467992 0.34918648 2.1013131 51
0.35951671 0.49360251 1.9981875 45
0.48704949 0.66892266 2.0089202 93
0.6247763 0.85837668 2.012115 83
0.78202516 1.0744102 2.0243571 58
0.96330631 1.3234606 2.0357642 47
0.075036392 0.10039952 2.0010643 89
0.13245839 0.17534736 2.0032918 89
0.31681725 0.4332411 2.1025403 38
0.42207167 0.57756835 1.9995331 91
0.55580199 0.76110458 2.0116253 93
0.70236462 0.9617933 2.0182064 89
0.87077051 1.1923928 2.0291767 63
1.0603546 1.4519922 2.0274065 83
1.1633729 1.6018469 2.025275 75
1.4406987 1.9836891 2.0585186 48
1.751222 2.4103596 2.0379696 15
2.1856093 3.0082383 2.0321403 59
2.8459859 3.9157317 2.0440972 26
3.918762 5.3897614 2.047415 35
5.7110252 7.8547907 1.9352622 42
nan nan nan 0
1.286105 1.7656406 2.0260069 77
1.5725894 2.1581497 2.0279264 67
1.9535098 2.6809011 2.0341086 66
2.4896266 3.4153876 2.0412626 58
3.394922 4.6556058 2.0934174 4
4.8010664 6.5814981 2.0555573 12
5.7186489 7.836484 1.4435496 37
1.7024608 2.3320956 0.21015027 2
0.018894106 0.025017552 1.9991974 78
0.18734303 0.25376773 2.0057628 97
0.25589722 0.34829533 2.1013131 51
0.3612375 0.49234459 1.9981875 49
0.48938146 0.66721851 2.0089202 91
0.62776881 0.85619062 2.012115 83
0.78577083 1.071674 2.0243571 58
0.96792018 1.3200901 2.0357642 45
0.075386398 0.10013698 2.0010643 89
0.13306965 0.17488393 2.0032918 91
0.31832764 0.43213257 2.1025403 38
0.42408514 0.57609159 1.9995331 91
0.55845547 0.7591598 2.0116253 93
0.70726311 0.96143651 2.0224724 87
0.87492752 1.189346 2.0291767 63
1.0654166 1.448282 2.0274065 78
1.1689574 1.5977762 2.025275 75
1.4453158 1.9755064 2.0553811 50
1.7620947 2.4076064 2.0407109 10
2.1960967 3.0005908 2.0321403 59
2.859637 3.9057734 2.0440972 27
3.9375517 5.3760495 2.047415 36
5.6861615 7.763474 1.918475 38
nan nan nan 0
1.2922604 1.7611406 2.0260069 77
1.5801132 2.152647 2.0279264 67
1.9603049 2.6705902 2.0315762 66
2.5015333 3.4066763 2.0412626 60
3.4335184 4.6741748 2.1065588 3
4.8441582 6.5921164 2.0637634 7
5.7166367 7.7765732 1.4366515 38
1.7253896 2.3462625 0.21115792 2
0.018981319 0.024951447 1.9991974 78
0.18776388 0.25248885 2.0008237 96
0.25711146 0.34739998 2.1013131 53
0.36384165 0.49228165 2.0029593 64
0.49170753 0.66550618 2.0089202 91
0.6307537 0.85399407 2.012115 83
0.79117876 1.071188 2.0284901 58
0.97252232 1.3167032 2.0357642 43
0.075735472 0.099873222 2.0010643 89
0.1336793 0.17441836 2.0032918 93
0.31983411 0.43101877 2.1025403 38
0.42609352 0.57460767 1.9995331 91
0.56110197 0.75720578 2.0116253 93
0.71061486 0.95896184 2.0224724 87
0.8790738 1.1862847 2.0291767 63
1.0704654 1.4445541 2.0274065 74
1.1745275 1.5936861 2.025275 75
1.4522029 1.9704492 2.0553811 40
1.8027455 2.4451938 2.07635 7
2.2065573 2.9929066 2.0321403 59
2.8732536 3.8957675 2.0440972 31
3.9534452 5.3584118 2.0460057 36
5.7161431 7.7475309 1.9194076 38
nan nan nan 0
1.2984 1.756619 2.0260069 79
1.5876175 2.1471186 2.0279264 69
1.9696151 2.6637311 2.0315762 65
2.5134099 3.3979237 2.0412626 59
3.4498138 4.6621609 2.1065588 3
4.8758154 6.5868878 2.0672803 5
5.7142763 7.7167726 1.4297533 42
1.7276214 2.3321965 0.21075487 2
0.019068301 0.024885036 1.9991974 82
0.18911007 0.25245366 2.0057628 96
0.25832254 0.34650037 2.1013131 53
0.36555782 0.49100858 2.0029593 71
0.49402758 0.66378576 2.0089202 93
0.63373083 0.85178709 2.012115 83
0.79491311 1.0684198 2.0284901 58
0.97902608 1.3158726 2.0396011 43
0.076083645 0.099608243 2.0010643 89
0.13428733 0.17395066 2.0032918 93
0.32133672 0.42989972 2.1025403 38
0.42809671 0.57311684 1.9995331 91
0.56374168 0.75524253 2.0116253 93
0.71395791 0.95647544 2.0224724 87
0.88320929 1.1832088 2.0291767 63
1.0755013 1.4408087 2.0274065 74
1.1800834 1.5895765 2.025275 77
1.4567517 1.9622424 2.052243 40
1.8461728 2.4858832 2.1147306 5
2.2169909 2.9851859 2.0321403 60
2.8868349 3.8857143 2.0440972 32
3.9692645 5.3407288 2.0445967 38
nan nan nan 0
nan nan nan 0
1.3045239 1.7520759 2.0260069 77
1.5951028 2.1415634 2.0279264 67
1.9789011 2.6568396 2.0315762 65
2.5252554 3.3891294 2.0412626 58
3.4660668 4.6500907 2.1065588 3
4.939455 6.6243806 2.0836928 4
5.7145305 7.6610546 1.4235451 45
1.7327641 2.3221478 0.21055335 2
0.01915505 0.024818324 1.9991974 75
0.18999015 0.25179201 2.0057628 96
0.25953048 0.34559655 2.1013131 57
0.36726952 0.48972955 2.0029593 84
0.49634159 0.66205722 2.0089202 91
0.63670021 0.84956974 2.012115 81
0.80032533 1.0678904 2.0326231 60
0.98361337 1.3124471 2.0396011 45
0.07643088 0.099342063 2.0010643 88
0.1348937 0.17348085 2.0032918 93
0.32283536 0.4287754 2.1025403 38
0.43009463 0.57161903 1.9995331 91
0.56637454 0.75327021 2.0116253 90
0.71729225 0.95397753 2.0224724 91
0.88733405 1.1801187 2.0291767 61
1.0805242 1.4370457 2.0274065 74
1.185625 1.5854475 2.025275 75
1.4635924 1.9571453 2.052243 42
1.854839 2.4794235 2.1147306 5
2.2273979 2.9774289 2.0321403 60
2.9003806 3.8756137 2.0440972 28
3.9850075 5.323 2.0431874 40
5.5139694 7.3653197 1.8382696 80
2.5851021 3.451813 0.47934911 2
1.3128723 1.7504989 2.0293317 77
1.6025685 2.1359825 2.0279264 67
1.985576 2.6464674 2.0290439 66
2.5370703 3.3802938 2.0412626 58
3.4624288 4.6115274 2.0950599 4
4.9654684 6.6109848 2.0848651 4
5.7144647 7.6054277 1.4173367 46
1.7378578 2.3120916 0.21035179 2
0.019214306 0.024717238 1.9941976 75
0.1908679 0.25112727 2.0057628 96
0.26073524 0.34468853 2.1013131 57
0.36897674 0.48844457 2.0029593 86
0.49864963 0.66032058 2.0089202 91
0.63966197 0.84734213 2.012115 81
0.80404818 1.0650902 2.0326231 60
0.98818868 1.3090056 2.0396011 45
0.076599427 0.09884607 1.9960728 88
0.13549845 0.17300895 2.0032918 93
0.32433009 0.42764589 2.1025403 38
0.43208733 0.57011425 1.9995331 91
0.56900054 0.75128859 2.0116253 90
0.72061795 0.95146787 2.0224724 89
0.89144808 1.1770141 2.0291767 61
1.0855339 1.4332653 2.0274065 76
1.1911519 1.5812994 2.025275 73
1.4704151 1.9520247 2.052243 42
1.8659987 2.4762731 2.1174719 6
2.235111 2.9660976 2.0298221 59
2.9138913 3.8654659 2.0440972 28
4.0006757 5.3052268 2.0417781 36
5.5189428 7.318573 1.8317413 80
2.5911372 3.4348168 0.47845668 3
1.3189747 1.7459055 2.0293317 71
1.6100149 2.1303754 2.0279264 67
1.9948019 2.6395204 2.0290439 66
2.5488541 3.3714173 2.0412626 59
3.4642622 4.5805812 2.0868468 6
5.0119753 6.6246219 2.0942435 4
5.7140803 7.5498958 1.4111284 46
1.7489333 2.3099942 0.21055335 2
0.019327845 0.024683993 1.9991974 77
0.19127086 0.24984264 2.0008237 95
0.26255405 0.34458616 2.1062086 61
0.3706795 0.48715362 2.0029593 86
0.50095153 0.65857595 2.0089202 93
0.6426158 0.8451041 2.012115 85
0.80776107 1.0622771 2.0326231 60
0.9927519 1.3055482 2.0396011 47
0.076943986 0.098578095 1.9960728 89
0.13610154 0.1725349 2.0032918 91
0.32582089 0.42651117 2.1025403 38
0.43407479 0.5686025 1.9995331 91
0.57029867 0.74756646 2.0071244 93
0.72235286 0.94687313 2.0182064 89
0.89555115 1.1738952 2.0291767 61
1.0905303 1.4294673 2.0274065 78
1.1966645 1.5771319 2.025275 73
1.474867 1.9437789 2.0491054 42
1.8771594 2.4730754 2.1202135 6
2.245451 2.9582777 2.0298221 59
2.9273667 3.8552709 2.0440972 33
4.0162678 5.2874093 2.040369 36
5.5117712 7.2562351 1.8214825 70
2.6061244 3.4297166 0.47890291 3
1.325061 1.7412907 2.0293317 64
1.6174413 2.1247425 2.0279264 67
2.0040033 2.6325412 2.0290439 66
2.5578575 3.3588889 2.0391645 58
3.4630599 4.5459208 2.0769906 9
5.0262308 6.5954881 2.0907266 5
5.7163811 7.4983974 1.4056098 45
1.744868 2.2879853 0.20974723 2
0.019386396 0.024582496 1.9941976 78
0.19214183 0.24917348 2.0008237 95
0.26375526 0.34366757 2.1062086 61
0.37237775 0.48585674 2.0029593 86
0.50324738 0.6568234 2.0089202 93
0.64556187 0.84285575 2.012115 83
0.81146425 1.059451 2.0326231 60
0.99730313 1.3020749 2.0396011 47
0.077287629 0.098308906 1.9960728 89
0.13670297 0.17205878 2.0032918 93
0.3273077 0.42537123 2.1025403 38
0.43710884 0.56845176 2.0042257 91
0.57290471 0.7455712 2.0071244 93
0.72565365 0.94434583 2.0182064 89
0.89964336 1.1707619 2.0291767 61
1.0955133 1.4256519 2.0274065 81
1.2021623 1.5729451 2.025275 75
1.481643 1.9386187 2.0491054 39
1.8883203 2.4698296 2.1229548 9
2.2557635 2.9504213 2.0298221 59
2.9379897 3.8413465 2.0422242 39
4.0347004 5.2733579 2.040369 37
5.5131874 7.2057409 1.8140216 66
2.6150534 3.4166441 0.47845668 3
1.3334032 1.7396189 2.0326567 44
1.6248484 2.1190836 2.0279264 67
2.0105572 2.6221085 2.0265114 66
2.5695665 3.3499398 2.0391645 58
3.4645324 4.5150723 2.0687771 6
5.0344243 6.5586252 2.0848651 6
5.7153759 7.4430475 1.3994015 46
1.746757 2.2739568 0.20934415 2
0.019472089 0.024514675 1.9941976 78
0.19301043 0.24850124 2.0008237 96
0.26495326 0.34274477 2.1062086 59
0.37407145 0.48455396 2.0029593 86
0.50553697 0.65506274 2.0089202 95
0.64850003 0.84059727 2.012115 83
0.81515747 1.0566119 2.0326231 60
1.0018421 1.2985858 2.0396011 47
0.077810459 0.098265231 2.0010643 88
0.13730273 0.17158054 2.0032918 93
0.32879055 0.42422614 2.1025403 38
0.43803376 0.56555825 1.9995331 91
0.57550377 0.74356681 2.0071244 90
0.72894567 0.94180703 2.0182064 89
0.90372467 1.1676145 2.0291767 63
1.1004832 1.4218192 2.0274065 85
1.2076455 1.5687391 2.025275 75
1.4884009 1.933435 2.0491054 39
1.8969302 2.463223 2.1229548 12
2.2660489 2.9425294 2.0298221 59
2.9485512 3.8273952 2.0403512 50
4.0501547 5.2554426 2.0389597 36
5.523313 7.1669974 1.8093585 66
2.6239231 3.4035506 0.47801045 4
1.3394674 1.7349539 2.0326567 35
1.6322354 2.113399 2.0279264 67
2.0196977 2.6150744 2.0265114 66
2.5812445 3.3409503 2.0391645 54
3.4658322 4.4842682 2.0605636 6
5.048368 6.5294752 2.0813482 12
5.7170839 7.3917136 1.393883 46
1.7913706 2.3152611 0.21176252 2
0.019557541 0.024446554 1.9941976 78
0.19387667 0.247826 2.0008237 93
0.26614806 0.34181783 2.1062086 59
0.37576056 0.48324525 2.0029593 86
0.50782055 0.65329403 2.0089202 95
0.65143031 0.83832848 2.012115 83
0.81884074 1.0537602 2.0326231 60
1.0063689 1.2950807 2.0396011 47
0.078152984 0.097993024 2.0010643 89
0.13790081 0.17110021 2.0032918 93
0.33026934 0.42307585 2.1025403 38
0.44000524 0.56402576 1.9995331 91
0.57809579 0.74155337 2.0071244 90
0.7322287 0.93925685 2.0182064 89
0.90779483 1.1644529 2.0291767 61
1.107524 1.4206429 2.0310817 80
1.2131143 1.5645142 2.025275 75
1.4951409 1.9282278 2.0491054 46
1.8978283 2.4466748 2.1147306 11
2.2735913 2.9311013 2.0275044 60
2.9590516 3.813417 2.0384781 57
4.0655336 5.2374835 2.0375507 36
5.5272121 7.1205111 1.8028301 70
2.3700578 3.0521641 0.43919021 9
1.3455155 1.7302676 2.0326567 32
1.6396025 2.1076887 2.0279264 67
2.0288136 2.6080084 2.0265114 65
2.5928907 3.3319197 2.0391645 51
3.4611578 4.4460583 2.0490649 7
5.0621705 6.5003095 2.0778313 21
5.7185035 7.3404598 1.3883644 45
1.8301514 2.3483999 0.21377784 2
0.019670606 0.024411727 1.9991974 78
0.19474058 0.24714772 2.0008237 93
0.26733962 0.34088671 2.1062086 63
0.3774451 0.48193067 2.0029593 78
0.5100978 0.65151739 2.0089202 93
0.65435261 0.83604944 2.012115 79
0.82251406 1.0508955 2.0326231 60
1.0108836 1.2915599 2.0396011 47
0.078494571 0.097719625 2.0010643 89
0.13849723 0.17061782 2.0032918 93
0.33174413 0.42192042 2.1025403 39
0.44197139 0.56248641 1.9995331 91
0.58068073 0.73953098 2.0071244 90
0.73550284 0.93669522 2.0182064 85
0.91185397 1.1612769 2.0291767 61
1.1124761 1.4167683 2.0310817 74
1.218568 1.56027 2.025275 77
1.5018625 1.9229969 2.0491054 40
1.89606 2.4268548 2.1037648 10
2.2838087 2.9231472 2.0275044 57
2.9723449 3.8030648 2.0384781 54
4.0837913 5.2232604 2.0375507 36
5.5308542 7.0740857 1.7963018 69
1.972643 2.5221496 0.37984428 16
1.3515469 1.7255604 2.0326567 32
1.6469498 2.1019523 2.0279264 67
2.0379047 2.6009104 2.0265114 65
2.6045055 3.3228483 2.0391645 39
3.4650006 4.4190845 2.0424941 9
5.0758305 6.4711256 2.0743141 23
5.722693 7.2931828 1.3835357 42
1.8414224 2.3459272 0.21397936 2
0.019755697 0.024342917 1.9991974 78
0.19656844 0.2476835 2.0107021 90
0.2685279 0.33995146 2.1062086 63
0.37912506 0.48061019 2.0029593 78
0.51236898 0.64973289 2.0089202 93
0.65726697 0.83376026 2.012115 75
0.82617736 1.0480179 2.0326231 60
1.0153857 1.2880235 2.0396011 47
0.078835204 0.097445033 2.0010643 89
0.13909195 0.17013334 2.0032918 93
0.33321494 0.42075983 2.1025403 39
0.44393215 0.56094027 1.9995331 93
0.58460945 0.73920751 2.0116253 90
0.73876804 0.93412203 2.0182064 79
0.91590202 1.1580868 2.0291767 61
1.1195178 1.4155353 2.0347569 66
1.2240068 1.5560069 2.025275 77
1.5061589 1.9146831 2.0459676 40
1.8967621 2.4103634 2.0955403 7
2.2939987 2.9151573 2.0275044 37
2.9856021 3.7926662 2.0384781 54
4.0990305 5.2052045 2.0361414 36
5.5312009 7.0238624 1.7888409 70
1.9783533 2.5113366 0.37939808 49
1.3714396 1.738423 2.0526056 36
1.654277 2.0961907 2.0279264 67
2.0469716 2.5937812 2.0265114 66
2.6160886 3.3137369 2.0391645 32
3.4921126 4.4217868 2.0490649 13
5.092361 6.4457402 2.0719695 20
5.7235503 7.2420788 1.3780171 41
1.8434033 2.3316472 0.21357632 2
0.01984055 0.024273807 1.9991974 78
0.19791709 0.24760264 2.0156415 88
0.26971292 0.33901206 2.1062086 63
0.3808004 0.47928387 2.0029593 84
0.51463383 0.6479404 2.0089202 93
0.66017336 0.83146089 2.012115 67
0.82983065 1.0451276 2.0326231 62
1.0178821 1.2819607 2.0357642 45
0.079174876 0.09716925 2.0010643 89
0.13968499 0.16964677 2.0032918 93
0.3346816 0.41959414 2.1025403 39
0.44588748 0.55938715 1.9995331 91
0.58718634 0.73716235 2.0116253 93
0.74202424 0.93153763 2.0182064 69
0.91993898 1.1548827 2.0291767 63
1.1244521 1.4116189 2.0347569 61
1.2294309 1.5517248 2.025275 75
1.5128334 1.9094139 2.0459676 42
1.8947752 2.3906202 2.0845745 6
2.3069119 2.9106035 2.0298221 32
2.9988227 3.7822213 2.0384781 57
4.1171751 5.1908646 2.0361414 35
5.5312643 6.9737225 1.7813799 75
1.9809165 2.4966128 0.37850568 69
1.384469 1.7423965 2.0625803 40
1.6615839 2.0904033 2.0279264 67
2.0560129 2.5866199 2.0265114 66
2.6276395 3.3045847 2.0391645 18
3.5104661 4.4132657 2.0507076 29
5.1087775 6.4203191 2.0696251 24
5.724122 7.1910596 1.3724986 40
1.8577551 2.3330147 0.21397936 2
0.01992516 0.024204403 1.9991974 78
0.20024237 0.24872564 2.0304592 86
0.27089465 0.33806852 2.1062086 63
0.38247108 0.47795168 2.0029593 86
0.51689243 0.6461401 2.0089202 93
0.66307163 0.82915133 2.012115 60
0.83347368 1.0422246 2.0326231 62
1.0223508 1.2783997 2.0357642 45
0.079513565 0.096892282 2.0010643 89
0.14027631 0.16915815 2.0032918 93
0.33614421 0.41842332 2.1025403 40
0.44783738 0.55782735 1.9995331 91
0.58975589 0.73510814 2.0116253 92
0.74527144 0.92894173 2.0182064 50
0.92396468 1.1516645 2.0291767 61
