# .PCD v0.7 - Point Cloud Data file format
VERSION 0.7
FIELDS x y z intensity
SIZE 4 4 4 4
TYPE F F F F
COUNT 1 1 1 1
WIDTH 1316
HEIGHT 1
VIEWPOINT 0 0 0 1 0 0 0
POINTS 1316
DATA ascii
-9.6740141 -0.9008404 0.96348679 11
-2.1528082 -0.19895738 2.006058 75
-2.6348896 -0.24304524 2.0102675 69
-3.2816546 -0.30269974 2.0214465 65
-4.1906013 -0.38580266 2.0328705 63
-5.5120592 -0.50649005 2.0145686 38
-7.9576192 -0.72980505 2.018043 27
-9.88274 -0.90462077 1.4745914 35
-4.51724 -0.41269386 0.2766555 114
-0.031219346 -0.0023417855 1.9941976 45
-0.31349567 -0.026950909 2.0008237 95
-0.4122645 -0.036394667 2.0131991 93
-0.48477438 -0.043117665 1.6021345 37
-0.82224029 -0.07325647 2.0043178 93
-1.0503129 -0.093750909 1.9989488 81
-1.3768723 -0.12289301 2.1028829 32
-1.6080862 -0.14352573 2.0089054 71
-0.12439866 -0.0095213167 1.9910811 69
-0.21919665 -0.015644502 2.0032918 86
-0.48833793 -0.042494811 1.9234896 39
-0.50462484 -0.044080887 1.4317083 56
-0.93450081 -0.081938118 2.0026236 90
-1.1812029 -0.10356259 2.0096743 87
-1.4468352 -0.12684655 1.9972607 84
-1.7741967 -0.155542 2.0090308 83
-1.9468488 -0.17581467 2.0007432 73
-2.3758135 -0.21454902 2.0051763 67
-3.0589569 -0.2757009 2.0982819 28
-3.6945493 -0.3329826 2.0275044 60
-4.7335277 -0.42579013 2.0085096 43
-6.5319886 -0.58641499 2.0164127 10
-10.049343 -0.90218723 2.0070741 78
-9.6076574 -0.86084431 0.95723987 11
-2.1534898 -0.19144148 2.006058 75
-2.6357219 -0.23384626 2.0102675 69
-3.2826912 -0.29124278 2.0214465 65
-4.1964436 -0.37157267 2.0349686 63
-5.5232019 -0.4880777 2.017854 37
-7.9601183 -0.70202333 2.018043 27
-9.7279778 -0.85622376 1.4525173 24
-4.6132116 -0.4052293 0.28048456 63
-0.031227328 -0.0022327956 1.9941976 45
-0.31358784 -0.025856443 2.0008237 93
-0.41238904 -0.034955371 2.0131991 91
-0.4849219 -0.041425217 1.6021345 38
-0.82249099 -0.070385866 2.0043178 95
-1.0506337 -0.090084054 1.9989488 79
-1.377293 -0.11808607 2.1028829 32
-1.6085775 -0.13791159 2.0089054 74
-0.12443114 -0.0090870261 1.9910811 69
-0.21924992 -0.014879267 2.0032918 78
-0.48848331 -0.040789939 1.9234896 39
-0.50477564 -0.042319153 1.4317083 56
-0.93478113 -0.078675605 2.0026236 92
-1.1789584 -0.099220097 2.0054085 87
-1.4472691 -0.12179538 1.9972607 84
-1.774729 -0.14934795 2.0090308 85
-1.9474505 -0.16901782 2.0007432 73
-2.3765478 -0.20625457 2.0051763 67
-3.0599005 -0.2650215 2.0982819 28
-3.695689 -0.32008421 2.0275044 59
-4.7349854 -0.40926448 2.0085096 42
-6.5387754 -0.56402284 2.0178218 10
-10.047537 -0.8666808 2.0061414 77
-9.5411396 -0.8213225 0.95099288 11
-2.1541448 -0.18392321 2.006058 75
-2.6365221 -0.22464447 2.0102675 69
-3.2836878 -0.2797823 2.0214465 64
-4.1977158 -0.35692209 2.0349686 63
-5.5342827 -0.46959367 2.0211391 37
-7.9673638 -0.67464316 2.0192153 26
-9.6272802 -0.81350517 1.4380312 20
-4.5249891 -0.38156757 0.27685699 34
-0.031234933 -0.0021237782 1.9941976 45
-0.31367621 -0.02476166 2.0008237 93
-0.41250855 -0.033515655 2.0131991 91
-0.48506355 -0.039732277 1.6021345 38
-0.82273161 -0.067514405 2.0043178 91
-1.0533296 -0.086612426 2.0033376 81
-1.3776969 -0.11327771 2.1028829 33
-1.6090491 -0.13229577 2.0089054 74
-0.12475099 -0.0086722188 1.9960728 69
-0.21930054 -0.014113851 2.0032918 75
-0.48862273 -0.039084565 1.9234896 39
-0.5049203 -0.040556893 1.4317083 58
-0.93505001 -0.075412132 2.0026236 90
-1.1792974 -0.095104158 2.0054085 85
-1.4476852 -0.11674272 1.9972607 84
-1.7752393 -0.14315207 2.0090308 83
-1.9480288 -0.16221893 2.0007432 67
-2.3772533 -0.19795761 2.0051763 66
-3.0608072 -0.25433883 2.0982819 28
-3.696784 -0.30718189 2.0275044 59
-4.7363849 -0.39273378 2.0085096 42
-6.5407043 -0.5411948 2.0178218 33
-10.050502 -0.83160311 2.0061414 76
-9.49928 -0.78432453 0.94697702 11
-2.1547735 -0.17640273 2.006058 73
-2.6372902 -0.2154399 2.0102675 69
-3.2846446 -0.26831836 2.0214465 65
-4.198935 -0.34226716 2.0349686 64
-5.5358887 -0.45027256 2.0211391 38
-7.9648252 -0.64643455 2.018043 23
-9.496788 -0.76910156 1.4194061 14
-4.5362535 -0.36657491 0.27726007 45
-0.031242156 -0.0020147348 1.9941976 45
-0.31376073 -0.023666576 2.0008237 92
-0.41262305 -0.032075524 2.0131991 93
-0.4851993 -0.038038842 1.6021345 38
-0.82296228 -0.064642124 2.0043178 95
-1.0536255 -0.082935095 2.0033376 81
-1.3780837 -0.10846796 2.1028829 34
-1.606305 -0.1264268 2.0050688 74
-0.12478051 -0.0082367035 1.9960728 69
-0.21934846 -0.013348264 2.0032918 73
-0.48875618 -0.037378713 1.9234896 39
-0.50505883 -0.038794149 1.4317083 58
-0.93530756 -0.072147742 2.0026236 90
-1.1796223 -0.090987064 2.0054085 85
-1.448084 -0.11168864 1.9972607 84
-1.7757282 -0.13695447 2.0090308 83
-1.9485831 -0.15541805 2.0007432 67
-2.3779299 -0.18965825 2.0051763 64
-3.0616763 -0.24365307 2.0982819 28
-3.6978335 -0.29427585 2.0275044 58
-4.7377267 -0.37619832 2.0085096 41
-6.5473361 -0.5187391 2.0192311 32
-10.053343 -0.79651523 2.0061414 79
-9.4423857 -0.74645156 0.9416225 15
-2.1553764 -0.16888011 2.006058 73
-2.638026 -0.20623274 2.0102675 69
-3.2855611 -0.2568512 2.0214465 64
-4.2001047 -0.32760805 2.0349686 64
-5.5374269 -0.43094596 2.0211391 37
-7.9670334 -0.6186282 2.018043 14
-9.4500408 -0.73212183 1.4125079 23
-4.5125995 -0.34881306 0.27625242 56
-0.03129258 -0.001907715 1.9991974 45
-0.3138414 -0.022571201 2.0008237 90
-0.41273245 -0.030635007 2.0131991 93
-0.48532912 -0.036344949 1.6021345 37
-0.82318294 -0.061769057 2.0043178 95
-1.0539086 -0.079256751 2.0033376 81
-1.378454 -0.10365689 2.1028829 34
-1.6067367 -0.12081898 2.0050688 76
-0.12509754 -0.0078186654 2.0010643 71
-0.21939372 -0.012582514 2.0032918 73
-0.48888361 -0.035672411 1.9234896 39
-0.50519115 -0.037030928 1.4317083 56
-0.93555373 -0.068882473 2.0026236 92
-1.1799327 -0.086868867 2.0054085 87
-1.4484651 -0.10663322 1.9972607 84
-1.7761955 -0.13075519 2.0090308 81
-1.9491138 -0.14861529 2.0007432 73
-2.3785775 -0.18135658 2.0051763 60
-3.0666771 -0.23328148 2.1010232 28
-3.6988382 -0.2813662 2.0275044 58
-4.7390113 -0.35965827 2.0085096 43
-6.5491066 -0.4958815 2.0192311 32
-10.051163 -0.76104683 2.0052087 81
-9.4201031 -0.71161127 0.93939143 4
-2.1559527 -0.16135541 2.006058 73
-2.63873 -0.19702306 2.0102675 69
-3.2864377 -0.24538086 2.0214465 64
-4.2012224 -0.31294495 2.0349686 63
-5.538897 -0.41161409 2.0211391 37
-7.9739914 -0.59117365 2.0192153 11
nan nan nan 0
-4.5137897 -0.33305904 0.27625242 86
-0.031299051 -0.0017984719 1.9991974 45
-0.31391829 -0.021475552 2.0008237 93
-0.41283688 -0.029194117 2.0131991 87
-0.48545304 -0.034650613 1.6021345 38
-0.82534212 -0.059034571 2.0089202 96
-1.0541788 -0.075577438 2.0033376 81
-1.3788074 -0.098844558 2.1028829 35
-1.6071485 -0.11520968 2.0050688 74
-0.12512405 -0.0073819458 2.0010643 71
-0.2194363 -0.01181661 2.0032918 73
-0.48775041 -0.033878583 1.9186503 39
-0.50531733 -0.035267256 1.4317083 56
-0.93578845 -0.065616362 2.0026236 92
-1.1802287 -0.082749605 2.0054085 85
-1.451835 -0.10178724 2.00125 84
-1.7766411 -0.12455431 2.0090308 83
-1.9496206 -0.14181069 2.0007432 73
-2.3791959 -0.17305268 2.0051763 64
-3.0674729 -0.22257535 2.1010232 28
-3.6997976 -0.26845309 2.0275044 58
-4.7402377 -0.34311384 2.0085096 42
-6.555582 -0.47336328 2.0206404 33
-10.053759 -0.72595704 2.0052087 87
nan nan nan 0
-2.1565027 -0.15382873 2.006058 75
-2.6394017 -0.18781096 2.0102675 69
-3.2872744 -0.23390757 2.0214465 65
-4.2022896 -0.29827806 2.0349686 63
-5.5403004 -0.39227724 2.0211391 37
-7.980855 -0.56367809 2.0203876 27
-10.062535 -0.70893896 1.4973553 78
-4.5049577 -0.31660047 0.27584937 114
-0.031305138 -0.0016892068 1.9991974 45
-0.31399134 -0.02037964 2.0008237 93
-0.41293627 -0.027752869 2.0131991 87
-0.48557106 -0.032955859 1.6021345 38
-0.82554317 -0.056153234 2.0089202 96
-1.0544363 -0.071897201 2.0033376 83
-1.3791441 -0.094031014 2.1028829 35
-1.607541 -0.10959899 2.0050688 74
-0.12514906 -0.006945136 2.0010643 71
-0.21947621 -0.011050562 2.0032918 75
-0.48786572 -0.032175817 1.9186503 39
-0.50543731 -0.033503152 1.4317083 58
-0.93601179 -0.062349446 2.0026236 92
-1.1831127 -0.078802623 2.0096743 85
-1.4521813 -0.096718758 2.00125 82
-1.777065 -0.11835191 2.0090308 85
-1.9536613 -0.13525066 2.0042477 73
-2.3797853 -0.16474669 2.0051763 66
-3.0724027 -0.21215457 2.1037648 28
-3.7007124 -0.25553676 2.0275044 60
-4.7414069 -0.32656521 2.0085096 42
-6.5571947 -0.45047712 2.0206404 32
-10.051331 -0.69052178 2.004276 79
-21.955145 -1.5044553 2.0647328 33
-2.1570265 -0.1463002 2.006058 75
-2.6400414 -0.17859659 2.0102675 69
-3.2880707 -0.22243141 2.0214465 63
-4.2078333 -0.28391302 2.0370667 63
-5.5416355 -0.37293562 2.0211391 37
-7.9876237 -0.53614181 2.02156 28
-10.050126 -0.67281747 1.4952859 70
-4.5060353 -0.30087331 0.27584937 112
-0.031354446 -0.0015815124 2.0041974 49
-0.31406057 -0.019283485 2.0008237 93
-0.41303065 -0.026311282 2.0131991 93
-0.48568311 -0.031260695 1.6021345 37
-0.8257342 -0.053271204 2.0089202 97
-1.0546808 -0.0682161 2.0033376 83
-1.3794639 -0.089216337 2.1028829 36
-1.6079136 -0.10398696 2.0050688 76
-0.12517256 -0.0065082423 2.0010643 71
-0.21951345 -0.010284379 2.0032918 75
-0.48797503 -0.030472649 1.9186503 39
-0.50555122 -0.031738646 1.4317083 54
-0.93622375 -0.059081774 2.0026236 92
-1.1833806 -0.074672312 2.0096743 87
-1.4525102 -0.091649115 2.00125 84
-1.7774674 -0.11214808 2.0090308 83
-1.9541216 -0.12843029 2.0042477 73
-2.3803461 -0.15643868 2.0051763 64
-3.0731246 -0.20142859 2.1037648 28
-3.701582 -0.24261734 2.0275044 60
-4.7471437 -0.31031504 2.0103827 42
-6.5635142 -0.4278976 2.0220494 32
-10.05368 -0.65543193 2.004276 76
-21.940384 -1.4265159 2.062948 36
-2.1575241 -0.13876988 2.006058 75
-2.6406484 -0.16938004 2.0102675 71
-3.2931299 -0.21122853 2.0239789 63
-4.2087989 -0.26922321 2.0370667 63
-5.5429034 -0.35358942 2.0211391 38
-7.9942966 -0.50856513 2.0227323 27
-10.057354 -0.63804543 1.4959757 72
-4.5020723 -0.28482705 0.27564782 100
-0.031359777 -0.0014720554 2.0041974 49
-0.31412596 -0.018187089 2.0008237 93
-0.41311994 -0.024869377 2.0131991 91
-0.4857893 -0.029565156 1.6021345 37
-0.8259151 -0.05038853 2.0089202 96
-1.0549124 -0.064534165 2.0033376 81
-1.3797669 -0.084400557 2.1028829 37
-1.6082669 -0.098373652 2.0050688 74
-0.1251945 -0.006071269 2.0010643 73
-0.219548 -0.009518072 2.0032918 77
-0.48807842 -0.028769113 1.9186503 39
-0.50565892 -0.029973747 1.4317083 54
-0.93642426 -0.055813387 2.0026236 92
-1.183634 -0.070541091 2.0096743 87
-1.4528211 -0.086578354 2.00125 87
-1.777848 -0.10594288 2.0090308 83
-1.954558 -0.12160835 2.0042477 73
-2.3808777 -0.14812876 2.0051763 64
-3.0738089 -0.19070016 2.1037648 32
-3.7024062 -0.22969492 2.0275044 43
-4.748198 -0.29374254 2.0103827 40
-6.5649676 -0.40498403 2.0220494 32
-10.051003 -0.62003154 2.0033436 76
-21.960138 -1.3508382 2.0642865 38
-2.1579955 -0.13123786 2.006058 73
-2.6412239 -0.16016142 2.0102675 69
-3.2938471 -0.19973207 2.0239789 65
-4.2051826 -0.25425622 2.0349686 63
-5.5441041 -0.33423892 2.0211391 38
-8.0008755 -0.4809483 2.0239046 27
-10.049635 -0.60234231 1.494596 73
-4.5130129 -0.26970619 0.27605087 100
-0.031364724 -0.0013625803 2.0041974 49
-0.31418753 -0.017090475 2.0008237 95
-0.41320425 -0.023427166 2.0131991 95
-0.48588949 -0.027869254 1.6021345 38
-0.82608598 -0.047505241 2.0089202 95
-1.0551313 -0.060851432 2.0033376 79
-1.380053 -0.079583764 2.1028829 37
-1.6086005 -0.092759155 2.0050688 74
-0.12492564 -0.0056216917 1.9960728 75
-0.21957989 -0.0087516485 2.0032918 84
-0.48817587 -0.027065225 1.9186503 39
-0.50576043 -0.028208487 1.4317083 56
-0.93661338 -0.052544314 2.0026236 92
-1.1838731 -0.066409007 2.0096743 87
-1.4531146 -0.081506528 2.00125 84
-1.7782071 -0.099736385 2.0090308 85
-1.9549706 -0.11478493 2.0042477 73
-2.3813803 -0.13981706 2.0051763 66
-3.07863 -0.18021375 2.1065061 32
-3.7031853 -0.2167697 2.0275044 43
-4.7491941 -0.27716643 2.0103827 40
-6.5711308 -0.38234425 2.0234587 32
-10.053106 -0.58494323 2.0033436 76
-22.014441 -1.277059 2.0687487 39
-2.1584404 -0.12370426 2.006058 75
-2.6458023 -0.15117143 2.0132108 69
-3.2945244 -0.18823318 2.0239789 66
-4.2105756 -0.23983394 2.0370667 63
-5.5452371 -0.31488433 2.0211391 38
-8.0025053 -0.45301712 2.0239046 27
-10.051676 -0.56725883 1.494596 73
-4.4989624 -0.25310934 0.2754463 107
-0.031325672 -0.0012519544 1.9991974 47
-0.31424528 -0.015993651 2.0008237 95
-0.41328353 -0.021984672 2.0131991 95
-0.48598382 -0.026173014 1.6021345 38
-0.82624674 -0.044621374 2.0089202 95
-1.0553372 -0.05716797 2.0033376 83
-1.3803226 -0.074765995 2.1028829 38
-1.6089145 -0.087143525 2.0050688 73
-0.12494449 -0.0051855859 1.9960728 75
-0.2196091 -0.0079851188 2.0032918 93
-0.48826739 -0.025361009 1.9186503 39
-0.50585586 -0.026442882 1.4317083 58
-0.93679112 -0.049274601 2.0026236 92
-1.1840976 -0.062276114 2.0096743 85
-1.4533902 -0.076433718 2.00125 84
-1.7785443 -0.093528673 2.0090308 85
-1.9553593 -0.1079601 2.0042477 73
-2.3818538 -0.13150363 2.0051763 64
-3.0792406 -0.16946623 2.1065061 33
-3.7083426 -0.20408528 2.0298221 60
-4.7501326 -0.26058698 2.0103827 38
-6.5724258 -0.35940436 2.0234587 32
-10.050182 -0.54957956 2.0024109 76
-22.038654 -1.2012906 2.0705335 40
-2.158859 -0.11616914 2.006058 75
-2.6463137 -0.14193493 2.0132108 69
-3.2951612 -0.176732 2.0239789 66
-4.2113872 -0.22513483 2.0370667 64
-5.5463023 -0.29552591 2.0211391 36
-8.0088921 -0.42533818 2.0250769 28
-10.053595 -0.53216851 1.494596 73
-4.489841 -0.23687705 0.27504325 116
-0.031329852 -0.0011425996 1.9991974 47
-0.31352308 -0.014860032 1.9958843 95
-0.41335773 -0.020541908 2.0131991 93
-0.48607224 -0.024476456 1.6021345 38
-0.82639748 -0.041736964 2.0089202 95
-1.0555303 -0.053483807 2.0033376 83
-1.3833855 -0.070089675 2.1070161 38
-1.6092088 -0.081526838 2.0050688 74
-0.12496184 -0.0047494164 1.9960728 75
-0.21963564 -0.0072184913 2.0032918 95
-0.48835295 -0.023656484 1.9186503 39
-0.50594503 -0.024676954 1.4317083 58
-0.93695736 -0.046004292 2.0026236 92
-1.1843078 -0.058142465 2.0096743 85
-1.4536482 -0.071359977 2.00125 84
-1.7788599 -0.087319821 2.0090308 83
-1.9557242 -0.10113397 2.0042477 73
-2.3822982 -0.12318861 2.0051763 64
-3.0798132 -0.15871663 2.1065061 33
-3.7090325 -0.1911395 2.0298221 61
-4.7510133 -0.24400431 2.0103827 38
-6.5736399 -0.33646014 2.0234587 32
-10.052039 -0.51449448 2.0024109 74
-22.082502 -1.1263834 2.0741031 49
-2.1592515 -0.10863262 2.006058 75
-2.6467931 -0.13269672 2.0132108 69
-3.295758 -0.16522866 2.0239789 66
-4.2121472 -0.21043298 2.0370667 64
-5.5473003 -0.27616391 2.0211391 36
-8.0103273 -0.39737934 2.0250769 27
-10.055391 -0.49707165 1.494596 72
-4.5006199 -0.22169472 0.2754463 116
-0.031333648 -0.0010332312 1.9991974 45
-0.31357303 -0.013765542 1.9958843 93
-0.41342694 -0.019098897 2.0131991 93
-0.48615471 -0.022779597 1.6021345 38
-0.82458669 -0.038760357 2.0043178 95
-1.0581038 -0.049911845 2.0077264 83
-1.3836218 -0.065260343 2.1070161 38
-1.6094836 -0.075909153 2.0050688 74
-0.12497765 -0.0043131891 1.9960728 77
-0.21965949 -0.0064517758 2.0032918 95
-0.48843253 -0.02195167 1.9186503 39
-0.50602812 -0.022910725 1.4317083 58
-0.93711227 -0.04273342 2.0026236 92
-1.1818982 -0.053889338 2.0054085 85
-1.4538884 -0.066285357 2.00125 87
-1.7791539 -0.081109911 2.0090308 81
-1.9560654 -0.094306603 2.0042477 73
-2.3827136 -0.11487208 2.0051763 64
-3.0803485 -0.1479651 2.1065061 34
-3.709677 -0.17819139 2.0298221 61
-4.7518358 -0.22741871 2.0103827 40
-6.5747743 -0.31351179 2.0234587 30
-10.053774 -0.4794032 2.0024109 74
-22.081326 -1.0490581 2.073657 39
-2.1596174 -0.10109476 2.006058 77
-2.6472402 -0.12345687 2.0132108 69
-3.296315 -0.15372331 2.0239789 65
-4.2128568 -0.19572856 2.0370667 63
-5.5482302 -0.25679854 2.0211391 36
-8.0116663 -0.36941567 2.0250769 27
-10.057065 -0.46196878 1.494596 70
-4.9505305 -0.22653684 0.29358408 78
-0.031337064 -0.00092384988 1.9991974 45
-0.3136192 -0.012670885 1.9958843 93
-0.41349107 -0.01765565 2.0131991 93
-0.48623127 -0.021082463 1.6021345 38
-0.82471699 -0.035881776 2.0043178 88
-1.0582715 -0.046218075 2.0077264 83
-1.3838412 -0.060430199 2.1070161 37
-1.6097388 -0.070290551 2.0050688 76
-0.12499195 -0.0038769096 1.9960728 78
-0.21968068 -0.0056849821 2.0032918 97
-0.4885062 -0.02024659 1.9186503 39
-0.50610501 -0.021144219 1.4317083 58
-0.93725574 -0.039462026 2.0026236 93
-1.1820791 -0.049763415 2.0054085 85
-1.454111 -0.061209936 2.00125 82
-1.7794262 -0.07489901 2.0090308 83
-1.9563826 -0.087478086 2.0042477 73
-2.3831 -0.10655417 2.0051763 64
-3.0808463 -0.13721178 2.1065061 34
-3.7102764 -0.16524112 2.0298221 59
-4.7572327 -0.21103579 2.0122557 39
-6.5806217 -0.29077142 2.0248678 30
-10.055386 -0.44430608 2.0024109 76
nan nan nan 0
-2.1599572 -0.093555674 2.006058 73
-2.6476552 -0.11421552 2.0132108 69
-3.2968314 -0.1422161 2.0239789 65
-4.2135139 -0.18102174 2.0370667 63
-5.5538116 -0.23763192 2.0227818 36
-8.0177631 -0.34165442 2.0262492 27
-10.058617 -0.42686021 1.494596 68
-4.9512911 -0.20925489 0.29358408 59
-0.0313401 -0.00081445754 1.9991974 49
-0.31366149 -0.011576071 1.9958843 93
-0.41355017 -0.01621219 2.0131991 93
-0.4863019 -0.01938507 1.6021345 38
-0.82483721 -0.03300276 2.0043178 88
-1.0584264 -0.042523734 2.0077264 83
-1.3840437 -0.055599328 2.1070161 37
-1.6131777 -0.064799741 2.0089054 74
-0.12529419 -0.0034480616 2.0010643 78
-0.21969919 -0.0049181185 2.0032918 99
-0.48857391 -0.01854126 1.9186503 39
-0.50617576 -0.019377453 1.4317083 58
-0.9373877 -0.036190156 2.0026236 93
-1.1822456 -0.045636889 2.0054085 85
-1.4543158 -0.056133773 2.00125 82
-1.7762891 -0.068556465 2.0053556 83
-1.9566761 -0.080648504 2.0042477 73
-2.3834577 -0.098234944 2.0051763 66
-3.0854843 -0.12662825 2.1092477 34
-3.7108307 -0.15228884 2.0298221 59
-4.7579403 -0.19442865 2.0122557 40
-6.5815959 -0.26779899 2.0248678 33
-10.056876 -0.4092035 2.0024109 75
-4.6672478 -0.18909074 0.51147622 31
-2.1602705 -0.086015448 2.006058 73
-2.6480377 -0.10497279 2.0132108 69
-3.2973075 -0.13070714 2.0239789 66
-4.2141199 -0.16631274 2.0370667 63
-5.5546069 -0.21824405 2.0227818 36
-8.0189075 -0.31366509 2.0262492 26
-10.060045 -0.39174652 1.494596 68
-4.7023826 -0.1822941 0.28350753 17
-0.031342749 -0.00070505519 1.9991974 49
-0.31447655 -0.01050688 2.0008237 93
-0.41360426 -0.014768532 2.0131991 91
-0.4863666 -0.017687442 1.6021345 37
-0.82494736 -0.03012334 2.0043178 88
-1.0561743 -0.038741089 2.0033376 83
-1.3842293 -0.050767772 2.1070161 37
-1.613394 -0.059168302 2.0089054 69
-0.12530547 -0.0030106823 2.0010643 80
-0.22024885 -0.0041606068 2.0082631 100
-0.48863563 -0.016835706 1.9186503 39
-0.50624031 -0.017610453 1.4317083 58
-0.93750834 -0.032917842 2.0026236 92
-1.1823976 -0.041509803 2.0054085 85
-1.4545028 -0.051056918 2.00125 82
-1.7765175 -0.062355641 2.0053556 80
-1.9569457 -0.073817939 2.0042477 73
-2.383786 -0.089914523 2.0051763 64
-3.0859075 -0.11585712 2.1092477 34
-3.7113395 -0.13933468 2.0298221 60
-4.7585902 -0.17781916 2.0122557 40
-6.5824914 -0.24482331 2.0248678 33
-10.058243 -0.37409595 2.0024109 74
-4.6429963 -0.17187674 0.50924522 16
-2.1605577 -0.078474171 2.006058 75
-2.6483879 -0.095728777 2.0132108 69
-3.2977436 -0.11919659 2.0239789 65
-4.2146749 -0.1516017 2.0370667 62
-5.5553346 -0.19885354 2.0227818 37
-8.0248108 -0.28584504 2.0274215 29
-10.056402 -0.35645261 1.4939061 69
nan nan nan 0
-0.031345021 -0.00059564435 1.9991974 47
-0.31451133 -0.0094090868 2.0008237 92
-0.41365328 -0.013324695 2.0131991 91
-0.48642537 -0.015989596 1.6021345 37
-0.82504749 -0.027243553 2.0043178 86
-1.0563031 -0.035054114 2.0033376 81
-1.3843981 -0.045935601 2.1070161 37
-1.6135907 -0.053536147 2.0089054 69
-0.12531522 -0.0025732659 2.0010643 82
-0.22026204 -0.0033917695 2.0082631 100
-0.48869142 -0.015129947 1.9186503 39
-0.50629866 -0.015843237 1.4317083 56
-0.9376176 -0.029645126 2.0026236 92
-1.1851422 -0.037464589 2.0096743 85
-1.4546722 -0.045979448 2.00125 84
-1.7767242 -0.056154057 2.0053556 81
-1.9571915 -0.066986479 2.0042477 73
-2.3840852 -0.081593014 2.0051763 64
-3.0862932 -0.10508459 2.1092477 34
-3.7118034 -0.12637885 2.0298221 61
-4.7638149 -0.16136444 2.0141287 40
-6.5881004 -0.2220062 2.0262771 33
-10.059488 -0.33898386 2.0024109 74
-4.643568 -0.15566863 0.50924522 16
-2.1608183 -0.070931934 2.006058 75
-2.6487057 -0.086483598 2.0132108 69
-3.2981398 -0.1076846 2.0239789 65
-4.2151785 -0.13688882 2.0370667 63
-5.5607152 -0.17961304 2.0244248 37
-8.0257587 -0.25783148 2.0274215 28
-10.057585 -0.32134703 1.4939061 67
nan nan nan 0
-0.03134691 -0.00048622617 1.9991974 45
-0.31454223 -0.0083111804 2.0008237 92
-0.41369727 -0.011880693 2.0131991 89
-0.48647821 -0.014291557 1.6021345 38
-0.82513756 -0.024363432 2.0043178 82
-1.056419 -0.031366717 2.0033376 81
-1.38455 -0.041102868 2.1070161 37
-1.6137679 -0.04790334 2.0089054 74
-0.12561294 -0.0021402659 2.0060561 82
-0.22027254 -0.0026228908 2.0082631 101
-0.48874125 -0.013424003 1.9186503 39
-0.50807589 -0.014123711 1.4364011 58
-0.93771535 -0.026372049 2.0026236 90
-1.1852657 -0.033327442 2.0096743 85
-1.4548239 -0.040901411 2.00125 84
-1.7769096 -0.049951788 2.0053556 81
-1.9574133 -0.060154188 2.0042477 71
-2.3843555 -0.0732705 2.0051763 66
-3.0866413 -0.094310775 2.1092477 33
-3.7122219 -0.11342147 2.0298221 60
-4.7643495 -0.14473464 2.0141287 40
-6.5888352 -0.19900809 2.0262771 32
-10.06061 -0.30386764 2.0024109 75
-4.6490602 -0.13960806 0.50969136 18
-2.1610529 -0.063388839 2.006058 73
-2.6489916 -0.077237353 2.0132108 69
-3.2984955 -0.096171275 2.0239789 65
-4.2156305 -0.12217426 2.0370667 63
-5.5613084 -0.16020145 2.0244248 37
-8.0314693 -0.2299539 2.028594 28
-10.058645 -0.28623754 1.4939061 65
nan nan nan 0
-0.031304784 -0.00037688584 1.9941976 45
-0.31456932 -0.007213173 2.0008237 93
-0.41373625 -0.010436548 2.0131991 91
-0.48652515 -0.012593346 1.6021345 38
-0.8252176 -0.021483017 2.0043178 81
-1.056522 -0.027678935 2.0033376 83
-1.3846852 -0.036269639 2.1070161 37
-1.6139252 -0.042269945 2.0089054 74
-0.12561965 -0.0017017819 2.0060561 84
-0.22028033 -0.0018539801 2.0082631 101
-0.48878515 -0.011717896 1.9186503 39
-0.50812215 -0.012350108 1.4364011 58
-0.93780166 -0.023098649 2.0026236 90
-1.1853749 -0.02918989 2.0096743 85
-1.4549578 -0.035822883 2.00125 84
-1.7804624 -0.043832339 2.0090308 83
-1.9576114 -0.053321179 2.0042477 71
-2.3845971 -0.064947098 2.0051763 64
-3.0827718 -0.083422706 2.1065061 33
-3.7125952 -0.1004627 2.0298221 56
-4.7648253 -0.12810308 2.0141287 41
-6.5894899 -0.17600754 2.0262771 32
-10.061609 -0.26874769 2.0024109 74
nan nan nan 0
-2.1612608 -0.05584497 2.006058 75
-2.649245 -0.067990184 2.0132108 69
-3.298811 -0.084656797 2.0239789 68
-4.2205682 -0.10757386 2.0391645 63
-5.5618339 -0.14078785 2.0244248 37
-8.0322237 -0.20191744 2.028594 27
-10.059584 -0.25112459 1.4939061 65
-29.281923 -0.72586691 1.2752411 16
-0.031305905 -0.00026760943 1.9941976 45
-0.31459257 -0.0061150771 2.0008237 93
-0.41377014 -0.0089922752 2.0131991 93
-0.48507297 -0.010861615 1.5973628 37
-0.82528758 -0.01860234 2.0043178 80
-1.0566123 -0.023990817 2.0033376 81
-1.3848032 -0.031435963 2.1070161 37
-1.6140629 -0.03663604 2.0089054 74
-0.12562484 -0.001263277 2.0060561 82
-0.2208194 -0.0010870039 2.0132346 103
-0.48882306 -0.010011646 1.9186503 39
-0.50816214 -0.010576356 1.4364011 60
-0.93787664 -0.019824971 2.0026236 90
-1.1854695 -0.025051979 2.0096743 85
-1.455074 -0.03074391 2.00125 84
-1.7806045 -0.037617099 2.0090308 83
-1.9577856 -0.046487518 2.0042477 69
-2.384809 -0.056622911 2.0051763 64
-3.0830441 -0.072661318 2.1065061 33
-3.7129233 -0.087502718 2.0298221 56
-4.7652435 -0.11146994 2.0141287 40
-6.5948596 -0.15311621 2.0276861 32
-10.062486 -0.2336245 2.0024109 74
-22.15513 -0.51051199 2.0785651 62
-2.1651759 -0.048383836 2.0093827 75
-2.6494663 -0.058742173 2.0132108 67
-3.2990866 -0.073141284 2.0239789 66
-4.2209177 -0.092840672 2.0391645 63
-5.55757 -0.12126957 2.0227818 37
-8.0377388 -0.17398371 2.0297663 27
-10.060398 -0.21600856 1.4939061 65
-29.27429 -0.62343681 1.2748381 15
-0.03130665 -0.00015832979 1.9941976 45
-0.314612 -0.0050169062 2.0008237 92
-0.41379902 -0.0075478936 2.0131991 91
-0.48660123 -0.0091964789 1.6021345 37
-0.82534748 -0.015721435 2.0043178 80
-1.0566895 -0.020302407 2.0033376 81
-1.3849045 -0.026601909 2.1070161 37
-1.6141809 -0.031001685 2.0089054 74
-0.12562849 -0.00082475692 2.0060561 82
-0.22082186 -0.00031619368 2.0132346 103
-0.48885503 -0.008305274 1.9186503 39
-0.50819594 -0.0088024745 1.4364011 62
-0.93794006 -0.016551049 2.0026236 92
-1.1855497 -0.020913767 2.0096743 85
-1.4551723 -0.025664568 2.00125 84
-1.780725 -0.0314014 2.0090308 83
-1.957936 -0.039653286 2.0042477 73
-2.3849921 -0.048298027 2.0051763 67
-3.0832789 -0.061899047 2.1065061 33
-3.7132061 -0.074541666 2.0298221 61
-4.7656035 -0.09483546 2.0141287 40
-6.5953536 -0.13009493 2.0276861 30
-10.063239 -0.19849846 2.0024109 77
-22.141838 -0.432881 2.0772266 47
-2.1653318 -0.040825665 2.0093827 73
-2.6496551 -0.049493451 2.0132108 69
-3.303632 -0.061705377 2.0265114 66
-4.2212167 -0.078106351 2.0391645 63
-5.5579596 -0.10186929 2.0227818 37
-8.0382977 -0.14592572 2.0297663 27
-10.066043 -0.18097892 1.494596 65
-29.31625 -0.52195811 1.2764504 22
-0.031307012 -4.904822e-05 1.9941976 45
-0.31462762 -0.0039186752 2.0008237 93
-0.41382283 -0.0061034192 2.0131991 91
-0.48663035 -0.007497868 1.6021345 37
-0.82735068 -0.012870683 2.0089202 80
-1.0567539 -0.016613748 2.0033376 83
-1.384989 -0.021767525 2.1070161 36
-1.6142793 -0.025366951 2.0089054 76
-0.12534104 -0.00038582232 2.0010643 84
-0.2208216 0.00045462034 2.0132346 104
-0.48888102 -0.0065988014 1.9186503 39
-0.50822359 -0.0070284866 1.4364011 62
-0.93799216 -0.013276927 2.0026236 92
-1.1856154 -0.016775299 2.0096743 85
-1.4552531 -0.020584913 2.00125 84
-1.7808237 -0.025185317 2.0090308 83
-1.9580624 -0.032818571 2.0042477 73
-2.3851461 -0.039972559 2.0051763 64
-3.0834763 -0.051136013 2.1065061 33
-3.7134435 -0.061579697 2.0298221 61
-4.7659059 -0.078199826 2.0141287 40
-6.595768 -0.10707205 2.0276861 30
-10.063871 -0.16336997 2.0024109 77
-22.168112 -0.35598874 2.0794578 36
-2.1654608 -0.033267003 2.0093827 75
-2.649812 -0.040244129 2.0132108 69
-3.3038275 -0.050173178 2.0265114 68
-4.2214632 -0.063371085 2.0391645 63
-5.5582814 -0.082467765 2.0227818 27
-8.0436172 -0.11793717 2.0309386 28
-10.066613 -0.14584078 1.494596 67
-29.287918 -0.41919315 1.2752411 19
-0.031306993 6.0233913e-05 1.9941976 44
-0.31386244 -0.0028136156 1.9958843 93
-0.41384161 -0.0046588709 2.0131991 91
-0.48665354 -0.0057991655 1.6021345 38
-0.82739055 -0.009982612 2.0089202 80
-1.0568056 -0.012924887 2.0033376 81
-1.3850565 -0.016932881 2.1070161 36
-1.6143581 -0.019731911 2.0089054 74
-0.12534161 5.1701849e-05 2.0010643 84
-0.22028476 0.0012217945 2.0082631 104
-0.48890111 -0.0048922482 1.9186503 39
-0.50824499 -0.0052544125 1.4364011 62
-0.93803275 -0.010002643 2.0026236 90
-1.1856668 -0.012636628 2.0096743 85
-1.4553161 -0.015505007 2.00125 84
-1.7809007 -0.01896893 2.0090308 83
-1.958165 -0.025983458 2.0042477 73
-2.3852711 -0.031646598 2.0051763 64
-3.083636 -0.04037236 2.1065061 31
-3.7136362 -0.048616987 2.0298221 60
-4.7707853 -0.061623108 2.0160019 40
-6.5961008 -0.084047876 2.0276861 30
-10.06438 -0.12823951 2.0024109 76
-22.149302 -0.27835512 2.077673 27
-2.1655636 -0.025707928 2.0093827 75
-2.6499362 -0.030994315 2.0132108 69
-3.3039825 -0.038640361 2.0265114 66
-4.2216592 -0.048635036 2.0391645 63
-5.5538125 -0.063011661 2.0211391 13
-8.0439806 -0.089858986 2.0309386 27
-10.072014 -0.1107553 1.4952859 66
nan nan nan 0
-0.031306595 0.00016951536 1.9941976 44
-0.31387034 -0.0017180142 1.9958843 93
-0.41385534 -0.0032142657 2.0131991 91
-0.48667082 -0.0041003916 1.6021345 37
-0.82742035 -0.00709442 2.0089202 78
-1.0568442 -0.0092358682 2.0033376 81
-1.3851072 -0.012098027 2.1070161 36
-1.6144171 -0.01409663 2.0089054 74
-0.12534067 0.00048922544 2.0010643 84
-0.22027916 0.0019907246 2.0082631 107
-0.48891518 -0.0031856347 1.9186503 39
-0.50653464 -0.0034685279 1.4317083 58
-0.93806195 -0.006728237 2.0026236 90
-1.1857036 -0.0084977997 2.0096743 85
-1.4553612 -0.010424911 2.00125 84
-1.7809561 -0.01275231 2.0090308 85
-1.958244 -0.019148028 2.0042477 73
-2.3853672 -0.023320258 2.0051763 64
-3.0837581 -0.029608218 2.1065061 31
-3.713783 -0.035653684 2.0298221 59
-4.7709718 -0.044969585 2.0160019 40
-6.5963545 -0.061022673 2.0276861 30
-10.064767 -0.093107499 2.0024109 73
-22.155117 -0.20108311 2.078119 32
-2.1656404 -0.018148543 2.0093827 73
-2.6500282 -0.021744125 2.0132108 69
-3.3040972 -0.027107079 2.0265114 66
-4.2218027 -0.033898398 2.0391645 64
-5.5539989 -0.043624859 2.0211391 13
-8.0442448 -0.061779711 2.0309386 27
-10.072338 -0.075596742 1.4952859 66
-21.107008 -0.15472926 0.94513351 11
-0.031305809 0.00027879473 1.9941976 45
-0.31387439 -0.00062239182 1.9958843 93
-0.41386408 -0.0017696214 2.0131991 91
-0.48668218 -0.0024015689 1.6021345 37
-0.82744008 -0.0042061405 2.0089202 77
-1.05687 -0.0055467375 2.0033376 81
-1.3851409 -0.0072630281 2.1070161 36
-1.6144564 -0.0084611764 2.0089054 74
-0.1253382 0.00092674303 2.0010643 84
-0.22027087 0.0027596301 2.0082631 107
-0.48892334 -0.001478983 1.9186503 39
-0.5065437 -0.0017003712 1.4317083 58
-0.93807977 -0.0034537483 2.0026236 92
-1.1857262 -0.0043588704 2.0096743 85
-1.4553889 -0.005344688 2.00125 84
-1.7809898 -0.0065355352 2.0090308 85
-1.9582987 -0.012312366 2.0042477 73
-2.3893268 -0.01501809 2.0083144 66
-3.0838428 -0.018843716 2.1065061 32
-3.7138851 -0.022689944 2.0298221 50
-4.7710996 -0.028315511 2.0160019 40
-6.5965276 -0.037996724 2.0276861 30
-10.069942 -0.058002625 2.0033436 73
-22.145725 -0.12369046 2.0772266 33
-2.1656904 -0.010588938 2.0093827 75
-2.6500878 -0.012493665 2.0132108 69
-3.3041716 -0.015573459 2.0265114 65
-4.2264342 -0.019181948 2.0412626 64
-5.5588398 -0.024258129 2.0227818 14
-8.0444107 -0.033699684 2.0309386 27
-10.07254 -0.040437263 1.4952859 65
-21.122406 -0.081108667 0.94573814 105
-0.031304646 0.00038807068 1.9941976 45
-0.31387466 0.00047323818 1.9958843 93
-0.41386771 -0.00032495544 2.0131991 93
-0.48668763 -0.00070271653 1.6021345 37
-0.82744968 -0.0013178103 2.0089202 78
-1.0568829 -0.0018575391 2.0033376 83
-1.3851578 -0.0024279398 2.1070161 35
-1.6144761 -0.0028256213 2.0089054 74
-0.1253342 0.0013642493 2.0010643 86
-0.22025989 0.0035285018 2.0082631 107
-0.48892552 0.00022768693 1.9186503 39
-0.5065465 6.7806519e-05 1.4317083 58
-0.93808609 -0.000179218 2.0026236 92
-1.1857342 -0.00021988725 2.0096743 87
-1.4553987 -0.00026440067 2.00125 84
-1.7810018 -0.00031868109 2.0090308 85
-1.9547638 -0.0054665939 2.0007432 73
-2.3893647 -0.0066776914 2.0083144 66
-3.0838897 -0.0080789812 2.1065061 32
-3.7139416 -0.0097259302 2.0298221 50
-4.7758045 -0.011672421 2.0178747 40
-6.5966201 -0.014970315 2.0276861 31
-10.070084 -0.022851614 2.0033436 75
-22.141043 -0.046376284 2.0767806 35
-2.1657143 -0.0030292033 2.0093827 75
-2.6501153 -0.0032430561 2.0132108 69
-3.3042057 -0.0040396536 2.0265114 65
-4.2264752 -0.0044288239 2.0412626 64
-5.5588908 -0.0048540095 2.0227818 14
-8.0444803 -0.0056192428 2.0309386 27
-10.072621 -0.00527729 1.4952859 63
-21.127556 -0.0073789633 0.94593966 102
-0.0313031 0.00049734191 1.9941976 45
-0.31387112 0.0015688625 1.9958843 93
-0.41386634 0.0011197145 2.0131991 91
-0.48668709 0.00099614449 1.6021345 38
-0.82744926 0.0015705363 2.0089202 77
-1.0568829 0.0018316819 2.0033376 81
-1.3851578 0.002407178 2.1070161 35
-1.6144761 0.0028099692 2.0089054 76
-0.12532867 0.0018017391 2.0010643 86
-0.22024624 0.004297331 2.0082631 108
-0.48892176 0.0019343541 1.9186503 39
-0.50654316 0.0018359834 1.4317083 58
-0.93590331 0.0030880931 1.9981228 90
-1.1857277 0.0039190985 2.0096743 85
-1.4553908 0.00481589 2.00125 84
-1.7809922 0.0058981772 2.0090308 85
-1.9547708 0.0013568379 2.0007432 73
-2.3893735 0.0016627881 2.0083144 66
-3.083899 0.0026858521 2.1065061 31
-3.7139528 0.0032382044 2.0298221 61
-4.7758164 0.0049983184 2.0178747 39
-6.5966315 0.0080562765 2.0276861 31
-10.070103 0.012299679 2.0033436 74
-22.136089 0.030903704 2.0763342 30
-2.1657116 0.0045305686 2.0093827 75
-2.6501107 0.0060075931 2.0132108 67
-3.3041999 0.0074942019 2.0265114 65
-4.2264652 0.010324355 2.0412626 63
-5.5635962 0.014562531 2.0244248 36
-8.0493097 0.022474837 2.0321107 27
-10.067625 0.029868055 1.494596 63
-21.10747 0.066307239 0.94513351 96
-0.031301174 0.00060660712 1.9941976 45
-0.31386372 0.0026644676 1.9958843 93
-0.4138599 0.0025643709 2.0131991 89
-0.48668066 0.0026949933 1.6021345 38
-0.82743871 0.0044588638 2.0089202 77
-1.0568701 0.0055208812 2.0033376 83
-1.385141 0.007242267 2.1070161 35
-1.6144565 0.0084455255 2.0089054 73
-0.12532163 0.0022392068 2.0010643 88
-0.22076365 0.0050790594 2.0132346 108
-0.48891202 0.0036409975 1.9186503 39
-0.50653368 0.0036041376 1.4317083 58
-0.93806446 0.0063698096 2.0026236 92
-1.1857067 0.0080580376 2.0096743 87
-1.4553651 0.0098961229 2.00125 84
-1.7809606 0.012114963 2.0090308 85
-1.9547541 0.0081802523 2.0007432 73
-2.3893533 0.010003247 2.0083144 67
-3.0838709 0.013450651 2.1065061 31
-3.7183495 0.016221629 2.0321403 61
-4.7757697 0.021668997 2.0178747 39
-6.6013613 0.031105377 2.0290954 30
-10.07491 0.047473971 2.004276 74
-22.115927 0.10807553 2.0745494 27
-2.1656826 0.012090285 2.0093827 75
-2.6500735 0.015258167 2.0132108 67
-3.3041534 0.019027963 2.0265114 65
-4.2264037 0.02507741 2.0412626 62
-5.568234 0.034011859 2.0260673 36
-8.0491829 0.050572038 2.0321107 27
-10.067459 0.065010443 1.494596 61
-21.122099 0.14008504 0.94573814 85
-0.031298868 0.00071586488 1.9941976 45
-0.31462944 0.0037695323 2.0008237 93
-0.41384846 0.0040089958 2.0131991 89
-0.48666829 0.004393809 1.6021345 38
-0.82741815 0.0073471367 2.0089202 75
-1.0544486 0.0091891056 1.9989488 81
-1.3851073 0.012077267 2.1070161 35
-1.6176231 0.014108957 2.0127425 76
-0.12531304 0.0026766474 2.0010643 88
-0.22074458 0.0058496371 2.0132346 108
-0.48889631 0.0053475969 1.9186503 39
-0.50651801 0.0053722481 1.4317083 56
-0.93803656 0.0096442271 2.0026236 90
-1.1856714 0.012196877 2.0096743 85
-1.4553218 0.014976234 2.00125 84
-1.7809075 0.018331602 2.0090308 83
-1.9582797 0.015030953 2.0042477 73
-2.3893034 0.018343585 2.0083144 66
-3.0796239 0.024182448 2.1037648 31
-3.7182701 0.029200992 2.0321403 58
-4.7756648 0.038339414 2.0178747 41
-6.6012125 0.054148238 2.0290954 30
-10.074683 0.082641676 2.004276 75
-22.140316 0.18548249 2.0767806 26
-2.1656272 0.019649854 2.0093827 75
-2.6500041 0.024508558 2.0132108 69
-3.3040671 0.030561497 2.0265114 65
-4.2262902 0.039830156 2.0412626 62
-5.5728035 0.053493753 2.02771 36
-8.0538187 0.078716129 2.033283 28
-10.067172 0.10015204 1.494596 39
-21.121479 0.21381408 0.94573814 72
-0.031339772 0.00082687265 1.9991974 45
-0.31461436 0.0048677707 2.0008237 93
-0.41383192 0.0054535721 2.0131991 91
-0.48664996 0.0060925721 1.6021345 38
-0.82543403 0.010211112 2.0043178 71
-1.0544101 0.012869761 1.9989488 81
-1.3850567 0.016912119 2.1070161 34
-1.6175641 0.019755427 2.0127425 76
-0.12530294 0.0031140549 2.0010643 88
-0.22072282 0.006620144 2.0132346 108
-0.49013236 0.0070723509 1.9234896 39
-0.50649619 0.0071402937 1.4317083 56
-0.9379971 0.012918526 2.0026236 90
-1.1856216 0.016335567 2.0096743 85
-1.4552605 0.020056162 2.00125 84
-1.7808325 0.024548016 2.0090308 85
-1.9582154 0.021866534 2.0042477 73
-2.3892248 0.026683699 2.0083144 66
-3.0795205 0.034932196 2.1037648 31
-3.7181454 0.042180002 2.0321403 58
-4.7755022 0.055009361 2.0178747 40
-6.6009831 0.077190436 2.0290954 30
-10.074333 0.11780838 2.004276 74
-22.164429 0.26306099 2.0790114 23
-2.1655452 0.027209185 2.0093827 75
-2.6499023 0.033758648 2.0132108 69
-3.3039401 0.042094659 2.0265114 65
-4.2261252 0.054582417 2.0412626 63
-5.5773044 0.073007949 2.0293527 37
-8.0583544 0.1068932 2.0344553 27
-10.071712 0.13535897 1.4952859 39
nan nan nan 0
-0.031336695 0.00093626382 1.9991974 45
-0.31459543 0.0059659504 2.0008237 92
-0.41381034 0.0068980814 2.0131991 93
-0.48662573 0.0077912607 1.6021345 38
-0.82539332 0.013092352 2.0043178 71
-1.0543588 0.016550262 1.9989488 81
-1.3849893 0.021746768 2.1070161 33
-1.6174852 0.025401659 2.0127425 76
-0.1252913 0.0035514249 2.0010643 88
-0.22069837 0.0073905704 2.0132346 109
-0.49010468 0.0087831886 1.9234896 39
-0.50646818 0.0089082522 1.4317083 56
-0.93794638 0.016192669 2.0026236 92
-1.1855575 0.020474061 2.0096743 87
-1.4551816 0.025135849 2.00125 82
-1.7807362 0.030764135 2.0090308 83
-1.9581271 0.028701849 2.0042477 71
-2.3930099 0.03508056 2.011452 66
-3.0793803 0.045681514 2.1037648 31
-3.7179756 0.055158492 2.0321403 61
-4.775281 0.071678638 2.0178747 40
-6.6054707 0.10030454 2.0305047 30
-10.073861 0.15297365 2.004276 74
nan nan nan 0
-2.1654372 0.034768183 2.0093827 75
-2.6497684 0.043008327 2.0132108 69
-3.3037732 0.053627301 2.0265114 65
-4.2259088 0.069334015 2.0412626 63
-5.5770154 0.092475928 2.0293527 37
-8.0579319 0.13502145 2.0344553 27
-10.066227 0.17043114 1.494596 39
nan nan nan 0
-0.031333417 0.0010401749 1.9991974 45
-0.31457394 0.0070091537 2.0008237 92
-0.41378522 0.0082702879 2.0131991 91
-0.48659724 0.0094049266 1.6021345 38
-0.82534534 0.015829382 2.0043178 67
-1.0566936 0.020092126 2.0033376 81
-1.3849095 0.026339438 2.1070161 33
-1.6173921 0.030765295 2.0127425 74
-0.12527953 0.003945021 2.0010643 86
-0.22067407 0.0080838772 2.0132346 110
-0.49007469 0.010322853 1.9234896 39
-0.50643772 0.010499322 1.4317083 56
-0.93788749 0.019302921 2.0026236 93
-1.1828754 0.024351688 2.0054085 85
-1.4550903 0.029961266 2.00125 84
-1.7806307 0.036358319 2.0090308 81
-1.958021 0.035195071 2.0042477 73
-2.3928802 0.043015867 2.011452 66
-3.0792115 0.055892855 2.1037648 31
-3.7222018 0.067567855 2.0344584 61
-4.775032 0.086680248 2.0178747 40
-6.6051226 0.12105571 2.0305047 32
-10.073298 0.18637893 2.004276 73
-19.498262 0.36416888 1.8402891 68
-2.1653101 0.04194884 2.0093827 75
-2.6496112 0.051795039 2.0132108 69
-3.3035884 0.064006135 2.0265114 65
-4.2302079 0.082698449 2.0433607 63
-5.5766973 0.10999615 2.0293527 37
-8.0623283 0.16043217 2.0356278 27
-10.080495 0.20235239 1.4966655 41
-19.464918 0.39413312 0.87903136 105
-0.031329598 0.0011495426 1.9991974 45
-0.31454754 0.0081071788 2.0008237 93
-0.41375381 0.0097146174 2.0131991 91
-0.48656145 0.01110341 1.6021345 38
-0.82528508 0.01871028 2.0043178 69
-1.0566169 0.023780553 2.0033376 81
-1.3848091 0.031173514 2.1070161 33
-1.6172748 0.036410861 2.0127425 71
-0.12526423 0.0044041672 2.0010643 86
-0.22064295 0.008892634 2.0132346 111
-0.49003357 0.012118996 1.9234896 39
-0.50812095 0.012397599 1.4364011 54
-0.93781441 0.022576643 2.0026236 92
-1.1827832 0.028480547 2.0054085 85
-1.4549768 0.035040297 2.00125 82
-1.7838744 0.042966053 2.0127058 81
-1.9578863 0.042029627 2.0042477 73
-2.3888235 0.051284757 2.0083144 64
-3.0789976 0.066640973 2.1037648 29
-3.7219434 0.080560356 2.0344584 59
-4.7746825 0.10418103 2.0178747 40
-6.6046343 0.14526387 2.0305047 31
-10.072586 0.22154015 2.004276 74
-19.471981 0.43167645 1.8380581 85
-2.1651504 0.049506929 2.0093827 75
-2.6494143 0.061043598 2.0132108 69
-3.3033316 0.076113954 2.0265114 65
-4.2298765 0.09820237 2.0433607 63
-5.5809784 0.13054547 2.0309954 36
-8.0616856 0.18998101 2.0356278 26
-10.059882 0.23882775 1.4939061 41
-19.44836 0.46511462 0.87842679 110
-0.031325392 0.0012588963 1.9991974 44
-0.31451732 0.0092051057 2.0008237 93
-0.41371736 0.011158829 2.0131991 89
-0.48651972 0.012801759 1.6021345 38
-0.82521474 0.021590948 2.0043178 67
-1.0565275 0.027468689 2.0033376 81
-1.384692 0.036007207 2.1070161 33
-1.6171378 0.042055976 2.0127425 74
-0.12524809 0.0048413938 2.0010643 86
-0.22061057 0.009662766 2.0132346 112
-0.48998824 0.013829459 1.9234896 39
-0.50807458 0.014171197 1.4364011 56
-0.93772984 0.025850087 2.0026236 92
-1.1826766 0.032609053 2.0054085 85
-1.4548457 0.040118899 2.00125 84
-1.7837136 0.049192674 2.0127058 85
-1.9612929 0.048952669 2.0077524 73
-2.3925216 0.059720144 2.011452 66
-3.0787463 0.077388272 2.1037648 29
-3.7216396 0.093551867 2.0344584 59
-4.7742896 0.12084715 2.0178747 40
-6.6088829 0.16843972 2.031914 30
-10.071752 0.25669873 2.004276 76
-19.460396 0.49938816 1.8371656 65
-2.1649644 0.05706441 2.0093827 75
-2.6491852 0.0702914 2.0132108 69
-3.303046 0.087644264 2.0265114 65
-4.2295079 0.11296681 2.0433607 63
-5.5804882 0.15002593 2.0309954 36
-8.0609741 0.2181204 2.0356278 27
-10.058988 0.27394184 1.4939061 39
-19.47658 0.53382045 0.87963593 76
-0.03132081 0.0013682346 1.9991974 44
-0.31448328 0.01030292 2.0008237 93
-0.4136759 0.012602904 2.0131991 89
-0.48647207 0.014499952 1.6021345 38
-0.82513434 0.024471354 2.0043178 67
-1.0564252 0.03115649 2.0033376 79
-1.3845577 0.040840469 2.1070161 33
-1.6169811 0.047700588 2.0127425 74
-0.12523043 0.0052785617 2.0010643 88
-0.22057548 0.010432784 2.0132346 112
-0.48993701 0.015539752 1.9234896 39
-0.50802201 0.015944622 1.4364011 56
-0.93763393 0.029123219 2.0026236 93
-1.1825556 0.03673717 2.0054085 85
-1.4546967 0.045197014 2.00125 84
-1.783531 0.0554187 2.0127058 83
-1.96111 0.05579856 2.0077524 67
-2.3884075 0.067960508 2.0083144 66
-3.0784574 0.088134632 2.1037648 27
-3.7212903 0.10654224 2.0344584 59
-4.7784729 0.13764529 2.0197477 40
-6.6082544 0.19150798 2.031914 30
-10.070794 0.29185414 2.004276 76
nan nan nan 0
-2.164752 0.064621203 2.0093827 75
-2.6489236 0.079538353 2.0132108 69
-3.3027198 0.099173516 2.0265114 65
-4.2290878 0.12772985 2.0433607 63
-5.5799308 0.16950455 2.0309954 36
-8.0650215 0.24640556 2.0368001 27
-10.05302 0.30890048 1.4932164 37
nan nan nan 0
-0.031315841 0.0014775563 1.9991974 44
-0.31444541 0.011400608 2.0008237 93
-0.41362938 0.014046825 2.0131991 91
-0.48641849 0.016197966 1.6021345 38
-0.82504386 0.027351459 2.0043178 66
-1.0563099 0.034843914 2.0033376 81
-1.3844068 0.045673225 2.1070161 32
-1.6168048 0.053344611 2.0127425 74
-0.12521124 0.0057156654 2.0010643 89
-0.22000453 0.011174913 2.0082631 112
-0.48987976 0.017249858 1.9234896 39
-0.5096879 0.017778076 1.4410939 56
-0.93752658 0.032395996 2.0026236 93
-1.1850266 0.040954944 2.0096743 87
-1.45453 0.050274577 2.00125 82
-1.7833267 0.061644047 2.0127058 83
-1.9609033 0.062643766 2.0077524 67
-2.3881555 0.076297186 2.0083144 64
-3.0781312 0.098879918 2.1037648 26
-3.7208958 0.11953131 2.0344584 60
-4.7779632 0.15432444 2.0197477 40
-6.6123405 0.21472962 2.033323 30
-10.069714 0.32700598 2.004276 77
-9.9346752 0.32435644 0.98356628 4
-2.1645133 0.072177202 2.0093827 75
-2.6486297 0.088784344 2.0132108 67
-3.3023534 0.11070155 2.0265114 65
-4.2331524 0.14264418 2.045459 63
-5.5793056 0.1889811 2.0309954 36
-8.0641127 0.27455622 2.0368001 26
-9.9083519 0.33907837 1.4732118 20
-9.940773 0.34192494 0.49491346 3
-0.031310491 0.0015868599 1.9991974 44
-0.31440371 0.012498159 2.0008237 93
-0.41357785 0.015490577 2.0131991 91
-0.486359 0.017895786 1.6021345 38
-0.82494336 0.030231237 2.0043178 64
-1.0561819 0.038530912 2.0033376 81
-1.3842388 0.05050543 2.1070161 32
-1.6166087 0.05898799 2.0127425 74
-0.12519053 0.0061526992 2.0010643 88
-0.21996418 0.011942806 2.0082631 112
-0.48981658 0.018959751 1.9234896 39
-0.50962275 0.019557111 1.4410939 54
-0.93740779 0.035668377 2.0026236 92
-1.1848766 0.045091212 2.0096743 87
-1.4573576 0.055466183 2.0052397 84
-1.7831006 0.06786865 2.0127058 83
-1.9606727 0.06948822 2.0077524 73
-2.3917651 0.084770843 2.011452 64
-3.0777671 0.10962399 2.1037648 23
-3.7204556 0.13251895 2.0344584 59
-4.7773952 0.17100169 2.0197477 40
-6.6163449 0.23798215 2.0347321 29
-10.073421 0.36233041 2.0052087 78
-9.789155 0.35381636 0.97062618 5
-2.1642482 0.079732329 2.0093827 75
-2.6483037 0.098029241 2.0132108 67
-3.3019469 0.12222825 2.0265114 65
-4.2326283 0.15741979 2.045459 63
-5.5833311 0.20863172 2.0326381 36
-8.0679626 0.30288595 2.0379725 27
-9.6794682 0.36507705 1.4414802 6
-9.7997341 0.37132594 0.4892706 4
-0.031304467 0.0017016081 1.9991974 44
-0.31435579 0.013650421 2.0008237 92
-0.41351831 0.01700631 2.0131991 85
-0.4862901 0.019678261 1.6021345 38
-0.82482708 0.033254601 2.0043178 62
-1.0560336 0.042401753 2.0033376 79
-1.3840445 0.055578582 2.1070161 32
-1.6163816 0.064912759 2.0127425 74
-0.12516713 0.0066115041 2.0010643 88
-0.21991892 0.012748933 2.0082631 112
-0.4897438 0.020754892 1.9234896 39
-0.50954765 0.021424841 1.4410939 54
-0.93727076 0.039103907 2.0026236 92
-1.1847032 0.049433697 2.0096743 87
-1.4571445 0.060807291 2.0052397 84
-1.7828399 0.074403577 2.0127058 83
-1.9604049 0.076673977 2.0077524 73
-2.3914385 0.093536533 2.011452 64
-3.0815227 0.12106799 2.1065061 23
-3.719945 0.14615418 2.0344584 59
-4.7813687 0.18869339 2.021621 41
-6.615428 0.26223066 2.0347321 29
-10.072025 0.39924893 2.0052087 78
-9.6385098 0.38374943 0.95723987 5
-2.1639414 0.087664157 2.0093827 77
-2.6519651 0.10789943 2.0161538 69
-3.3057842 0.13450496 2.0290439 65
-4.2320232 0.17293209 2.045459 63
-5.5872464 0.22928786 2.0342808 37
-8.0667992 0.33245444 2.0379725 28
-9.5593138 0.3956368 1.4249246 3
-9.6585407 0.40143219 0.48362774 5
-0.031298339 0.0018108706 1.9991974 44
-0.31430623 0.014747644 2.0008237 92
-0.41345641 0.018449655 2.0131991 85
-0.48621845 0.021375611 1.6021345 38
-0.82470596 0.03613358 2.0043178 62
-1.0534856 0.045983233 1.9989488 81
-1.383842 0.060409456 2.1070161 31
-1.6161453 0.070554592 2.0127425 74
-0.12514329 0.0070483787 2.0010643 88
-0.22040597 0.013549948 2.0132346 112
-0.48966837 0.02246429 1.9234896 39
-0.50946975 0.023203366 1.4410939 56
-0.93712854 0.042375352 2.0026236 92
-1.1845236 0.053568784 2.0096743 87
-1.4569235 0.065893307 2.0052397 84
-1.7825694 0.080626398 2.0127058 83
-1.9601253 0.083516598 2.0077524 73
-2.387208 0.1017179 2.0083144 66
-3.0810816 0.13182378 2.1065061 21
-3.7194121 0.15913834 2.0344584 56
-4.7806816 0.20538232 2.021621 40
-6.619266 0.28552797 2.0361414 28
-10.090199 0.43525118 2.008939 91
-9.5127268 0.41200456 0.94608462 5
-2.1636221 0.095217191 2.0093827 77
-2.6515725 0.11715585 2.0161538 69
-3.3052945 0.14604346 2.0290439 64
-4.2313938 0.18770353 2.045459 63
-5.5864124 0.24878961 2.0342808 37
-8.0704432 0.36082789 2.0391448 26
-9.3995647 0.42189687 1.4028505 6
-9.5123453 0.42862254 0.47778332 5
-0.031291828 0.0019201112 1.9991974 44
-0.31425282 0.01584469 2.0008237 92
-0.41338947 0.019892773 2.0131991 91
-0.48614088 0.023072699 1.6021345 37
-0.82457483 0.039012123 2.0043178 60
-1.0533186 0.049660299 1.9989488 81
-1.3836228 0.065239601 2.1070161 30
-1.6126866 0.076044537 2.0089054 73
-0.12511793 0.0074851671 2.0010643 86
-0.22035733 0.014319227 2.0132346 113
-0.48958695 0.024173416 1.9234896 39
-0.50938565 0.024981603 1.4410939 56
-0.93697488 0.045646284 2.0026236 92
-1.1843293 0.057703216 2.0096743 87
-1.4566846 0.070978515 2.0052397 84
-1.782277 0.086848237 2.0127058 83
-1.9598218 0.090358205 2.0077524 71
-2.3868384 0.11005019 2.0083144 64
-3.0847795 0.14277129 2.1092477 21
-3.7188342 0.17212054 2.0344584 56
-4.7799354 0.22206877 2.021621 40
-6.6182289 0.30863178 2.0361414 28
-10.078806 0.47001228 2.0070741 88
-9.3570175 0.43798906 0.93225205 8
-2.1632769 0.10276905 2.0093827 77
-2.6511474 0.12641086 2.0161538 69
-3.3047647 0.1575802 2.0290439 64
-4.2307124 0.20247273 2.045459 63
-5.5902271 0.26851487 2.0359235 37
-8.0739908 0.38923082 2.0403171 26
-9.6305151 0.46595305 1.4352719 46
-9.371069 0.45503965 0.47214046 8
-0.031284932 0.0020293284 1.9991974 42
-0.31419557 0.016941538 2.0008237 93
-0.4133175 0.021335652 2.0131991 93
-0.4860574 0.024769507 1.6021345 37
-0.82443362 0.041890185 2.0043178 62
-1.0531389 0.053336769 1.9989488 79
-1.3833865 0.070068948 2.1070161 30
-1.6124114 0.081673406 2.0089054 73
-0.12509105 0.0079218652 2.0010643 88
-0.22030599 0.015088329 2.0132346 114
-0.48949957 0.025882246 1.9234896 39
-0.50929534 0.026759541 1.4410939 56
-0.93680984 0.04891666 2.0026236 92
-1.1841207 0.061836943 2.0096743 85
-1.4564278 0.076062866 2.0052397 84
-1.7819629 0.093069009 2.0127058 85
-1.9594945 0.09719871 2.0077524 71
-2.3864396 0.11838114 2.0083144 64
-3.0842624 0.15353832 2.1092477 24
-3.7182105 0.18510066 2.0344584 49
-4.7791309 0.2387525 2.021621 40
-6.6171112 0.3317318 2.0361414 28
-10.077104 0.50519103 2.0070741 70
-10.046785 0.50542897 0.99427533 59
-2.1629047 0.11031967 2.0093827 75
-2.6506898 0.13566431 2.0161538 69
-3.3041947 0.16911502 2.0290439 65
