# .PCD v0.7 - Point Cloud Data file format
VERSION 0.7
FIELDS x y z intensity
SIZE 4 4 4 4
TYPE F F F F
COUNT 1 1 1 1
WIDTH 1420
HEIGHT 1
VIEWPOINT 0 0 0 1 0 0 0
POINTS 1420
DATA ascii
0.97005963 4.7851076 2.0609546 43
1.3566064 6.6858668 2.0939183 44
1.8794063 9.2624168 1.8858333 27
1.9792984 9.7459927 0.98401242 74
0.43996778 2.1586804 2.0426311 73
0.53616613 2.6283231 2.036756 69
0.66820115 3.2755489 2.0493033 60
0.85640752 4.1944027 2.0664394 67
1.1480001 5.6175208 2.0835612 38
1.6948557 8.2860756 2.1305854 37
2.0102792 9.8194342 1.4883877 2
nan nan nan 0
0.0067915898 0.030606199 1.9991974 75
0.064809576 0.3079052 2.0008237 97
0.084523723 0.40618488 2.0180943 95
0.12492858 0.60231286 2.0125027 88
0.16950624 0.81788498 2.0273302 38
0.22694162 1.0959237 2.1174428 29
0.28316522 1.3674046 2.1235478 23
0.33193886 1.602911 2.0357642 35
0.026965765 0.12240658 2.0010643 89
0.048496205 0.21488366 2.0082631 93
0.10536344 0.50316864 2.0154345 97
0.14780158 0.70697075 2.0183041 91
0.20367347 0.97585666 2.124146 29
0.25665057 1.2296525 2.1248546 29
0.31645501 1.5161579 2.1249244 26
0.36874467 1.7666602 2.0347569 86
0.40302467 1.9564872 2.0427978 71
0.48914787 2.3745522 2.0365543 69
0.60415882 2.930275 2.0461938 64
0.76159573 3.6938517 2.0599566 8
0.9867568 4.7816925 2.0609546 40
1.3799361 6.6810908 2.0939183 44
1.9137141 9.2654219 1.8876985 23
2.0133061 9.7390251 0.98401242 75
0.44750032 2.1571314 2.0426311 73
0.54615915 2.6303928 2.0396991 69
0.67963094 3.2731962 2.0493033 37
0.87104356 4.1913872 2.0664394 67
1.1676021 5.6134791 2.0835612 37
1.7247599 8.2848673 2.1317577 32
nan nan nan 0
1.4839599 7.1157398 0.38689288 68
0.0068881912 0.030539881 1.9941976 77
0.065883972 0.30767709 2.0008237 96
0.085730068 0.40489128 2.0131991 95
0.12703028 0.6018731 2.0125027 88
0.17236015 0.81728834 2.0273302 39
0.2307657 1.0951247 2.1174428 30
0.28793663 1.3664078 2.1235478 22
0.33753204 1.6017425 2.0357642 40
0.027392877 0.12231171 2.0010643 89
0.049245995 0.21471307 2.0082631 93
0.10711919 0.50279778 2.0154345 96
0.14990939 0.70476264 2.0136113 93
0.20707861 0.97513986 2.124146 29
0.26094127 1.2287493 2.1248546 29
0.31673652 1.4914583 2.0930085 27
0.37490919 1.7653623 2.0347569 85
0.40985164 1.9550685 2.0427978 71
0.4974336 2.3728302 2.0365543 67
0.61352497 2.9240556 2.0434525 64
0.77357537 3.6868353 2.0576386 8
1.0043948 4.7827559 2.0628276 40
1.4022623 6.6715384 2.0925093 44
1.9480656 9.2683001 1.8895638 18
2.0503652 9.7465582 0.98535109 74
0.4550274 2.1555562 2.0426311 75
0.55533755 2.6284704 2.0396991 69
0.69016117 3.2665861 2.0467708 12
0.88566887 4.1883211 2.0664394 67
1.185234 5.6001291 2.080276 37
1.7476256 8.2502661 2.1247239 13
3.3431184 15.76875 2.3375511 3
1.5067155 7.1007423 0.38648984 65
0.0069894269 0.03051687 1.9941976 75
0.066903904 0.30745694 2.0008237 95
0.087072253 0.40460476 2.0131991 95
0.12902547 0.60144854 2.0125027 86
0.17506944 0.81671226 2.0273302 39
0.23439601 1.0943536 2.1174428 30
0.29246622 1.3654456 2.1235478 22
0.34284174 1.6006145 2.0357642 57
0.027712349 0.1219428 1.9960728 89
0.049920291 0.2145573 2.0082631 93
0.10869824 0.50245881 2.0154345 96
0.15212271 0.70428824 2.0136113 93
0.21031114 0.97444773 2.124146 29
0.26501453 1.2278771 2.1248546 28
0.31850117 1.4756694 2.0730612 27
0.38045341 1.7641757 2.0347569 85
0.41558933 1.9502105 2.0392931 71
0.50529951 2.3711677 2.0365543 69
0.62321818 2.9220052 2.0434525 64
0.78579706 3.6842496 2.0576386 8
1.0194154 4.7795773 2.0628276 44
1.4232147 6.6671 2.0925093 42
1.9808425 9.2713966 1.8914291 14
2.0857985 9.7543154 0.98668975 73
0.46217296 2.1540356 2.0426311 75
0.56405091 2.6266146 2.0396991 69
0.70042008 3.2644019 2.0467708 12
0.89882255 4.1855183 2.0664394 67
1.2008368 5.5871429 2.0769906 37
1.7704692 8.2304792 2.1212068 8
3.3926408 15.75817 2.3375511 3
1.5311204 7.105741 0.38689288 62
0.0070959087 0.030492287 1.9941976 75
0.067976721 0.3072215 2.0008237 95
0.088484071 0.40429837 2.0131991 95
0.13112414 0.60099453 2.0125027 88
0.17791922 0.81609619 2.0273302 39
0.2382146 1.0935286 2.1174428 30
0.29723072 1.3644164 2.1235478 20
0.34842682 1.599408 2.0357642 76
0.028159106 0.1218404 1.9960728 89
0.050706346 0.2143729 2.0082631 93
0.11053912 0.50205702 2.0154345 96
0.15470304 0.70372587 2.0136113 93
0.21371132 0.97370768 2.124146 30
0.26929903 1.2269446 2.1248546 28
0.31912705 1.4539413 2.0451348 27
0.38691688 1.7627695 2.0347569 85
0.42239428 1.948748 2.0392931 71
0.51357329 2.3693893 2.0365543 69
0.63341409 2.9198117 2.0434525 64
0.79865271 3.6814842 2.0576386 7
1.0369264 4.7758083 2.0628276 44
1.4476411 6.6618385 2.0925093 42
2.0142365 9.2692251 1.8923615 13
2.1187763 9.7421083 0.98624349 53
0.46968913 2.1524091 2.0426311 75
0.57321602 2.6246295 2.0396991 69
0.71237999 3.2618127 2.0467708 22
0.91415721 4.1821957 2.0664394 68
1.2162603 5.559638 2.0687771 11
1.7964652 8.2049427 2.1165175 25
3.4312942 15.658557 2.3251343 3
1.5571538 7.1000814 0.38689288 55
0.007202303 0.030467331 1.9941976 73
0.069048703 0.30698237 2.0008237 96
0.090116031 0.40498087 2.0180943 95
0.13322119 0.60053313 2.0125027 86
0.1828811 0.82500696 2.0503428 38
0.24254839 1.0950295 2.1218314 30
0.30199164 1.3633705 2.1235478 20
0.35400769 1.598182 2.0357642 78
0.028584238 0.12174136 1.9960728 89
0.051328972 0.21367559 2.0032918 91
0.11229095 0.5016681 2.0154345 96
0.15715855 0.70318162 2.0136113 87
0.21710889 0.97295576 2.124146 30
0.27358019 1.2259971 2.1248546 29
0.32223096 1.4439938 2.0331662 30
0.39306775 1.7614081 2.0347569 86
0.42919409 1.9472617 2.0392931 71
0.52184087 2.3675823 2.0365543 69
0.64360219 2.9175828 2.0434525 63
0.81149864 3.678674 2.0576386 7
1.0525914 4.767633 2.0609546 44
1.4698515 6.652061 2.0911002 44
2.0486996 9.2717304 1.8942268 18
nan nan nan 0
0.47719955 2.1507566 2.0426311 73
0.58237422 2.6226127 2.0396991 69
0.7237615 3.2593062 2.0467708 26
0.92875022 4.1789789 2.0664394 67
1.2356596 5.5553579 2.0687771 11
1.8219261 8.1843872 2.1130006 30
3.4805474 15.622316 2.3216853 3
1.5808409 7.0897269 0.38669133 49
0.0073086098 0.030442005 1.9941976 73
0.070119858 0.30673945 2.0008237 96
0.091529138 0.40466386 2.0180943 95
0.13531663 0.60006446 2.0125027 88
0.18790732 0.8338927 2.0733554 34
0.24636927 1.0941763 2.1218314 30
0.30613068 1.3595629 2.119415 24
0.35958424 1.5969366 2.0357642 76
0.029076668 0.1219224 2.0010643 89
0.052074526 0.21349512 2.0032918 91
0.1140414 0.50127304 2.0154345 97
0.15961216 0.70262873 2.0136113 71
0.2200221 0.97006822 2.1196454 31
0.27785808 1.2250346 2.1248546 29
0.32726946 1.4428601 2.0331662 32
0.39921379 1.7600251 2.0347569 85
0.43598872 1.9457515 2.0392931 73
0.53095323 2.3695447 2.0396919 69
0.65378261 2.9153185 2.0434525 63
0.82433468 3.6758189 2.0576386 7
1.0692271 4.7639294 2.0609546 44
1.4930626 6.6468897 2.0911002 44
2.0821283 9.2693167 1.8951595 18
nan nan nan 0
0.4847042 2.1490777 2.0426311 73
0.59152526 2.620564 2.0396991 67
0.73513412 3.2567599 2.0467708 17
0.94333184 4.1757121 2.0664394 67
1.2592096 5.5694361 2.0753479 17
1.8494111 8.1732368 2.1118283 27
nan nan nan 0
1.6055791 7.0841656 0.38669133 47
0.0074148276 0.030416308 1.9941976 75
0.071366124 0.30724964 2.0057628 96
0.09294112 0.40434191 2.0180943 95
0.13741042 0.59958845 2.0125027 88
0.19430624 0.84846663 2.1101756 31
0.25018716 1.0933094 2.1218314 30
0.31087455 1.3584859 2.119415 25
0.36515638 1.5956717 2.0357642 76
0.029502079 0.12182015 2.0010643 89
0.052819449 0.21331204 2.0032918 93
0.11579049 0.50087196 2.0154345 97
0.16206382 0.70206732 2.0136113 56
0.22340694 0.96929431 2.1196454 31
0.28213254 1.2240573 2.1248546 28
0.332304 1.441709 2.0331662 34
0.40535501 1.758621 2.0347569 85
0.44277799 1.9442179 2.0392931 73
0.53922129 2.3676767 2.0396919 71
0.66395497 2.9130187 2.0434525 64
0.83716065 3.6729193 2.0576386 7
1.0858499 4.7601686 2.0609546 44
1.5162554 6.6416368 2.0911002 44
2.1155646 9.2667809 1.8960922 15
nan nan nan 0
0.49220294 2.1473727 2.0426311 75
0.60066915 2.6184831 2.0396991 69
0.74649787 3.2541738 2.0467708 15
0.95790207 4.1723933 2.0664394 67
1.280758 5.5742121 2.0786333 40
1.8768407 8.1619949 2.110656 27
2.2567697 9.8063889 1.4939061 2
1.6302978 7.0785174 0.38669133 47
0.0075262599 0.030388927 1.9941976 71
0.072491772 0.30698603 2.0057628 96
0.094422489 0.40399855 2.0180943 95
0.13960709 0.59908074 2.0125027 88
0.19830097 0.85155433 2.1193807 30
0.25364968 1.0900518 2.1174428 30
0.31521377 1.3545965 2.1152818 26
0.37100238 1.5943226 2.0357642 78
0.029948372 0.12171121 2.0010643 89
0.053600919 0.21311702 2.0032918 93
0.1176255 0.50044417 2.0154345 97
0.16463594 0.70146865 2.0136113 54
0.22712709 0.96842939 2.1196454 31
0.28683048 1.2229649 2.1248546 28
0.33714908 1.4374882 2.0291767 39
0.41287875 1.7603523 2.0384321 85
0.44990095 1.9425819 2.0392931 71
0.54789567 2.3656847 2.0396919 71
0.67462724 2.9105656 2.0434525 64
0.85061693 3.6698263 2.0576386 7
1.1032895 4.7561564 2.0609546 45
1.5405881 6.6360354 2.0911002 43
2.1522427 9.2633743 1.8970248 14
nan nan nan 0
0.50044459 2.1454668 2.0426311 75
0.61071897 2.6161573 2.0396991 69
0.75800741 3.2470851 2.0442383 14
0.97391582 4.1686845 2.0664394 69
1.3032272 5.5738516 2.080276 39
1.9070592 8.1499968 2.1094837 27
2.301723 9.836627 1.4994247 2
1.6585093 7.0822239 0.38709441 49
0.0076322909 0.030362472 1.9941976 71
0.073562913 0.3067311 2.0057628 97
0.095832124 0.4036665 2.0180943 95
0.14169744 0.59858978 2.0125027 86
0.20127226 0.8508569 2.1193807 30
0.25745311 1.0891597 2.1174428 30
0.31994024 1.353488 2.1152818 26
0.37656534 1.5930178 2.0357642 80
0.030373042 0.12160593 2.0010643 88
0.054344509 0.21292861 2.0032918 91
0.11937165 0.50003052 2.0154345 97
0.16708352 0.70088965 2.0136113 54
0.23033728 0.96767086 2.1196454 32
0.29088441 1.222007 2.1248546 27
0.34191409 1.4363623 2.0291767 55
0.41871402 1.7589734 2.0384321 85
0.45667908 1.9409996 2.0392931 67
0.55615008 2.3637576 2.0396919 67
0.68478292 2.9081929 2.0434525 53
0.86240643 3.6625221 2.0553207 7
1.1209481 4.7567887 2.0628276 44
1.5648439 6.6352859 2.0925093 42
2.1852045 9.265749 1.89889 16
2.1162875 8.9665222 0.9184196 12
0.5075565 2.1437955 2.0426311 73
0.61939108 2.6141179 2.0396991 69
0.76877099 3.2445536 2.0442383 14
0.98773438 4.165432 2.0664394 70
1.3227938 5.5740938 2.0819185 39
1.9329519 8.1388979 2.1083114 26
3.6666934 15.427012 2.3009908 3
nan nan nan 0
0.0077382289 0.030335642 1.9941976 75
0.074633151 0.30647245 2.0057628 97
0.097240597 0.40332949 2.0180943 95
0.14378603 0.59809154 2.0125027 88
0.20424108 0.85014915 2.1193807 30
0.26125342 1.0882545 2.1174428 31
0.3200644 1.3332089 2.0863512 25
0.38212371 1.5916936 2.0357642 80
0.030797342 0.12149917 2.0010643 88
0.055087436 0.21273762 2.0032918 91
0.12111636 0.49961078 2.0154345 97
0.16952907 0.70030212 2.0136113 56
0.23371367 0.96686089 2.1196454 33
0.29514822 1.2209842 2.1248546 26
0.34692585 1.43516 2.0291767 72
0.42405483 1.7542058 2.0347569 86
0.46345165 1.9393936 2.0392931 67
0.56439775 2.3618019 2.0396919 67
0.69493026 2.9057848 2.0434525 37
0.87518579 3.6594894 2.0553207 7
1.1375456 4.7528467 2.0628276 45
1.5846435 6.6157875 2.0882816 40
2.2186787 9.2628403 1.8998225 29
2.1545389 8.9881372 0.9210968 24
0.51503664 2.1420107 2.0426311 73
0.6275667 2.6080103 2.036756 67
0.78009188 3.2418504 2.0442383 14
1.0022683 4.1619592 2.0664394 70
1.3433495 5.5740337 2.0835612 40
1.9613502 8.132102 2.1083114 26
3.7135496 15.385234 2.2968516 3
1.5765289 6.5265708 0.36452296 69
0.0078440728 0.030308448 1.9941976 73
0.075702488 0.30621007 2.0057628 97
0.098647892 0.40298763 2.0180943 95
0.14587289 0.59758604 2.0125027 88
0.20674436 0.84753299 2.114778 30
0.26505056 1.0873358 2.1174428 31
0.32205039 1.3211478 2.0698195 24
0.38767743 1.59035 2.0357642 80
0.031221265 0.12139092 2.0010643 88
0.0558297 0.21254404 2.0032918 91
0.12285959 0.49918497 2.0154345 97
0.17197254 0.69970614 2.0136113 56
0.23708722 0.96603924 2.1196454 33
0.29940847 1.2199465 2.1248546 26
0.35193339 1.4339403 2.0291767 87
0.43017557 1.7527149 2.0347569 85
0.47021854 1.9377642 2.0392931 71
0.57263851 2.3598175 2.0396919 64
0.70506907 2.9033413 2.0434525 15
0.88690889 3.652107 2.0530026 8
1.1541291 4.7488475 2.0628276 44
1.6020584 6.5869083 2.0812356 17
2.2521594 9.2598133 1.9007552 103
2.2188783 9.1160479 0.93359071 11
0.52251047 2.1401999 2.0426311 75
0.63666648 2.6058035 2.036756 67
0.79140329 3.2391076 2.0442383 15
1.0167903 4.1584349 2.0664394 69
1.3627983 5.5693102 2.0835612 42
1.9897246 8.125206 2.1083114 26
2.4022465 9.8023653 1.4980452 2
1.6135813 6.5792537 0.36694133 67
0.0079498217 0.030280882 1.9941976 75
0.076581605 0.30519035 2.0008237 97
0.10005397 0.40264082 2.0180943 93
0.14795797 0.5970732 2.0125027 86
0.20970154 0.84680617 2.114778 30
0.26884446 1.0864041 2.1174428 31
0.32192802 1.3008941 2.040889 25
0.39322641 1.5889871 2.0357642 78
0.031571232 0.12100114 1.9960728 88
0.056571275 0.21234785 2.0032918 93
0.12460133 0.4987531 2.0154345 96
0.17441392 0.69910151 2.0136113 56
0.24045788 0.96520573 2.1196454 33
0.30366504 1.218894 2.1248546 26
0.35693663 1.4327031 2.0291767 87
0.43629107 1.7512027 2.0347569 85
0.47697979 1.936111 2.0392931 71
0.58087236 2.3578043 2.0396919 64
0.71519935 2.9008625 2.0434525 15
0.89965177 3.6489887 2.0530026 8
1.1706988 4.7447896 2.0628276 42
1.6537914 6.6977119 2.1164656 3
2.2868237 9.2614336 1.9026204 111
2.3068342 9.3354731 0.95456254 7
0.52997798 2.1383631 2.0426311 75
0.64575857 2.6035652 2.036756 67
0.80270511 3.2363255 2.0442383 16
1.0312996 4.1548605 2.0664394 68
1.381092 5.559936 2.0819185 42
2.0180748 8.1182108 2.1083114 25
2.4292755 9.7650852 1.4939061 2
1.6353304 6.5687327 0.36673978 67
0.0080672875 0.030294949 1.9991974 73
0.077646457 0.30492115 2.0008237 97
0.10145885 0.40228909 2.0180943 93
0.15004124 0.59655303 2.0125027 86
0.21265617 0.84606898 2.114778 31
0.27263504 1.085459 2.1174428 31
0.32509598 1.2943041 2.0326231 28
0.3987706 1.5876048 2.0357642 80
0.031993411 0.12089019 1.9960728 88
0.057312164 0.2121491 2.0032918 93
0.12665074 0.49953434 2.0202737 96
0.17685318 0.69848847 2.0136113 58
0.24382563 0.96436054 2.1196454 33
0.30791795 1.2178265 2.1248546 27
0.36193556 1.4314485 2.0291767 84
0.44240126 1.7496691 2.0347569 85
0.48373514 1.9344343 2.0392931 71
0.58909905 2.3557622 2.0396919 66
0.72532088 2.8983483 2.0434525 32
0.91238362 3.6458261 2.0530026 8
1.187254 4.740674 2.0628276 42
1.7063173 6.8082337 2.1516953 3
2.3215268 9.2629251 1.9044857 111
2.4484453 9.762104 0.99472153 72
0.53743905 2.1365001 2.0426311 75
0.65484279 2.6012952 2.036756 67
0.81399709 3.2335036 2.0442383 20
1.0457966 4.1512351 2.0664394 68
1.4004914 5.5550814 2.0819185 40
2.0464001 8.1111174 2.1083114 26
2.4633472 9.756546 1.4939061 2
1.671712 6.6162658 0.36895663 56
0.0081677046 0.03026803 1.9991974 73
0.07865718 0.30466199 2.0008237 97
0.10279233 0.40195045 2.0180943 95
0.15201865 0.59605223 2.0125027 84
0.21546066 0.84535915 2.114778 32
0.27623308 1.084549 2.1174428 31
0.32938626 1.293219 2.0326231 32
0.40403312 1.5862738 2.0357642 80
0.032373041 0.12078909 1.9960728 88
0.057978366 0.211968 2.0032918 93
0.12821944 0.499134 2.0202737 97
0.17861782 0.69625795 2.0089188 54
0.24756303 0.9656561 2.124146 34
0.31195471 1.2167988 2.1248546 28
0.36593184 1.4273206 2.025187 84
0.4478958 1.7482705 2.0347569 85
0.48927069 1.9293628 2.0357888 71
0.59690779 2.3537958 2.0396919 67
0.73492813 2.8959272 2.0434525 43
0.92337883 3.6384864 2.0506845 8
1.2021414 4.7369204 2.0628276 43
1.751315 6.895833 2.1798792 2
2.354651 9.2646971 1.906351 111
2.4820311 9.7587576 0.99516767 52
0.54452097 2.134706 2.0426311 75
0.66346538 2.5991094 2.036756 67
0.82521695 3.2351081 2.0467708 26
1.0588329 4.1479292 2.0664394 68
1.4167675 5.5460792 2.080276 40
2.0718718 8.1046476 2.1083114 27
2.5062597 9.7967348 1.5008044 2
1.7147924 6.6980982 0.37258419 57
0.00827331 0.030239336 1.9991974 73
0.079720169 0.3043856 2.0008237 97
0.10419477 0.40158918 2.0180943 95
0.15409833 0.59551793 2.0125027 84
0.21841021 0.84460187 2.114778 34
0.28001717 1.0835781 2.1174428 31
0.3338984 1.2920612 2.0326231 32
0.40956777 1.5848536 2.0357642 78
0.032815538 0.12066963 1.9960728 86
0.058754873 0.21175407 2.0032918 93
0.13004799 0.49866071 2.0202737 97
0.1820385 0.69893843 2.0183041 44
0.25093231 0.96478599 2.124146 34
0.31554377 1.2131784 2.1205888 29
0.37091193 1.4260346 2.025187 87
0.45430055 1.7466171 2.0347569 85
0.49600247 1.9276432 2.0357888 71
0.60512048 2.3516977 2.0396919 69
0.74503237 2.8933444 2.0434525 64
0.9360739 3.6352413 2.0506845 7
1.2194951 4.7324829 2.0628276 42
1.7693903 6.8614955 2.1714242 3
2.3894296 9.265934 1.9082161 111
2.5160804 9.7500334 0.99516767 49
0.55196917 2.1327922 2.0426311 75
0.67253387 2.5967777 2.036756 67
0.83706874 3.2320616 2.0467708 33
1.0740287 4.1440206 2.0664394 67
1.4370854 5.5408492 2.080276 40
2.1015632 8.0970001 2.1083114 30
3.9862893 15.347535 2.3009908 3
1.7606961 6.7739677 0.37601021 57
0.0083788149 0.030210271 1.9991974 73
0.080782197 0.30410546 2.0008237 97
0.10559595 0.40122303 2.0180943 95
0.15617615 0.59497643 2.0125027 86
0.22086135 0.84194469 2.1101756 34
0.28379786 1.0825939 2.1174428 30
0.3384065 1.2908878 2.0326231 34
0.41509745 1.5834144 2.0357642 78
0.033236556 0.12055434 1.9960728 88
0.059493676 0.21154767 2.0032918 93
0.13146611 0.4969877 2.0154345 97
0.18756287 0.70997775 2.0511537 39
0.25429848 0.9639042 2.124146 34
0.31977659 1.2120696 2.1205888 29
0.37588742 1.4247313 2.025187 87
0.46039459 1.7450206 2.0347569 85
0.5027281 1.9259 2.0357888 71
0.61332572 2.3495712 2.0396919 67
0.75512743 2.8907261 2.0434525 64
0.94987726 3.6362381 2.0530026 7
1.2360071 4.7281971 2.0628276 25
1.7884741 6.8367133 2.1657875 4
2.4242456 9.2670412 1.9100814 110
2.5488384 9.7363749 0.99472153 73
0.55941069 2.1308527 2.0426311 75
0.6826213 2.5983236 2.0396991 67
0.84834564 3.22912 2.0467708 38
1.0884875 4.1402459 2.0664394 67
1.4564179 5.535799 2.080276 40
2.1310515 8.0943146 2.1094837 28
4.0322676 15.304794 2.2968516 3
1.8008885 6.8305821 0.3786301 57
0.0084842173 0.030180842 1.9991974 73
0.081843227 0.30382162 2.0008237 97
0.10699583 0.40085199 2.0180943 95
0.15825206 0.59442765 2.0125027 86
0.22379893 0.84116858 2.1101756 36
0.2875751 1.0815967 2.1174428 30
0.3421874 1.2869792 2.0284901 38
0.41979825 1.5788574 2.0319271 78
0.033657163 0.12043758 1.9960728 88
0.060231756 0.21133873 2.0032918 91
0.13320014 0.49652579 2.0154345 97
0.19182655 0.71598625 2.0699246 36
0.25766158 0.96301073 2.124146 34
0.32333142 1.2084266 2.1163228 29
0.38085836 1.4234104 2.025187 87
0.46648303 1.743403 2.0347569 86
0.50944775 1.9241334 2.0357888 71
0.62152356 2.3474162 2.0396919 69
0.76521337 2.8880723 2.0434525 63
0.96256435 3.6329 2.0530026 8
1.252504 4.7238541 2.0628276 7
1.7987943 6.7794228 2.1502862 4
2.4590983 9.2680197 1.9119467 110
2.586643 9.7418575 0.99606007 70
0.56684536 2.1288872 2.0426311 75
0.69168705 2.5959251 2.0396991 64
0.85961223 3.2261393 2.0467708 44
1.1029329 4.1364217 2.0664394 69
1.4757326 5.5306811 2.080276 38
2.1605468 8.0915222 2.110656 19
4.0626564 15.204508 2.2844353 3
1.8363353 6.8676915 0.3804439 57
0.0085769771 0.030109249 1.9941976 73
0.082903266 0.30353406 2.0008237 97
0.10839441 0.40047607 2.0180943 95
0.16032602 0.59387159 2.0125027 84
0.22622484 0.83849597 2.1055732 37
0.29134881 1.0805863 2.1174428 30
0.34667772 1.285777 2.0284901 48
0.42530695 1.5773824 2.0319271 80
0.034077365 0.12031937 1.9960728 88
0.060969092 0.21112719 2.0032918 88
0.13493252 0.49605781 2.0154345 96
0.19794424 0.72863466 2.1074667 35
0.26102158 0.96210539 2.124146 34
0.32345012 1.1921884 2.0907271 28
0.38582468 1.4220723 2.025187 89
0.4725658 1.7417641 2.0347569 85
0.51708591 1.9257876 2.0392931 73
0.62971377 2.3452322 2.0396919 69
0.77529001 2.8853836 2.0434525 63
0.97523963 3.629518 2.0530026 8
1.2689856 4.7194533 2.0628276 7
1.8000113 6.6897168 2.1249206 4
2.4939873 9.2688665 1.9138119 110
2.6232224 9.7423868 0.99695253 70
0.57427305 2.1268952 2.0426311 75
0.70074421 2.5934947 2.0396991 42
0.87086833 3.223119 2.0467708 58
1.117365 4.1325464 2.0664394 69
1.4950292 5.5254965 2.080276 38
2.1887784 8.083931 2.110656 15
nan nan nan 0
1.8681411 6.8901706 0.38165307 58
0.0086820256 0.030079126 1.9941976 73
0.083962291 0.30324286 2.0008237 97
0.10979167 0.40009525 2.0180943 95
0.16239804 0.59330833 2.0125027 71
0.22915037 0.83770126 2.1055732 37
0.29511902 1.0795628 2.1174428 30
0.3511638 1.2845589 2.0284901 66
0.43081045 1.5758882 2.0319271 78
0.034497149 0.12019969 1.9960728 88
0.061856266 0.21142533 2.0082631 88
0.13666326 0.49558377 2.0154345 96
0.20048645 0.72793925 2.1074667 35
0.26437834 0.9611885 2.124146 34
0.32553458 1.1835084 2.0779295 25
0.39078629 1.4207169 2.025187 87
0.47864282 1.740104 2.0347569 85
0.52380496 1.9239707 2.0392931 73
0.63789636 2.3430197 2.0396919 69
0.78535712 2.8826599 2.0434525 64
0.98790306 3.6260917 2.0530026 8
1.2854518 4.7149949 2.0628276 35
1.800624 6.6000857 2.0995553 5
2.5289123 9.2695818 1.9156771 110
2.6598365 9.7427788 0.99784499 71
0.58169383 2.1248777 2.0426311 75
0.70979297 2.5910327 2.0396991 29
0.88211375 3.2200594 2.0467708 60
1.1329834 4.1329975 2.0685375 69
1.5143077 5.5202441 2.080276 40
2.2247033 8.1043653 2.1176901 19
2.6942978 9.808341 1.5090822 2
1.900126 6.9125113 0.38286227 51
0.0087869698 0.030048637 1.9941976 73
0.085020296 0.30294794 2.0008237 97
0.1111876 0.39970958 2.0180943 95
0.16446809 0.59273785 2.0125027 60
0.23155101 0.83501369 2.1009707 38
0.29888555 1.078526 2.1174428 30
0.3556456 1.2833253 2.0284901 73
0.43630871 1.5743748 2.0319271 78
0.034916513 0.12007853 1.9960728 88
0.0625939 0.21120812 2.0082631 89
0.13839233 0.49510372 2.0154345 96
0.20302621 0.72723496 2.1074667 35
0.2677319 0.96025974 2.124146 34
0.32686192 1.172316 2.0608659 26
0.39574313 1.4193441 2.025187 84
0.484714 1.7384225 2.0347569 83
0.5305177 1.9221307 2.0392931 73
0.64607108 2.3407788 2.0396919 69
0.79541469 2.8799009 2.0434525 64
1.0005544 3.6226211 2.0530026 8
1.3019024 4.7104788 2.0628276 42
1.8147002 6.5613947 2.0896909 10
2.5638731 9.2701664 1.9175423 110
2.6964858 9.7430344 0.99873739 71
0.58910751 2.1228342 2.0426311 73
0.71883297 2.5885394 2.0396991 29
0.89450198 3.2211144 2.0493033 63
1.1474034 4.1290178 2.0685375 69
1.5335677 5.5149245 2.080276 40
2.2438583 8.0637722 2.1094837 27
2.7311754 9.8084164 1.5104618 2
1.9336303 6.9395247 0.38427296 52
0.0089047803 0.030059442 1.9991974 73
0.086077265 0.30264932 2.0008237 97
0.11258218 0.39931902 2.0180943 95
0.16653612 0.59216017 2.0125027 55
0.23446435 0.83420032 2.1009707 39
0.30264851 1.0774761 2.1174428 30
0.3601231 1.282076 2.0284901 73
0.44180164 1.5728422 2.0319271 80
0.035335455 0.11995592 1.9960728 88
0.063330777 0.21098834 2.0082631 91
0.14011972 0.49461764 2.0154345 97
0.20556349 0.72652185 2.1074667 35
0.27108222 0.95931929 2.124146 34
0.32811511 1.1611288 2.0438018 29
0.40069517 1.4179541 2.025187 87
0.49077928 1.73672 2.0347569 85
0.53722399 1.920267 2.0392931 73
0.65423799 2.3385093 2.0396919 69
0.80433542 2.8730803 2.0407109 64
1.0119994 3.61484 2.0506845 8
1.3170866 4.7014418 2.0609546 43
1.8362978 6.5504007 2.0882816 33
2.5988681 9.2706203 1.9194076 98
2.7345142 9.7479477 1.0000761 68
0.59651399 2.120765 2.0426311 75
0.72786433 2.5860143 2.0396991 36
0.90574038 3.2179725 2.0493033 62
1.1618093 4.1249876 2.0685375 69
1.551528 5.504992 2.0786333 40
2.2693536 8.0465336 2.1071391 23
4.3068299 15.260687 2.3009908 2
1.9673465 6.9663877 0.38568372 60
0.0090096537 0.030028176 1.9991974 73
0.087133177 0.302347 2.0008237 97
0.11397536 0.39892361 2.0180943 95
0.16860215 0.59157526 2.0125027 53
0.23737481 0.83337682 2.1009707 39
0.30640775 1.0764132 2.1174428 30
0.36536661 1.2835177 2.0326231 81
0.44728917 1.5712904 2.0319271 73
0.035753965 0.11983185 1.9960728 88
0.063910946 0.21025534 2.0032918 93
0.14184541 0.49412552 2.0154345 97
0.20809828 0.72579992 2.1074667 35
0.27442923 0.95836723 2.124146 34
0.33073023 1.1549619 2.03527 32
0.4056423 1.4165467 2.025187 87
0.4968386 1.7349962 2.0347569 85
0.54392362 1.9183803 2.0392931 71
0.66239691 2.3362114 2.0396919 71
0.81435943 2.8702555 2.0407109 64
1.0246114 3.6112857 2.0506845 8
1.3334897 4.6968155 2.0609546 42
1.8578407 6.5393362 2.0868723 33
2.6338978 9.2709427 1.9212729 98
2.7712479 9.7479239 1.0009685 69
0.60391325 2.1186697 2.0426311 75
0.73688674 2.5834579 2.0396991 44
0.91696763 3.2147913 2.0493033 64
1.1749555 4.1165423 2.0664394 69
1.5707344 5.4995427 2.0786333 40
2.2934198 8.0245419 2.1036222 22
4.3600731 15.24556 2.3009908 2
2.006772 7.0123129 0.38790053 66
0.0091144163 0.029996542 1.9991974 73
0.08818803 0.30204099 2.0008237 97
0.11536717 0.39852333 2.0180943 95
0.1706661 0.59098309 2.0125027 55
0.2402824 0.83254313 2.1009707 38
0.31016326 1.0753371 2.1174428 30
0.36984468 1.2822345 2.0326231 81
0.45277128 1.5697197 2.0319271 73
0.03617204 0.11970631 1.9960728 88
0.064644486 0.21003097 2.0032918 93
0.14356937 0.49362737 2.0154345 97
0.21063052 0.72506905 2.1074667 35
0.27777284 0.95740348 2.124146 34
0.33403304 1.1512958 2.0310042 33
0.41058448 1.4151222 2.025187 87
0.50289178 1.7332515 2.0347569 85
0.5506168 1.9164699 2.0392931 73
0.67054784 2.333885 2.0396919 67
0.82437354 2.8673952 2.0407109 63
1.0372108 3.607687 2.0506845 8
1.3498765 4.692132 2.0609546 41
1.8793288 6.5282016 2.0854633 34
2.668961 9.2711325 1.923138 102
2.8093934 9.7525473 1.0023072 68
0.61130506 2.116549 2.0426311 75
0.74590021 2.5808702 2.0396991 67
0.92818385 3.211571 2.0493033 64
1.1893178 4.1124163 2.0664394 68
1.588609 5.48949 2.0769906 40
2.3200653 8.0118189 2.1024497 22
nan nan nan 0
2.0354111 7.0196595 0.38850513 66
0.0092190672 0.029964544 1.9991974 73
0.089241825 0.30173135 2.0008237 97
0.11675758 0.3981182 2.0180943 95
0.17272797 0.59038377 2.0125027 58
0.24318704 0.83169931 2.1009707 39
0.31391501 1.0742478 2.1174428 30
0.37431827 1.2809358 2.0326231 81
0.45824784 1.5681295 2.0319271 78
0.036589667 0.11957932 1.9960728 88
0.065377235 0.20980406 2.0032918 93
0.14529157 0.4931232 2.0154345 97
0.21364743 0.72598481 2.1121595 35
0.28049904 0.95433879 2.1196454 33
0.3380498 1.1501226 2.0310042 33
0.41552171 1.4136803 2.025187 87
0.50893897 1.7314854 2.0347569 85
0.55730319 1.9145361 2.0392931 71
0.67869049 2.3315301 2.0396919 69
0.83437747 2.8645 2.0407109 63
1.0497975 3.6040444 2.0506845 8
1.3662468 4.6873918 2.0609546 41
1.9007617 6.5169959 2.084054 34
2.7040577 9.2711916 1.9250033 28
2.8476043 9.7570229 1.0036457 68
0.61868942 2.1144021 2.0426311 75
0.75490463 2.5782506 2.0396991 69
0.93938863 3.2083116 2.0493033 66
1.2036656 4.1082392 2.0664394 68
1.6077613 5.4839115 2.0769906 40
2.3452809 7.9943433 2.100105 22
nan nan nan 0
2.0627179 7.0220985 0.38890821 52
0.0093236081 0.02993218 1.9991974 73
0.09029451 0.30141798 2.0008237 97
0.11814656 0.39770821 2.0180943 95
0.17478774 0.58977717 2.0125027 58
0.24553387 0.8289721 2.0963681 38
0.31766292 1.0731455 2.1174428 30
0.37798855 1.2769229 2.0284901 81
0.46371889 1.5665205 2.0319271 78
0.037006859 0.11945087 1.9960728 88
0.066109188 0.20957455 2.0032918 93
0.147012 0.49261305 2.0154345 97
0.21618028 0.72523457 2.1121595 36
0.28382859 0.95335376 2.1196454 33
0.34131816 1.1464359 2.0267382 34
0.42045382 1.4122212 2.025187 84
0.51497984 1.7296983 2.0347569 83
0.56398278 1.9125792 2.0392931 69
0.68682498 2.3291466 2.0396919 67
0.84437144 2.8615701 2.0407109 64
1.0623717 3.600358 2.0506845 8
1.3826005 4.6825938 2.0609546 42
1.9221394 6.5057206 2.0826449 35
2.7391877 9.2711182 1.9268686 28
2.8858814 9.7613516 1.0049844 70
0.62606633 2.1122296 2.0426311 73
0.7638998 2.5755999 2.0396991 69
0.9493562 3.2008796 2.0467708 65
1.2167072 4.0996623 2.0643413 67
1.6268939 5.4782658 2.0769906 39
2.3704028 7.97679 2.0977607 23
2.9160545 9.8067255 1.51736 2
2.0914912 7.0292211 0.38951278 49
0.0094280336 0.029899452 1.9991974 73
0.091346107 0.30110094 2.0008237 95
0.11953409 0.39729339 2.0180943 95
0.17684539 0.58916354 2.0125027 56
0.24842601 0.82810998 2.0963681 39
0.32140696 1.0720302 2.1174428 31
0.38244355 1.2755959 2.0284901 81
0.46918422 1.5648922 2.0319271 78
0.037423592 0.11932097 1.9960728 88
0.066840336 0.20934252 2.0032918 93
0.14873065 0.49209684 2.0154345 96
0.2187105 0.72447556 2.1121595 36
0.28715467 0.95235723 2.1196454 33
0.3453179 1.1452376 2.0267382 38
0.42538086 1.410745 2.025187 87
0.52101445 1.7278903 2.0347569 85
0.56963485 1.9071819 2.0357888 69
0.694951 2.3267353 2.0396919 67
0.85435504 2.8586054 2.0407109 64
1.0749328 3.5966277 2.0506845 9
1.3989375 4.6777396 2.0609546 42
1.9434615 6.4943752 2.0812356 35
2.7729418 9.2662067 1.9278013 31
2.9242227 9.7655296 1.006323 68
0.63343561 2.1100314 2.0426311 75
0.77288568 2.5729177 2.0396991 69
0.96052355 3.1975462 2.0467708 62
1.2310104 4.0953898 2.0643413 68
1.6351249 5.4363747 2.063849 19
2.3954308 7.9591579 2.0954158 23
2.9488404 9.7917442 1.5166701 3
2.1188984 7.0314445 0.38991585 49
0.0095323455 0.02986636 1.9991974 73
0.092396587 0.30078027 2.0008237 95
0.12092019 0.39687368 2.0180943 95
0.17890088 0.58854264 2.0125027 53
0.25131515 0.82723778 2.0963681 39
0.32445103 1.0686092 2.113054 31
0.38689387 1.274253 2.0284901 81
0.47464386 1.5632449 2.0319271 78
0.037839875 0.11918961 1.9960728 88
0.067570679 0.20910792 2.0032918 93
0.15044747 0.49157473 2.0154345 96
0.22123806 0.72370774 2.1121595 36
0.29047728 0.95134908 2.1196454 33
0.34931338 1.1440252 2.0267382 50
0.43030268 1.4092516 2.025187 87
0.52704275 1.726061 2.0347569 86
0.57628864 1.9051818 2.0357888 73
0.70306855 2.324295 2.0396919 52
0.86432821 2.8556056 2.0407109 64
1.0874808 3.5928538 2.0506845 8
1.4152573 4.6728277 2.0609546 41
1.9647279 6.4829612 2.0798266 34
2.8081195 9.2658739 1.9296665 36
2.9626288 9.7695599 1.0076616 65
0.64079708 2.1078074 2.0426311 73
0.78068578 2.5663371 2.036756 69
0.97167921 3.1941738 2.0467708 62
1.243977 4.0867267 2.0622432 68
1.6568434 5.4396687 2.0671344 4
2.421782 7.9460988 2.0942435 15
2.9902253 9.8050766 1.5201193 3
2.1492622 7.0431194 0.39072198 50
0.00963654 0.029832905 1.9991974 73
0.093445949 0.3004559 2.0008237 97
0.1223048 0.39644918 2.0180943 95
0.18051475 0.58648711 2.007731 51
0.25420123 0.82635546 2.0963681 38
0.32606706 1.0606003 2.0998881 30
0.39133948 1.2728947 2.0284901 79
0.48009771 1.5615785 2.0319271 78
0.038255688 0.11905679 1.9960728 88
0.068300188 0.20887078 2.0032918 91
0.15216248 0.49104655 2.0154345 96
0.22376293 0.72293103 2.1121595 36
0.29379633 0.95032936 2.1196454 33
0.35330468 1.1427989 2.0267382 67
0.43521926 1.407741 2.025187 87
0.53306466 1.7242107 2.0347569 85
0.58293545 1.9031585 2.0357888 71
0.71231782 2.3255491 2.0428298 38
0.87429088 2.8525712 2.0407109 64
1.1000156 3.589036 2.0506845 8
1.4315598 4.6678591 2.0609546 42
1.9873457 6.4760633 2.0798266 34
2.8433282 9.2654076 1.9315317 33
3.0010984 9.7734404 1.0090003 64
0.6481508 2.1055577 2.0426311 75
0.78963923 2.5635962 2.036756 69
0.98282301 3.1907625 2.0467708 65
1.2582349 4.0823593 2.0622432 53
1.732883 5.6188741 2.1344845 3
2.4466379 7.9283071 2.0918989 12
3.0244331 9.7945795 1.5201193 4
2.1782587 7.0498939 0.39132658 49
0.0097406171 0.029799085 1.9991974 73
0.094494164 0.30012789 2.0008237 97
0.12368792 0.39601985 2.0180943 95
0.18256089 0.5858534 2.007731 51
0.25708419 0.82546312 2.0963681 39
0.32691908 1.0503056 2.0823333 26
0.39578035 1.271521 2.0284901 81
0.48554572 1.5598931 2.0319271 80
0.038671043 0.11892253 1.9960728 88
0.069028869 0.2086311 2.0032918 91
0.15387562 0.49051237 2.0154345 96
0.22628506 0.72214562 2.1121595 36
0.29711181 0.94929802 2.1196454 33
0.35729164 1.1415586 2.0267382 85
0.44013053 1.4062132 2.025187 84
0.53908002 1.7223395 2.0347569 86
0.58957517 1.9011121 2.0357888 73
0.72043109 2.3230486 2.0428298 16
0.88424283 2.8495021 2.0407109 61
1.112537 3.5851743 2.0506845 9
1.4464703 4.6584058 2.0590816 43
2.0085158 6.4645057 2.0784173 34
2.8771107 9.2601166 1.9324642 34
3.0396311 9.7771721 1.0103388 59
0.65549666 2.1032825 2.0426311 73
0.79858303 2.5608244 2.036756 71
0.9939549 3.1873124 2.0467708 65
1.2711252 4.0736098 2.0601451 13
1.752486 5.6127915 2.1344845 2
2.4757476 7.9243584 2.0930712 12
3.0645142 9.8028669 1.5228784 4
2.2073286 7.0565515 0.39193115 49
0.009844576 0.029764902 1.9991974 75
0.095541239 0.29979622 2.0008237 97
0.12506951 0.39558569 2.0180943 95
0.18505415 0.58663696 2.0125027 42
0.25996405 0.8245607 2.0963681 39
0.32770327 1.0400181 2.0647788 27
0.39937058 1.2674478 2.0243571 83
0.49098778 1.5581888 2.0319271 78
0.039085925 0.11878682 1.9960728 88
0.069756702 0.20838888 2.0032918 93
0.1555869 0.48997229 2.0154345 96
0.22880444 0.72135133 2.1121595 36
0.30042365 0.94825512 2.1196454 32
0.36127424 1.1403046 2.0267382 87
0.44503644 1.4046682 2.025187 84
0.54508883 1.7204473 2.0347569 85
0.59620768 1.8990426 2.0357888 73
0.72853571 2.3205199 2.0428298 16
0.89418411 2.8463981 2.0407109 61
1.1250447 3.5812688 2.0506845 9
1.4627222 4.6533284 2.0590816 44
2.031069 6.4574547 2.0784173 34
2.912365 9.2593889 1.9343295 35
3.0797212 9.7855034 1.0121237 43
0.66283447 2.1009815 2.0426311 73
0.80751711 2.5580213 2.036756 69
1.0050746 3.1838233 2.0467708 64
1.2853371 4.0691481 2.0601451 13
1.7948388 5.6786857 2.1607676 4
2.504859 7.9203029 2.0942435 24
3.1031966 9.8062754 1.524948 5
2.2364714 7.0630922 0.39253575 50
0.0099339932 0.029689178 1.9941976 75
0.096587129 0.29946089 2.0008237 96
0.12644963 0.39514673 2.0180943 95
0.19028109 0.59594667 2.0459046 39
0.26284069 0.82364821 2.0963681 40
0.32914767 1.0320204 2.0516129 28
0.40379241 1.266046 2.0243571 83
0.49642393 1.5564654 2.0319271 78
0.039500326 0.11864966 1.9960728 88
0.070483685 0.20814411 2.0032918 93
0.15729627 0.4894262 2.0154345 96
0.23132104 0.72054821 2.1121595 37
0.30373189 0.9472006 2.1196454 32
0.36525244 1.1390364 2.0267382 87
0.44993696 1.4031062 2.025187 84
0.55109096 1.718534 2.0347569 85
0.60283297 1.8969499 2.0357888 73
0.73545229 2.3142521 2.0396919 34
0.90284729 2.8392746 2.0379696 64
1.137539 3.5773199 2.0506845 8
1.4789566 4.6481943 2.0590816 50
2.0535972 6.450326 2.0784173 34
2.9476488 9.2585278 1.9361948 33
3.1183953 9.7889299 1.0134624 37
0.67016423 2.0986552 2.0426311 75
0.81644136 2.5551867 2.036756 69
1.0161821 3.1802957 2.0467708 65
1.2995332 4.0646367 2.0601451 21
1.8132113 5.6678882 2.1591246 4
2.5339727 7.9161396 2.0954158 23
3.1419394 9.8095322 1.5270175 6
2.2656868 7.0695152 0.39314035 47
0.010037567 0.02965432 1.9941976 75
0.097631864 0.29912189 2.0008237 96
0.12782818 0.39470288 2.0180943 95
0.19465667 0.60238469 2.0697634 37
0.26571414 0.82272571 2.0963681 44
0.32980424 1.0217456 2.0340583 33
0.40820926 1.2646288 2.0243571 81
0.50185394 1.554723 2.0319271 78
0.04000714 0.11878532 2.0010643 89
0.071209826 0.20789681 2.0032918 93
0.15900373 0.48887417 2.0154345 96
0.2338348 0.71973634 2.1121595 37
0.30703637 0.94613463 2.1196454 32
0.36922619 1.1377546 2.0267382 87
0.45483196 1.401527 2.025187 84
0.55708641 1.7165999 2.0347569 88
0.60945088 1.8948339 2.0357888 71
0.74352598 2.3116708 2.0396919 40
0.91275269 2.8361056 2.0379696 64
1.1513765 3.5775447 2.0530026 7
1.4951727 4.6430035 2.0590816 55
2.0761006 6.4431181 2.0784173 34
2.9844687 9.2622089 1.9389926 36
3.1556022 9.7874632 1.0143547 67
0.67748576 2.096303 2.0426311 73
0.82535559 2.5523214 2.036756 71
1.0272772 3.1767292 2.0467708 67
1.3151107 4.0643935 2.0622432 54
1.814075 5.6031175 2.1377697 5
2.5615897 7.9072456 2.0954158 24
3.1792159 9.8079262 1.528397 9
2.2949746 7.07582 0.39374495 47
0.010141019 0.029619101 1.9941976 71
0.0986754 0.29877928 2.0008237 95
0.12920515 0.3942543 2.0180943 95
0.20000799 0.61163837 2.1031654 35
0.2685844 0.8217932 2.0963681 49
0.33188102 1.0160335 2.025281 34
0.41262117 1.2631961 2.0243571 81
0.50727791 1.5529618 2.0319271 78
0.040421534 0.11864495 2.0010643 89
0.071935087 0.20764698 2.0032918 91
0.16070925 0.48831615 2.0154345 97
0.23634574 0.71891576 2.1121595 37
0.31033713 0.94505715 2.1196454 32
0.37319547 1.1364589 2.0267382 87
0.45972145 1.399931 2.025187 84
0.56307507 1.7146448 2.0347569 88
0.61606139 1.8926951 2.0357888 71
0.75038594 2.3053598 2.0365543 69
0.92264706 2.8329024 2.0379696 64
1.1638575 3.5735037 2.0530026 8
1.5113707 4.6377559 2.0590816 44
2.0985787 6.435832 2.0784173 34
3.0198276 9.261075 1.9408579 38
3.1943815 9.7905922 1.0156934 68
0.68479913 2.0939252 2.0426311 75
0.83300269 2.5455832 2.0338128 69
1.0383598 3.1731241 2.0467708 65
1.3292902 4.0597782 2.0622432 58
1.8174493 5.5473862 2.1197004 5
2.5891752 7.8982568 2.0954158 24
3.2180631 9.8108854 1.5304664 37
2.3243334 7.082006 0.39434952 48
0.0102592 0.029624552 1.9991974 73
0.099717721 0.29843301 2.0008237 95
0.13058057 0.39380088 2.0180943 96
0.20261098 0.6123544 2.1079371 36
0.27145132 0.82085067 2.0963681 45
0.33542562 1.0148689 2.025281 36
0.41702804 1.2617482 2.0243571 79
0.51269567 1.5511817 2.0319271 80
0.04083544 0.11850312 2.0010643 89
0.072659463 0.2073946 2.0032918 93
0.16241282 0.4877522 2.0154345 97
0.23830909 0.71644896 2.1074667 37
0.3136341 0.94396812 2.1196454 32
0.37716016 1.1351492 2.0267382 87
0.4646053 1.3983177 2.025187 87
0.56905687 1.7126689 2.0347569 88
0.62266439 1.8905332 2.0357888 73
0.75842857 2.3027265 2.0365543 69
0.93253005 2.8296645 2.0379696 64
1.1763241 3.5694194 2.0530026 8
1.5275502 4.632452 2.0590816 44
2.1210313 6.4284673 2.0784173 34
3.0567541 9.264473 1.9436557 53
3.2316606 9.7888412 1.0165858 68
0.6921041 2.0915222 2.0426311 75
0.84188336 2.5426598 2.0338128 69
1.0494298 3.1694801 2.0467708 64
1.3434533 4.0551133 2.0622432 57
1.8264005 5.5096297 2.1082015 5
2.6167297 7.8891702 2.0954158 25
3.2554095 9.8089924 1.5318462 40
2.3537636 7.0880742 0.39495412 22
0.010362546 0.029588558 1.9991974 75
0.10075885 0.29808313 2.0008237 97
0.1319544 0.39334267 2.0180943 95
0.20474726 0.61164343 2.1079371 36
0.274315 0.81989807 2.0963681 39
0.33820629 1.0114195 2.0208921 35
0.42142981 1.2602847 2.0243571 79
0.51810712 1.5493826 2.0319271 80
0.041248839 0.11835986 2.0010643 89
0.073382974 0.20713972 2.0032918 91
0.16411439 0.48718229 2.0154345 95
0.24080852 0.71561271 2.1074667 37
0.31623337 0.94080329 2.1151445 32
0.38028929 1.1313537 2.0224724 87
0.46948349 1.3966873 2.025187 87
0.5750317 1.7106721 2.0347569 88
0.62925977 1.888348 2.0357888 73
0.76523119 2.2963717 2.0334165 69
0.94240177 2.8263919 2.0379696 64
1.1887766 3.5652914 2.0530026 8
1.5437113 4.6270919 2.0590816 53
2.1434577 6.4210243 2.0784173 34
3.0921853 9.2630653 1.9455211 63
3.2705431 9.7916708 1.0179244 67
0.69940066 2.0890934 2.0426311 75
0.85075378 2.5397055 2.0338128 69
1.0604869 3.1657975 2.0467708 65
1.3576001 4.0503993 2.0622432 57
1.8336089 5.467402 2.0950599 6
2.6442521 7.8799882 2.0954158 25
3.2912059 9.8022642 1.5325359 34
2.3848553 7.0987577 0.39576024 22
0.010465766 0.029552206 1.9991974 75
0.10179874 0.29772958 2.0008237 97
0.13332662 0.39287966 2.0180943 95
0.20688105 0.61092502 2.1079371 37
0.27717531 0.81893557 2.0963681 39
0.34173477 1.0102328 2.0208921 35
0.42582643 1.2588061 2.0243571 77
0.52351236 1.5475646 2.0319271 78
0.041661743 0.11821515 2.0010643 88
0.074105568 0.2068823 2.0032918 91
0.16581398 0.48660645 2.0154345 82
0.243305 0.71476781 2.1074667 38
0.31951541 0.93969369 2.1151445 32
0.38423613 1.1300194 2.0224724 89
0.474356 1.39504 2.025187 87
0.58099955 1.7086545 2.0347569 86
0.63584751 1.88614 2.0357888 73
0.77324241 2.2936869 2.0334165 69
0.95226192 2.8230851 2.0379696 64
1.2012146 3.5611203 2.0530026 8
1.5598534 4.621675 2.0590816 53
2.1643233 6.408958 2.077008 33
3.1292155 9.2661762 1.9483188 62
3.3047025 9.7801943 1.0179244 67
0.7066887 2.0866394 2.0426311 69
0.85961384 2.5367205 2.0338128 71
1.0701475 3.1579931 2.0442383 66
1.3717303 4.0456357 2.0622432 57
1.8329591 5.4028311 2.0737052 8
2.6701801 7.8661079 2.0942435 25
3.3285871 9.8000937 1.5339155 13
2.4144428 7.1045804 0.39636484 46
0.010568859 0.029515494 1.9991974 73
0.10283738 0.29737246 2.0008237 97
0.1346972 0.39241189 2.0180943 95
0.20949636 0.61161208 2.1127088 37
0.28003222 0.81796306 2.0963681 38
0.34525907 1.0090338 2.0208921 35
0.43021792 1.2573118 2.0243571 77
0.52891117 1.5457277 2.0319271 80
0.04207414 0.11806901 2.0010643 88
0.074827276 0.20662236 2.0032918 91
0.16710162 0.48483554 2.0105951 66
0.24579851 0.71391422 2.1074667 38
0.32279366 0.9385727 2.1151445 33
0.38817832 1.1286713 2.0224724 87
0.47922274 1.3933758 2.025187 87
0.58696038 1.7066159 2.0347569 86
0.6424275 1.8839091 2.0357888 73
0.78124416 2.2909739 2.0334165 69
0.96211058 2.8197439 2.0379696 64
1.2136379 3.5569055 2.0530026 8
1.5774745 4.6205893 2.0609546 52
2.1851308 6.3968244 2.075599 25
3.1663048 9.2691422 1.9511167 59
3.3452642 9.7874479 1.0197092 68
0.71396816 2.0841599 2.0426311 58
0.8684634 2.5337045 2.0338128 69
1.0811644 3.1542387 2.0442383 65
1.3858439 4.040823 2.0622432 58
1.8518072 5.3963995 2.0737052 30
2.696043 7.8521423 2.0930712 25
3.3659937 9.7977819 1.5352951 6
2.4457238 7.1150079 0.39717096 46
0.0106564 0.029437605 1.9941976 73
0.10387479 0.29701167 2.0008237 97
0.13606617 0.39193931 2.0180943 95
0.21163002 0.61087704 2.1127088 37
0.28288576 0.8169806 2.0963681 38
0.34799555 1.0055585 2.0165036 37
0.43460414 1.2558025 2.0243571 79
0.53430355 1.5438721 2.0319271 76
0.042387407 0.11764917 1.9960728 88
0.07554806 0.20635991 2.0032918 91
0.16879298 0.48424929 2.0105951 60
0.24828905 0.7130518 2.1074667 38
0.32606789 0.93744016 2.1151445 34
0.39211574 1.1273094 2.0224724 87
0.48408359 1.3916945 2.025187 89
0.59291399 1.7045568 2.0347569 85
0.64899963 1.8816551 2.0357888 73
0.78923637 2.2882328 2.0334165 69
0.97194743 2.8163683 2.0379696 64
1.2260463 3.5526476 2.0530026 8
1.5935937 4.6150546 2.0609546 52
2.2074466 6.3891578 2.075599 12
3.2018495 9.2673197 1.9529821 59
3.3875442 9.7992458 1.0219404 20
0.72123885 2.0816548 2.0426311 39
0.87730235 2.5306575 2.0338128 69
1.0921681 3.1504452 2.0442383 64
1.3999406 4.0359607 2.0622432 59
1.8721812 5.3943639 2.0753479 42
2.7234359 7.8426828 2.0930712 24
3.40505 9.8000069 1.5373646 7
2.4754663 7.120584 0.39777556 46
0.010759091 0.029400229 1.9941976 75
0.10491091 0.29664725 2.0008237 97
0.13743345 0.39146197 2.0180943 95
0.21376108 0.61013466 2.1127088 37
0.28573582 0.81598818 2.0963681 38
0.35150352 1.0043377 2.0165036 40
0.43805546 1.2516218 2.0202241 79
0.53968942 1.5419977 2.0319271 74
0.042797823 0.11750048 1.9960728 89
0.076267943 0.20609494 2.0032918 91
0.17048232 0.48365718 2.0105951 60
0.25077656 0.71218073 2.1074667 39
0.32933819 0.93629622 2.1151445 33
0.3960484 1.1259339 2.0224724 87
0.48893857 1.3899962 2.025187 89
0.59886038 1.7024766 2.0347569 85
0.65556389 1.8793782 2.0357888 73
0.79721898 2.2854638 2.0334165 69
0.98177248 2.8129582 2.0379696 64
1.2384399 3.548346 2.0530026 8
1.6096936 4.6094642 2.0609546 44
2.2281532 6.3768845 2.0741897 12
3.2390397 9.2699976 1.9557798 81
nan nan nan 0
0.72850084 2.0791249 2.0426311 33
0.88613063 2.5275795 2.0338128 69
1.1031586 3.1466136 2.0442383 64
1.4140201 4.0310493 2.0622432 58
1.8894358 5.3833404 2.0737052 44
2.7507954 7.8331289 2.0930712 18
3.4441626 9.8020782 1.5394341 9
2.5003066 7.1118994 0.39777556 46
0.010861652 0.029362492 1.9941976 73
0.10594577 0.29627922 2.0008237 97
0.13879907 0.39097986 2.0180943 95
0.21588953 0.60938472 2.1127088 37
0.28858241 0.81498581 2.0963681 38
0.35500714 1.0031046 2.0165036 60
0.44242173 1.2500851 2.0202241 79
0.54506868 1.5401045 2.0319271 78
0.043207712 0.11735038 1.9960728 88
0.076986879 0.20582746 2.0032918 91
0.17216955 0.48305911 2.0105951 62
0.25268209 0.70967537 2.1027739 39
0.33041507 0.92898566 2.1016419 31
0.39997625 1.1245445 2.0224724 89
0.49378756 1.3882811 2.025187 89
0.60479951 1.7003759 2.0347569 86
0.66212016 1.8770784 2.0357888 73
0.80519187 2.2826672 2.0334165 69
0.99158555 2.8095143 2.0379696 64
1.2508184 3.5440018 2.0530026 8
1.6242301 4.5994453 2.0590816 41
2.2503989 6.3690677 2.0741897 25
3.2746511 9.2678986 1.9576451 81
1.3062813 3.6949813 0.4440985 20
0.73575383 2.0765691 2.0426311 33
0.89494818 2.524471 2.0338128 69
1.1141356 3.1427441 2.0442383 66
1.4280826 4.0260892 2.0622432 58
1.9082158 5.3767123 2.0737052 42
2.7781212 7.8234787 2.0930712 15
3.483331 9.8039942 1.5415035 11
2.5318103 7.1219578 0.39858168 24
0.01096408 0.029324401 1.9941976 71
0.10697933 0.29590762 2.0008237 97
0.140163 0.39049295 2.0180943 95
0.21801537 0.60862744 2.1127088 37
0.29142547 0.81397349 2.0963681 39
0.3585065 1.0018592 2.0165036 77
0.44678265 1.248533 2.0202241 79
0.55044132 1.5381923 2.0319271 78
0.043617085 0.11719884 1.9960728 88
0.077704877 0.20555747 2.0032918 91
0.17385471 0.48245516 2.0105951 64
0.2551578 0.70878899 2.1027739 39
0.33144492 0.92167884 2.0881395 23
0.40389919 1.1231414 2.0224724 89
0.49863055 1.3865489 2.025187 87
0.61073124 1.6982543 2.0347569 86
0.66866839 1.8747557 2.0357888 67
0.81315494 2.2798426 2.0334165 69
1.0013865 2.8060358 2.0379696 64
1.2631818 3.5396135 2.0530026 11
1.6402751 4.5937481 2.0590816 41
2.2726176 6.3611741 2.0741897 31
3.3119404 9.2702894 1.960443 83
1.3208476 3.6950884 0.44454473 21
0.742998 2.0739882 2.0426311 39
0.90375483 2.5213318 2.0338128 69
1.1250991 3.1388354 2.0442383 66
1.4405954 4.0168076 2.0601451 57
1.9269723 5.3700185 2.0737052 43
2.807056 7.8183088 2.0942435 19
3.5225551 9.8057585 1.543573 13
nan nan nan 0
0.011066374 0.029285949 1.9941976 75
0.10801158 0.29553241 2.0008237 96
0.14152522 0.3900013 2.0180943 95
0.22013855 0.60786271 2.1127088 37
0.294265 0.81295133 2.0963681 39
0.36200145 1.0006016 2.0165036 81
0.45209548 1.2496121 2.0243571 81
0.55580729 1.5362616 2.0319271 78
0.044025917 0.11704588 1.9960728 89
0.078421935 0.20528498 2.0032918 91
0.17553772 0.48184538 2.0105951 66
0.25763038 0.70789403 2.1027739 39
0.3316837 0.91232967 2.0701361 23
0.40781721 1.1217247 2.0224724 87
0.5034675 1.3848 2.025187 87
0.61665553 1.6961122 2.0347569 86
0.67520845 1.8724102 2.0357888 67
0.82110816 2.2769902 2.0334165 69
1.0111753 2.8025231 2.0379696 64
1.274026 3.5310156 2.0506845 29
1.6531521 4.5792732 2.0553353 38
2.2948081 6.3532028 2.0741897 33
3.3492858 9.2725325 1.9632407 86
1.3320452 3.6857719 0.4440985 19
0.75023299 2.071382 2.0426311 52
0.91255039 2.5181618 2.0338128 69
1.1360488 3.1348891 2.0442383 64
1.4546078 4.0117545 2.0601451 56
1.9457055 5.3632593 2.0737052 40
2.835988 7.8130307 2.0954158 29
3.5635242 9.8120213 1.5463322 15
nan nan nan 0
0.011168534 0.029247142 1.9941976 75
0.10904253 0.29515356 2.0008237 96
0.14288573 0.38950494 2.0180943 95
0.22174554 0.60568804 2.1079371 36
0.29710093 0.81191909 2.0963681 40
0.36549199 0.99933201 2.0165036 81
0.45645469 1.2480264 2.0243571 81
0.56116641 1.5343121 2.0319271 78
0.044434212 0.11689149 1.9960728 89
0.079138033 0.20500997 2.0032918 91
0.1772186 0.48122969 2.0105951 67
0.25950396 0.7053709 2.0980811 39
0.33261254 0.90503418 2.0566337 23
0.41173026 1.1202943 2.0224724 87
0.50829828 1.3830341 2.025187 87
0.6225723 1.6939492 2.0347569 85
0.68174022 1.8700418 2.0357888 73
0.82905132 2.2741098 2.0334165 67
1.0209519 2.7989767 2.0379696 64
1.2863437 3.5265467 2.0506845 17
1.6643585 4.56041 2.0497162 14
2.3169711 6.3451533 2.0741897 31
3.3866875 9.2746267 1.9660386 91
1.3449029 3.6810994 0.4440985 19
0.75745898 2.0687506 2.0426311 73
0.9213348 2.514961 2.0338128 69
1.1469846 3.1309047 2.0442383 64
1.4686028 4.0066524 2.0601451 56
1.9644148 5.3564353 2.0737052 40
2.8632433 7.8030839 2.0954158 31
3.6028731 9.813468 1.5484017 15
nan nan nan 0
0.011270558 0.029207978 1.9941976 75
0.11007215 0.29477113 2.0008237 96
0.14424449 0.38900378 2.0180943 95
0.22385843 0.60491031 2.1079371 36
0.29925546 0.80904484 2.0917654 44
0.36897808 0.99805015 2.0165036 83
0.46080834 1.2464255 2.0243571 81
0.56651878 1.5323439 2.0319271 80
0.044841971 0.11673567 1.9960728 89
0.079853177 0.20473249 2.0032918 93
0.17889732 0.48060817 2.0105951 67
0.26196456 0.7044608 2.0980811 39
0.33349454 0.8977434 2.0431311 31
0.41563836 1.1188502 2.0224724 87
0.51312286 1.3812513 2.025187 89
0.62848151 1.6917658 2.0347569 86
0.68826371 1.8676507 2.0357888 73
0.83698434 2.2712021 2.0334165 67
1.0307158 2.7953959 2.0379696 64
1.2986459 3.5220354 2.0506845 13
1.7059404 4.6241627 2.0796847 4
2.3374448 6.3325272 2.0727806 31
3.4241447 9.2765751 1.9688365 97
1.3611946 3.6857257 0.44499093 20
0.76467562 2.0660939 2.0426311 75
0.93010813 2.5117297 2.0338128 69
1.1579065 3.1268818 2.0442383 65
1.4825795 4.0015016 2.0601451 57
1.9831003 5.3495455 2.0737052 39
2.8904638 7.7930417 2.0954158 29
3.6439981 9.8194046 1.5511609 15
2.6466527 7.1280656 0.40039545 41
