# .PCD v0.7 - Point Cloud Data file format
VERSION 0.7
FIELDS x y z intensity
SIZE 4 4 4 4
TYPE F F F F
COUNT 1 1 1 1
WIDTH 1440
HEIGHT 1
VIEWPOINT 0 0 0 1 0 0 0
POINTS 1440
DATA ascii
-3.6702785 3.2827568 2.077812 28
-5.1091604 4.5713224 2.1037827 12
nan nan nan 0
-9.5847626 8.5787954 1.2454914 26
-1.1149604 0.99933648 1.4142349 96
-1.985172 1.7799352 2.0249834 23
-2.4890218 2.2316997 2.0493033 11
-3.1800969 2.8523319 2.0622432 37
-4.2640891 3.8259442 2.0819185 11
nan nan nan 0
-9.5693722 8.5921335 1.8836521 32
-9.6002693 8.622901 0.61421973 59
-0.023011677 0.021355689 2.0041974 24
-0.23296125 0.21150637 2.0008237 98
-0.30781105 0.27817765 2.0180943 93
-0.45553613 0.4111442 2.007731 86
-0.49830934 0.44960123 1.6407181 40
-0.55887711 0.50408161 1.4459776 39
-0.9742431 0.87873912 1.9995594 37
-1.1893311 1.0727489 1.9935577 66
-0.09200608 0.085119948 2.0010643 89
-0.16054112 0.15006156 2.0032918 93
-0.38097373 0.3451654 2.0154345 95
-0.49702674 0.45001665 1.8775212 39
-0.49537307 0.44821164 1.4445202 55
-0.89277667 0.80780101 2.039536 67
-0.9696877 0.87739652 1.8057648 28
-1.3055485 1.1812998 1.9869798 14
-1.4264051 1.2838794 1.9656976 71
-1.7875071 1.6089065 2.0208654 58
-2.1861362 1.9683988 2.0132964 30
-2.7929308 2.5147624 2.0530026 11
-3.6587973 3.2955484 2.077812 14
-5.1038647 4.598763 2.1080103 9
nan nan nan 0
-9.5917501 8.6455431 1.2499535 21
nan nan nan 0
-1.9879466 1.7949804 2.0338128 26
-2.4780166 2.2374852 2.0467708 17
-3.170121 2.863415 2.0622432 37
-4.2647238 3.8534696 2.0884893 10
nan nan nan 0
-9.572382 8.6553774 1.8898604 38
-9.6034565 8.6865215 0.61603355 46
-0.022968449 0.021466115 2.009197 21
-0.23222156 0.21231826 2.0008237 98
-0.30683815 0.27925041 2.0180943 93
-0.45409819 0.4127318 2.007731 84
-0.49818283 0.45265174 1.6453207 40
-0.55711412 0.50602937 1.4459776 39
-0.97116977 0.88213444 1.9995594 37
-1.1855793 1.0768938 1.9935577 68
-0.091708392 0.085440591 2.0010643 89
-0.16001633 0.15062104 2.0032918 93
-0.37976655 0.34649312 2.0154345 95
-0.49672803 0.45291159 1.882214 39
-0.49541521 0.45140484 1.449021 45
-0.89187926 0.8126691 2.0438018 66
-0.96884692 0.88280594 1.8097541 34
-1.2938995 1.1789997 1.9759542 14
-1.3558568 1.2289742 1.8780839 71
-1.7761115 1.6099077 2.0145898 54
-2.1792521 1.9760177 2.0132964 34
-2.7841358 2.5244961 2.0530026 9
-3.6472714 3.3082995 2.077812 14
-5.0984392 4.6262217 2.1122379 9
-8.1197157 7.3676701 2.1730802 5
-9.5946999 8.709096 1.2539694 16
-1.610888 1.4642469 2.0193572 83
-1.9846596 1.804628 2.036756 28
-2.4670014 2.243221 2.0442383 32
-3.1668208 2.8805709 2.0664394 38
-4.2652183 3.8810456 2.0950599 11
-6.2149997 5.6571932 2.1176901 6
-9.5823879 8.7254133 1.8974484 36
-9.6063166 8.7502699 0.61784732 40
-0.022889618 0.021550154 2.009197 21
-0.23144181 0.21316798 2.0008237 97
-0.30581257 0.28037316 2.0180943 91
-0.45258239 0.41439337 2.007731 84
-0.49796149 0.45579374 1.6499232 39
-0.55525565 0.50806791 1.4459776 39
-0.96793008 0.88568801 1.9995594 37
-1.1816243 1.0812318 1.9935577 69
-0.091183811 0.08557763 1.9960728 89
-0.1594632 0.15120651 2.0032918 91
-0.37849405 0.34788275 2.0154345 95
-0.49633557 0.4558965 1.8869067 39
-0.49528232 0.4547767 1.4535218 39
-0.89067322 0.8178516 2.0480678 52
-0.96101004 0.88244247 1.8017752 38
-1.3043455 1.197717 1.9980052 14
-1.2802384 1.1690077 1.7834612 56
-1.7558255 1.6032817 1.9989008 50
-2.1781695 1.989632 2.0187793 35
-2.7748642 2.5346837 2.0530026 9
-3.6351213 3.3216457 2.077812 14
-5.095612 4.657824 2.1178746 8
-8.084116 7.3921633 2.1712151 8
-9.5979357 8.7794857 1.2584316 39
-1.6052538 1.4704216 2.0193572 79
-1.9806957 1.814966 2.0396991 28
-2.45837 2.2526772 2.0442383 38
-3.1590827 2.895776 2.0685375 35
-4.2572465 3.9037778 2.0983455 11
-6.1753211 5.6645861 2.1118283 11
-9.5868387 8.7939529 1.9043467 30
-9.6146727 8.8225765 0.6200642 66
-0.022845499 0.02166038 2.0141969 18
-0.23069631 0.21397455 2.0008237 97
-0.30483204 0.28143889 2.0180943 91
-0.45113313 0.41597065 2.007731 84
-0.49780393 0.4588533 1.6545256 39
-0.55347878 0.51000303 1.4459776 39
-0.96483254 0.88906139 1.9995594 39
-1.1802005 1.0875225 1.9973947 66
-0.090884537 0.085895397 1.9960728 89
-0.15893441 0.15176222 2.0032918 91
-0.3772774 0.3492018 2.0154345 95
-0.49600795 0.45879811 1.8915994 39
-0.49537066 0.45789486 1.4580227 37
-0.89178652 0.82434136 2.0565999 39
-0.96029174 0.88767046 1.8057648 39
-1.3053454 1.2066383 2.0053556 14
-1.0556409 0.97070092 1.4890795 35
-1.7358907 1.5962262 1.983212 46
-2.1804433 2.0057156 2.0270035 36
-2.7627394 2.5413551 2.0506845 13
-3.6235044 3.3343141 2.077812 19
-5.0722632 4.6690845 2.1150563 8
-7.9981184 7.3623743 2.1553607 5
-9.6054029 8.8449993 1.2628936 34
-1.5893878 1.4656106 2.006058 93
-1.9746661 1.8215243 2.0396991 29
-2.4508862 2.2608171 2.0442383 38
-3.1561334 2.9123919 2.0727334 19
-4.2755079 3.9467027 2.1131296 6
-6.1672168 5.6949258 2.1153452 9
-9.596097 8.8643255 1.9119345 26
-9.6168413 8.8865986 0.62187797 61
-0.022773545 0.02173602 2.0141969 17
-0.22998548 0.21473838 2.0008237 98
-0.30389705 0.28244823 2.0180943 93
-0.44975126 0.41746438 2.007731 84
-0.49771166 0.46183044 1.6591282 39
-0.55178452 0.51183563 1.4459776 39
-0.96394199 0.89416975 2.0036924 40
-1.1765877 1.0914302 1.9973947 66
-0.090614237 0.086180493 1.9960728 89
-0.15845686 0.1522608 2.0032918 93
-0.37617847 0.35038534 2.0154345 95
-0.49582723 0.46152991 1.8962922 39
-0.49544373 0.46101853 1.4625236 33
-0.89286649 0.83084738 2.0651317 38
-0.9573428 0.89084995 1.8057648 47
-1.3139595 1.2222785 2.0237315 14
-0.90847635 0.84095317 1.2963293 17
-1.7277311 1.5993292 1.9800742 46
-2.1799161 2.0186172 2.0324864 39
-2.7542965 2.5505023 2.0506845 25
-3.6130116 3.3456812 2.077812 18
-5.0364537 4.6654363 2.1066012 19
-8.0024853 7.4155679 2.1628215 4
-9.6088886 8.9072733 1.2669095 14
-1.5845188 1.4708731 2.006058 95
-1.9686149 1.8280624 2.0396991 29
-2.4437716 2.2685056 2.0442383 38
-3.1469681 2.9222929 2.0727334 14
-4.2354078 3.9344027 2.0999882 9
-6.1564164 5.7208905 2.1176901 8
-9.6044731 8.9281464 1.9188327 32
-9.6474123 8.9712009 0.62510246 21
-0.022697533 0.021815382 2.0141969 15
-0.22980045 0.21607228 2.0057628 98
-0.30290926 0.28350732 2.0180943 93
-0.44829127 0.41903177 2.007731 84
-0.4975239 0.46489888 1.6637307 39
-0.54999453 0.5137586 1.4459776 39
-0.96081489 0.89752907 2.0036924 40
-1.1727707 1.0955306 1.9973947 61
-0.090297759 0.086512029 1.9960728 89
-0.15828089 0.15321237 2.0082631 91
-0.3748917 0.35176176 2.0154345 95
-0.49664992 0.46570501 1.9056778 39
-0.49700961 0.4657234 1.4715252 28
-0.89376694 0.83752573 2.0736635 34
-0.95642656 0.89624709 1.8097541 42
-1.3094708 1.2270862 2.0237315 13
-0.87684053 0.81737024 1.2577794 13
-1.7392229 1.6212769 1.9989008 50
-2.1912053 2.0433247 2.0489354 43
-2.7453768 2.5601013 2.0506845 37
-3.6007249 3.358901 2.077812 16
-5.0017829 4.6674991 2.0995553 21
-7.9442277 7.4132934 2.154428 4
-9.6105013 8.9713459 1.2709254 6
-1.5684628 1.4661945 1.9927584 98
-1.9622219 1.834923 2.0396991 28
-2.4354408 2.277447 2.0442383 39
-3.1329224 2.9307072 2.0706356 14
-4.2106142 3.9402192 2.0950599 22
-6.1354065 5.7434163 2.1176901 13
-9.6042175 8.9937525 1.9250411 31
-9.6144657 9.0065002 0.62510246 12
-0.022617422 0.021898426 2.0141969 15
-0.22900696 0.21691307 2.0057628 98
-0.30186814 0.28461561 2.0180943 93
-0.44783977 0.42169595 2.0125027 82
-0.4986617 0.46939749 1.6729357 39
-0.5481078 0.51577097 1.4459776 38
-0.95956832 0.90297318 2.0078254 51
-1.1687475 1.0998218 1.9973947 62
-0.089980073 0.086842418 1.9960728 89
-0.15771829 0.15379147 2.0082631 91
-0.37359995 0.35313344 2.0154345 95
-0.49619412 0.46870717 1.9103705 39
-0.49680102 0.46912351 1.4760261 27
-0.8924408 0.84274209 2.0779295 34
-0.95297813 0.89991295 1.8097541 42
-1.3047495 1.2321051 2.0237315 13
nan nan nan 0
-1.7389445 1.6329703 2.0051763 56
-2.1837015 2.051342 2.0489354 43
-2.735975 2.5701466 2.0506845 39
-3.5883896 3.372076 2.077812 17
-4.9811463 4.6825142 2.098146 25
-7.8834972 7.4134555 2.1460345 7
-9.6086292 9.0388908 1.2749413 24
-1.5791306 1.4875698 2.0127075 98
-1.9522202 1.839672 2.036756 25
-2.4266782 2.2867818 2.0442383 39
-3.1315529 2.9520543 2.0769296 7
-4.1817117 3.943398 2.0884893 17
-6.1168432 5.770267 2.1188624 13
-9.6108141 9.0662746 1.9326291 29
-9.6286259 9.0862532 0.62772232 53
-0.022544682 0.021973308 2.0141969 12
-0.22828637 0.2176713 2.0057628 98
-0.30092266 0.28561512 2.0180943 95
-0.44643894 0.42317873 2.0125027 82
-0.49852043 0.47239232 1.6775383 39
-0.54639447 0.51758575 1.4459776 38
-0.95656866 0.90615022 2.0078254 62
-1.165094 1.1036913 1.9973947 66
-0.089706808 0.087124661 1.9960728 89
-0.15723434 0.15428619 2.0082631 91
-0.37248871 0.35430539 2.0154345 95
-0.49596992 0.47145268 1.9150633 39
-0.49848199 0.47368225 1.4850277 27
-0.88978881 0.8455416 2.0779295 35
-0.95233113 0.90497857 1.8137437 45
-1.2470138 1.1846027 1.9428777 13
-1.4023861 1.3256962 1.9762113 12
-1.7504935 1.6547735 2.0240033 60
-2.1677725 2.0499535 2.0407109 42
-2.7274373 2.5792053 2.0506845 38
-3.57441 3.3801475 2.0759389 25
-4.9698968 4.701437 2.0995553 26
-7.8423285 7.4213037 2.1413713 8
-9.6055021 9.0929985 1.2780647 56
-1.5771596 1.4950925 2.0160325 79
-1.9464312 1.8457959 2.036756 25
-2.4198825 2.293972 2.0442383 39
-0.86692661 0.82210404 0.63976359 8
-4.1665668 3.952538 2.0868468 14
-6.0961709 5.7850451 2.1176901 12
-9.6038351 9.1168795 1.9367679 32
-9.6109018 9.1267786 0.62832695 32
-0.022463992 0.02205579 2.0141969 12
-0.22748704 0.21850656 2.0057628 98
-0.2998738 0.2867161 2.0180943 95
-0.44488487 0.42481217 2.0125027 86
-0.49961194 0.47691438 1.6867434 40
-0.54449373 0.51958489 1.4459776 37
-0.95527673 0.91159284 2.0119584 62
-1.1656795 1.1123807 2.0050688 61
-0.089371614 0.087468468 1.9960728 89
-0.15664077 0.15488879 2.0082631 91
-0.37112555 0.35573304 2.0154345 95
-0.49540216 0.47454736 1.9197561 39
-0.49823233 0.47709894 1.4895285 31
-0.88653558 0.84895188 2.0779295 35
-0.9488492 0.90862858 1.8137437 42
-1.2422485 1.1895989 1.9428777 13
-1.4233434 1.3554207 2.0112567 14
-1.7387784 1.6558088 2.0177276 56
-2.1572168 2.0550003 2.0379696 39
-2.7179656 2.5891843 2.0506845 38
-3.5580482 3.3906486 2.0740657 13
-4.951808 4.7204852 2.0995553 28
-7.8279943 7.4649215 2.1451018 8
-9.6137571 9.1710634 1.2834193 34
-1.5849087 1.5140351 2.0326567 75
-1.9393295 1.8532559 2.036756 26
-2.4106543 2.3036671 2.0442383 39
-0.85377759 0.81616902 0.63346946 5
-4.1540794 3.9724958 2.0884893 12
-6.0764108 5.81283 2.1188624 8
-9.6403265 9.2221537 1.9505643 23
-9.5360823 9.125618 0.62611008 23
-0.022386868 0.022134069 2.0141969 10
-0.22672293 0.21929929 2.0057628 98
-0.29887113 0.28776112 2.0180943 93
-0.44339934 0.42636251 2.0125027 86
-0.4993526 0.48000935 1.6913459 40
-0.54267675 0.52148235 1.4459776 37
-0.95411789 0.91687161 2.0160913 66
-1.1594779 1.1142217 2.0012317 69
-0.089065745 0.087779894 1.9960728 89
-0.15609914 0.15543462 2.0082631 93
-0.36988151 0.35702631 2.0154345 95
-0.49622661 0.47866994 1.9291415 39
-0.49821532 0.4802599 1.4940293 35
-0.87620497 0.84464681 2.0608659 34
-0.94366103 0.90967822 1.8097541 42
nan nan nan 0
-1.4366214 1.3776593 2.0357888 16
-1.7301784 1.6591738 2.0145898 54
-2.1439955 2.0567288 2.0324864 37
-2.7121081 2.601723 2.0530026 37
-3.5361567 3.3934188 2.0684466 11
-4.9387608 4.7410636 2.1009643 23
-7.7996531 7.4874372 2.1441691 8
-9.583292 9.2028933 1.2834193 31
-1.5771874 1.5166938 2.0293317 71
-1.9360861 1.862479 2.0396991 26
-2.4030018 2.3116486 2.0442383 38
-3.1435025 3.0250556 2.1042042 2
-4.1442857 3.9895241 2.090132 12
-6.0500994 5.8262053 2.1165175 9
-9.6330423 9.2797976 1.955393 10
-9.4861832 9.1415176 0.62510246 17
-0.022313345 0.022208186 2.0141969 10
-0.22599444 0.22004993 2.0057628 99
-0.29791525 0.28875062 2.0180943 93
-0.44198301 0.42783052 2.0125027 84
-0.50056595 0.48437983 1.700551 40
-0.53922248 0.5216133 1.4415889 37
-0.94904959 0.91807401 2.0119584 54
-1.1672977 1.1292056 2.0204165 62
-0.08878953 0.088059276 1.9960728 89
-0.15561008 0.15592426 2.0082631 95
-0.36875808 0.35818657 2.0154345 95
-0.4959586 0.48142853 1.9338343 39
-0.49818286 0.48342609 1.4985301 37
-0.86591256 0.84028268 2.0438018 31
-0.9406392 0.91280258 1.8097541 38
-0.90360838 0.8765645 1.4430554 11
-1.4166504 1.3675547 2.0147614 16
-1.721866 1.6621985 2.011452 48
-2.1281397 2.0551131 2.0242622 36
-2.6939051 2.60147 2.0460486 33
-3.5288134 3.4077311 2.0703199 11
-4.923842 4.756556 2.1009643 17
-7.7924423 7.5303283 2.1488321 11
-9.6100101 9.2900028 1.2905586 47
-1.5667831 1.5167209 2.022682 71
-1.9240919 1.8632653 2.0338128 25
-2.3926301 2.3161879 2.0417061 38
-3.1372437 3.0380738 2.1063023 3
-4.1317315 4.0025239 2.090132 12
-6.0422368 5.8553305 2.1200345 12
-9.6002855 9.3065691 1.9547032 4
-9.4323111 9.1469269 0.62369168 8
-0.022235688 0.022285938 2.0141969 8
-0.22522496 0.22083746 2.0057628 98
-0.29690549 0.28978881 2.0180943 93
-0.44048688 0.42937073 2.0125027 84
-0.50027126 0.48748767 1.7051535 40
-0.53739846 0.52349234 1.4415889 37
-0.94785488 0.92334479 2.0160913 44
-1.158756 1.1287993 2.0127425 52
-0.088466197 0.088384107 1.9960728 89
-0.15503755 0.15649356 2.0082631 95
-0.36744276 0.35953572 2.0154345 95
-0.49665833 0.48565614 1.9432199 39
-0.49804986 0.48668414 1.503031 39
-0.85551304 0.83600891 2.0267382 21
-0.93313599 0.91186744 1.8017752 36
-0.89796489 0.87750107 1.4393802 9
-1.4041966 1.3650339 2.0042477 16
-1.7104707 1.6627718 2.0051763 40
-2.1149578 2.056699 2.0187793 35
-2.6879838 2.613946 2.0483663 33
-3.5129769 3.4174097 2.0684466 13
-4.9098134 4.7779164 2.1023736 15
-7.7590694 7.5506315 2.1469669 17
-9.5882282 9.3339128 1.2918973 55
-1.545435 1.5065404 2.002733 73
-1.9291514 1.8812582 2.0455854 18
-2.3810382 2.3219316 2.0391736 31
-3.1748185 3.0970898 2.137773 2
-4.1136541 4.0143428 2.0884893 19
-6.0137801 5.8706474 2.1176901 12
nan nan nan 0
-9.4022961 9.184927 0.6238932 6
-0.02215776 0.022363421 2.0141969 8
-0.22445273 0.2216223 2.0057628 98
-0.29589215 0.2908234 2.0180943 93
-0.43791959 0.4298594 2.007731 84
-0.49996099 0.49059933 1.709756 40
-0.53556782 0.52536505 1.4415889 37
-0.94462597 0.92664778 2.0160913 35
-1.1570972 1.1350821 2.0165794 38
-0.088157125 0.088692382 1.9960728 91
-0.15449032 0.15703377 2.0082631 95
-0.36618552 0.36081618 2.0154345 96
-0.49618959 0.48859766 1.9479126 39
-0.49790016 0.48994714 1.5075319 40
-0.84329516 0.82984376 2.0054085 3
-0.93209559 0.91723323 1.8057648 33
-0.84898531 0.83545047 1.3695521 7
nan nan nan 0
-1.7046561 1.6687324 2.0051763 36
-2.1077657 2.064069 2.0187793 27
nan nan nan 0
-3.5208964 3.4491162 2.0796847 10
-4.8999581 4.8017406 2.1051919 9
nan nan nan 0
-9.4524574 9.2662258 1.2789571 28
-1.5241773 1.4962295 1.9827838 38
-1.9196891 1.8851488 2.0426424 9
-2.3821468 2.3392913 2.0467708 8
-3.1898894 3.1335971 2.1545575 2
-4.0962486 4.0253677 2.0868468 7
-6.010582 5.9086399 2.1235516 4
nan nan nan 0
nan nan nan 0
-0.022049397 0.022409106 2.009197 6
-0.22367777 0.22240444 2.0057628 99
-0.29487517 0.2918545 2.0180943 93
-0.43641645 0.4313854 2.007731 84
-0.5010246 0.49508795 1.7189611 40
-0.53202635 0.52554768 1.4372003 37
-0.82126957 0.8112821 1.7681141 7
nan nan nan 0
-0.087847002 0.088999569 1.9960728 89
-0.15394124 0.15757209 2.0082631 93
-0.36492378 0.3620922 2.0154345 95
-0.49693173 0.4927569 1.9572983 39
-0.49773377 0.49321502 1.5120326 40
-0.83298343 0.82543933 1.9883448 3
-0.83469146 0.82713556 1.6302269 8
-0.84365582 0.83602256 1.3658769 6
-0.83081901 0.81900185 1.2262385 6
-1.690504 1.666474 1.9957631 8
nan nan nan 0
-0.84010357 0.82845086 0.70391101 4
nan nan nan 0
-4.8797522 4.8154464 2.1037827 2
nan nan nan 0
-9.4058781 9.2851696 1.2771723 11
-0.83110601 0.82157969 1.1216481 8
nan nan nan 0
-0.85041922 0.84096879 0.78815484 4
nan nan nan 0
nan nan nan 0
nan nan nan 0
nan nan nan 0
nan nan nan 0
-0.021971039 0.022485934 2.009197 6
-0.22290006 0.22318386 2.0057628 99
-0.29385459 0.29288203 2.0180943 91
-0.43490797 0.43290618 2.007731 84
-0.50067818 0.49821189 1.7235636 40
-0.53018862 0.52740157 1.4372003 37
-0.81843269 0.8141439 1.7681141 7
nan nan nan 0
-0.087535799 0.089305669 1.9960728 91
-0.15301898 0.15772481 2.0032918 93
-0.36365762 0.36336377 2.0154345 95
-0.49642974 0.49570793 1.9619911 39
-0.49755058 0.49648771 1.5165335 40
-0.82455868 0.82281518 1.975547 7
-0.82966572 0.82791513 1.6262373 8
-0.83113354 0.82938355 1.3511763 7
-0.83048612 0.82440943 1.229743 5
nan nan nan 0
-0.82935351 0.82357621 0.85091466 4
-0.84349376 0.83762169 0.70854706 4
nan nan nan 0
nan nan nan 0
nan nan nan 0
nan nan nan 0
-0.82823312 0.82447582 1.1216481 6
nan nan nan 0
-0.84747851 0.84393221 0.78815484 5
-0.82714266 0.82396895 0.62717533 4
nan nan nan 0
nan nan nan 0
nan nan nan 0
nan nan nan 0
-0.021892413 0.022562493 2.009197 5
-0.22211963 0.22396055 2.0057628 99
-0.2928305 0.29390597 2.0180943 91
-0.43339419 0.43442163 2.007731 84
-0.50031608 0.50133944 1.7281661 40
-0.53003699 0.53094459 1.4415889 37
-0.8175739 0.81898737 1.7722472 12
nan nan nan 0
-0.08722353 0.089610681 1.9960728 91
-0.15246747 0.15825798 2.0032918 93
-0.36238703 0.364631 2.0154345 95
-0.49713001 0.49988502 1.9713765 39
-0.49735057 0.4997651 1.5210344 40
-0.81800222 0.82199115 1.967015 14
-0.82889664 0.83294261 1.6302269 16
-0.82823336 0.83227974 1.3511763 12
-0.83012545 0.82982463 1.2332475 5
nan nan nan 0
-0.83534372 0.83533627 0.85913903 5
-0.83429945 0.83429569 0.70391101 7
nan nan nan 0
-0.82086885 0.82143837 0.43106771 4
nan nan nan 0
nan nan nan 0
-0.82535017 0.82736188 1.1216481 6
nan nan nan 0
-0.83539468 0.83772707 0.78055757 5
-0.81464893 0.81720847 0.62088114 5
nan nan nan 0
nan nan nan 0
nan nan nan 0
nan nan nan 0
-0.021813523 0.022638772 2.009197 5
-0.22133651 0.22473454 2.0057628 98
-0.29180276 0.29492638 2.0180943 93
-0.43187514 0.43593183 2.007731 86
-0.50131333 0.50585824 1.7373712 40
-0.52818036 0.5327915 1.4415889 38
-0.81272894 0.81983769 1.7681141 17
-0.82064128 0.82782304 1.4717332 12
-0.086910196 0.089914605 1.9960728 89
-0.15191413 0.15878922 2.0032918 93
-0.36111206 0.36589372 2.0154345 95
-0.49659455 0.50284517 1.9760692 40
-0.49713379 0.50304717 1.5255351 40
-0.81146157 0.82113135 1.9584832 20
-0.81751019 0.82725579 1.6142688 22
-0.82055736 0.83034301 1.3438259 18
-0.82219708 0.8276571 1.2262385 12
nan nan nan 0
-0.83242273 0.83824706 0.85913903 6
-0.82513881 0.83091575 0.69927496 7
nan nan nan 0
-0.81123823 0.81748825 0.4282493 4
-0.80620605 0.81241727 0.30877262 4
nan nan nan 0
-0.83296949 0.84084982 1.1349475 16
nan nan nan 0
-0.83246541 0.84063804 0.78055757 8
-0.81817716 0.82649791 0.62507725 7
nan nan nan 0
-0.82734305 0.83634079 0.37445384 12
nan nan nan 0
nan nan nan 0
-0.021764088 0.022746719 2.0141969 4
-0.2205507 0.2255058 2.0057628 99
-0.29077151 0.29594314 2.0180943 95
-0.43035081 0.4374367 2.007731 84
-0.50091481 0.50899756 1.7419736 40
-0.52799809 0.53633928 1.4459776 38
-0.80591398 0.81865895 1.7598482 25
-0.81774664 0.83068252 1.4717332 16
-0.086595811 0.090217426 1.9960728 89
-0.15135892 0.15931854 2.0032918 93
-0.35983264 0.36715201 2.0154345 95
-0.49725279 0.50703973 1.9854547 39
-0.49842539 0.50788802 1.5345368 40
-0.80311024 0.81837451 1.9456853 26
-0.8125065 0.82795316 1.6102793 30
-0.81527936 0.83078253 1.3401507 24
-0.81930298 0.83052212 1.2262385 18
-0.81957281 0.83079934 1.0230522 19
-0.82655567 0.83817047 0.85639757 6
-0.82223332 0.83379102 0.69927496 7
-0.82397997 0.83585399 0.56252825 5
-0.83868498 0.85106796 0.4409321 4
-0.81370902 0.82572311 0.3115705 5
nan nan nan 0
-0.82217276 0.83576584 1.1249729 25
-0.82654828 0.84050697 0.94190019 29
-0.82952601 0.8435387 0.78055757 8
-0.83119547 0.84553152 0.63556755 14
-0.83120942 0.84584105 0.50165582 4
-0.82101238 0.83575612 0.37328154 8
-0.82572573 0.84084773 0.25637671 4
-0.84328079 0.85902423 0.14223436 10
-0.021684557 0.022822551 2.0141969 4
-0.21976221 0.22627428 2.0057628 98
-0.28973669 0.29695633 2.0180943 95
-0.4288213 0.43893623 2.007731 84
-0.50186586 0.51353741 1.7511787 40
-0.52612275 0.5381791 1.4459776 38
-0.79715014 0.8154304 1.7474495 26
-0.8103599 0.82894707 1.4640594 20
-0.086280361 0.090519153 1.9960728 89
-0.15080188 0.15984592 2.0032918 93
-0.35854885 0.36840585 2.0154345 95
-0.49668387 0.51000869 1.9901476 38
-0.49816942 0.51118451 1.5390377 40
-0.78750747 0.80809826 1.9158239 24
-0.80540442 0.82646728 1.6023003 30
-0.81000835 0.83119535 1.3364756 28
-0.81390327 0.83082944 1.2227339 22
-0.8166678 0.83365512 1.0230522 28
-0.82362485 0.84105051 0.85639757 20
-0.81931782 0.83665597 0.69927496 7
-0.83078629 0.84866339 0.5681473 6
-0.8357091 0.85399038 0.4409321 4
-0.81082177 0.8285585 0.3115705 5
nan nan nan 0
-0.81925046 0.83863068 1.1249729 28
-0.82078528 0.84049523 0.93895704 29
-0.82657641 0.84642923 0.78055757 21
-0.82506865 0.84518027 0.63346946 17
-0.82165539 0.84197783 0.49837047 6
-0.81808996 0.83861691 0.37328154 8
-0.82624298 0.84727037 0.25706652 4
nan nan nan 0
-0.02160476 0.022898106 2.0141969 4
-0.218971 0.22704002 2.0057628 98
-0.28869838 0.29796588 2.0180943 93
-0.42832643 0.44150245 2.0125027 84
-0.50143081 0.51668823 1.7557812 40
-0.52590966 0.54173136 1.4503663 39
-0.79233879 0.81618887 1.7433165 23
-0.80299532 0.82717007 1.4563855 24
-0.085963868 0.090819776 1.9960728 91
-0.150243 0.16037133 2.0032918 91
-0.35726067 0.36965516 2.0154345 95
-0.49610013 0.51297981 1.9948403 37
-0.4978964 0.51448518 1.5435386 40
-0.7611044 0.78647816 1.8603667 26
-0.79622686 0.82277602 1.5903319 27
-0.80710196 0.83401769 1.3364756 28
-0.80851156 0.83110917 1.2192293 29
-0.81375283 0.83650064 1.0230522 31
-0.82068408 0.84392041 0.85639757 26
-0.81948102 0.84268695 0.70159298 27
-0.82781881 0.85155827 0.5681473 33
-0.82937968 0.85346186 0.43952289 7
-0.81477141 0.83842939 0.31343573 5
nan nan nan 0
-0.8137179 0.83880484 1.1216481 32
-0.81503254 0.84045357 0.93601388 32
-0.8236168 0.84930933 0.78055757 30
-0.82211339 0.84805512 0.63346946 31
-0.83185703 0.85840601 0.50494123 32
-0.83544952 0.86241436 0.38031545 11
-0.81983542 0.84659183 0.25637671 4
nan nan nan 0
-0.021495311 0.022941131 2.009197 4
-0.21817717 0.22780296 2.0057628 99
-0.28765652 0.29897183 2.0180943 89
-0.4267827 0.44299492 2.0125027 84
-0.50233549 0.52124888 1.7649863 40
-0.52401549 0.54356378 1.4503663 38
-0.78948492 0.81894964 1.7433165 18
-0.79787809 0.8276599 1.4525485 20
-0.085646324 0.091119289 1.9960728 91
-0.14968227 0.16089481 2.0032918 89
-0.35596818 0.37089998 2.0154345 95
-0.49550182 0.51595312 1.9995331 37
-0.49760643 0.51779026 1.5480394 40
nan nan nan 0
-0.79543823 0.8277235 1.5943214 21
-0.80183685 0.83438563 1.3328004 23
-0.80312765 0.83136135 1.2157247 28
-0.81353265 0.84213597 1.0261899 32
-0.81482863 0.84377211 0.85365611 31
-0.81653452 0.84554231 0.70159298 31
-0.82162148 0.8511073 0.56627429 32
-0.82639551 0.85635179 0.43952289 28
-0.83230639 0.86247694 0.31903145 17
-0.82275462 0.85287672 0.19912931 7
-0.8081941 0.83895075 1.1183233 30
-0.80929011 0.84038198 0.93307072 33
-0.81765664 0.84907371 0.77802515 33
-0.82229561 0.85418934 0.63556755 33
-0.81903189 0.85109627 0.50001317 31
-0.82906419 0.86182237 0.37914312 23
-0.80657744 0.83873993 0.25430727 9
nan nan nan 0
-0.0214151 0.023016023 2.009197 5
-0.21738064 0.22856317 2.0057628 98
-0.28661114 0.29997411 2.0180943 89
-0.42523375 0.44448191 2.0125027 84
-0.50186366 0.52441072 1.7695888 40
-0.52211487 0.54538959 1.4503663 38
-0.7846756 0.81966776 1.7391837 9
-0.7972011 0.8327558 1.4563855 16
-0.08513052 0.091205686 1.9910811 91
-0.14911973 0.16141631 2.0032918 91
-0.3546713 0.37214029 2.0154345 95
-0.49488863 0.51892841 2.0042257 38
-0.49729943 0.52109957 1.5525402 40
-0.6025508 0.63139659 1.4977623 33
-0.78838271 0.82613426 1.5863423 11
-0.80360031 0.84208459 1.3401507 16
-0.80022079 0.83415967 1.2157247 23
-0.80789316 0.8421613 1.0230522 30
-0.81187832 0.84661132 0.85365611 31
-0.81971061 0.85478246 0.70622903 32
-0.81864554 0.85397011 0.56627429 32
-0.81676275 0.8523038 0.43670449 25
-0.8156957 0.85119033 0.31530097 12
-0.81977254 0.85574347 0.19912931 11
-0.80009794 0.83636987 1.1116736 24
-0.8007645 0.83735919 0.9271844 30
-0.81468785 0.85192263 0.77802515 33
-0.81303668 0.85049319 0.63137144 33
-0.81605607 0.85395002 0.50001317 31
-0.82269335 0.86119646 0.37797081 22
-0.8002246 0.83796877 0.25361744 5
-0.82085562 0.85987335 0.14162976 34
-0.021305466 0.02305818 2.0041974 5
-0.21658149 0.22932059 2.0057628 97
-0.28556231 0.30097273 2.0180943 91
-0.42367962 0.44596359 2.0125027 82
-0.50137585 0.52757555 1.7741913 40
-0.52020794 0.54720885 1.4503663 37
nan nan nan 0
-0.79208052 0.83320999 1.4525485 10
-0.084811635 0.091502294 1.9910811 91
-0.14855538 0.16193585 2.0032918 93
-0.35337016 0.37337607 2.0154345 89
-0.49307424 0.52065277 2.0042257 46
-0.49847335 0.5259937 1.5615419 40
-0.58778566 0.62024468 1.4679009 34
nan nan nan 0
-0.79366034 0.8375023 1.3291253 8
-0.80222368 0.84211218 1.2227339 16
-0.79420811 0.83370167 1.010501 24
-0.80603451 0.846412 0.85091466 28
-0.81366676 0.85443044 0.70391101 32
-0.81246322 0.85346478 0.56440127 32
-0.81378263 0.85514969 0.43670449 25
-0.81610584 0.85759097 0.31623358 12
-0.80648303 0.84777516 0.19779068 9
-0.80746144 0.84998745 1.1249729 16
-0.79783672 0.84014928 0.9271844 22
-0.80577153 0.84850866 0.77296025 30
-0.810063 0.85332608 0.63137144 31
-0.81307018 0.85679334 0.50001317 31
-0.81299174 0.85701019 0.37562618 21
-0.79729474 0.84075701 0.25361744 5
-0.814412 0.85910779 0.14142823 30
-0.021224849 0.02313241 2.0041974 5
-0.21577971 0.2300752 2.0057628 97
-0.28451002 0.30196774 2.0180943 91
-0.42212033 0.44743976 2.0125027 82
-0.50087208 0.53074336 1.7787938 40
-0.51665014 0.54727924 1.4459776 37
nan nan nan 0
-0.78256512 0.82897592 1.4410377 5
-0.084295973 0.091584399 1.9860895 93
-0.14798923 0.16245341 2.0032918 95
-0.35206467 0.37460726 2.0154345 89
-0.49243605 0.52362788 2.0089188 66
-0.49812666 0.52931648 1.5660427 40
-0.5820424 0.61849403 1.4593688 36
nan nan nan 0
nan nan nan 0
-0.78947616 0.83454448 1.2087157 6
-0.79931897 0.84495294 1.0199144 13
-0.79732919 0.84314424 0.84543175 17
-0.80154747 0.84760875 0.69695693 22
-0.80310982 0.84955788 0.56065518 26
-0.80749774 0.85449833 0.43529528 25
-0.81310737 0.86043447 0.31623358 12
-0.80351883 0.8505851 0.19779068 9
nan nan nan 0
-0.79489917 0.84292918 0.9271844 12
-0.79984689 0.8481797 0.77042782 19
-0.80707937 0.85614848 0.63137144 17
-0.81331325 0.86306316 0.50165582 17
-0.80999529 0.85984284 0.37562618 21
-0.79096001 0.8399297 0.25292763 13
-0.81140816 0.86194533 0.14142823 29
-0.021139922 0.023210045 2.0041974 6
-0.21493496 0.23086451 2.0057628 97
-0.28340131 0.30300847 2.0180943 91
-0.42047757 0.44898394 2.0125027 86
-0.50025904 0.53400135 1.7833964 40
-0.51464075 0.54916918 1.4459776 38
nan nan nan 0
nan nan nan 0
-0.083959728 0.091892734 1.9860895 93
-0.14739279 0.16299474 2.0032918 95
-0.35068929 0.37589514 2.0154345 93
-0.49051356 0.52542925 2.0089188 79
-0.49915642 0.53432137 1.5750444 40
-0.57977152 0.62062317 1.4593688 38
nan nan nan 0
nan nan nan 0
nan nan nan 0
nan nan nan 0
-0.78850973 0.83996361 0.83994877 5
-0.78933913 0.84085089 0.69000286 9
-0.79364598 0.84573454 0.55690914 4
nan nan nan 0
nan nan nan 0
-0.80039591 0.85352445 0.19779068 11
nan nan nan 0
nan nan nan 0
-0.79673284 0.85110551 0.77042782 5
nan nan nan 0
nan nan nan 0
nan nan nan 0
-0.78111261 0.83558786 0.25154799 8
-0.80142152 0.85761303 0.14102517 22
-0.021058775 0.023283698 2.0041974 6
-0.21412779 0.23161338 2.0057628 97
-0.2823419 0.30399588 2.0180943 91
-0.41890773 0.45044893 2.0125027 86
-0.50105327 0.53860515 1.7926013 39
-0.51272064 0.55096227 1.4459776 38
-0.78451174 0.84303886 1.7639813 4
nan nan nan 0
-0.083638459 0.092185251 1.9860895 93
-0.14682294 0.16350824 2.0032918 93
-0.34937504 0.37711698 2.0154345 95
-0.48867649 0.52713829 2.0089188 91
-0.50025034 0.53925371 1.584046 40
-0.57582796 0.62073112 1.4551029 39
nan nan nan 0
nan nan nan 0
nan nan nan 0
nan nan nan 0
nan nan nan 0
nan nan nan 0
nan nan nan 0
nan nan nan 0
nan nan nan 0
nan nan nan 0
nan nan nan 0
nan nan nan 0
nan nan nan 0
nan nan nan 0
nan nan nan 0
nan nan nan 0
nan nan nan 0
nan nan nan 0
-0.021006072 0.023389928 2.009197 6
-0.21331802 0.23235941 2.0057628 97
-0.28127903 0.30497959 2.0180943 93
-0.41733286 0.45190844 2.0125027 84
-0.50049579 0.54178596 1.7972039 39
-0.51079428 0.55274868 1.4459776 38
-0.78729361 0.8519724 1.7763801 6
nan nan nan 0
-0.0831227 0.092261195 1.9810979 95
-0.14625129 0.16401976 2.0032918 93
-0.34805655 0.37833422 2.0154345 95
-0.48683342 0.52884084 2.0089188 93
-0.49984035 0.54259831 1.5885469 40
-0.57365775 0.62273735 1.4551029 39
-0.79820204 0.86650389 1.6342163 5
nan nan nan 0
nan nan nan 0
nan nan nan 0
nan nan nan 0
nan nan nan 0
nan nan nan 0
nan nan nan 0
nan nan nan 0
nan nan nan 0
nan nan nan 0
nan nan nan 0
nan nan nan 0
nan nan nan 0
nan nan nan 0
nan nan nan 0
nan nan nan 0
nan nan nan 0
-0.020924296 0.023463111 2.009197 6
-0.21250562 0.2331026 2.0057628 97
-0.28021273 0.30595955 2.0180943 91
-0.41575283 0.45336246 2.0125027 84
-0.50124282 0.54640913 1.806409 39
-0.50886178 0.5545283 1.4459776 39
-0.79002261 0.86093551 1.788779 11
nan nan nan 0
-0.08280015 0.092550777 1.9810979 93
-0.14567788 0.16452926 2.0032918 93
-0.34673375 0.37954688 2.0154345 95
-0.48614872 0.5318107 2.0136113 93
-0.50088298 0.54755354 1.5975485 40
-0.57148045 0.62473601 1.4551029 42
-0.79924095 0.87373263 1.6421953 11
nan nan nan 0
nan nan nan 0
nan nan nan 0
nan nan nan 0
nan nan nan 0
nan nan nan 0
nan nan nan 0
nan nan nan 0
nan nan nan 0
-0.79235333 0.86408848 1.1249729 5
nan nan nan 0
nan nan nan 0
nan nan nan 0
nan nan nan 0
nan nan nan 0
nan nan nan 0
nan nan nan 0
-0.020842269 0.023536008 2.009197 6
-0.21116932 0.23326682 2.0008237 96
-0.27914301 0.30693582 2.0180943 93
-0.41416776 0.45481092 2.0125027 84
-0.50196362 0.55104411 1.8156141 39
-0.50692296 0.55630118 1.4459776 39
-0.79459387 0.87200803 1.8053107 32
-0.79374254 0.87107748 1.4870809 10
-0.082476579 0.092839241 1.9810979 93
-0.14510266 0.16503678 2.0032918 93
-0.34540683 0.38075489 2.0154345 95
-0.48428941 0.53350443 2.0136113 93
-0.50043285 0.55091059 1.6020494 40
-0.56929624 0.62672704 1.4551029 46
-0.79618621 0.87651718 1.6421953 37
-0.80998933 0.89171708 1.3842528 16
-0.80109525 0.87729967 1.2472657 6
-0.79217571 0.86753535 1.0293278 5
-0.78798115 0.86324424 0.85091466 3
nan nan nan 0
nan nan nan 0
-0.81494105 0.89340931 0.44515967 3
nan nan nan 0
nan nan nan 0
-0.80441755 0.88341588 1.144922 9
-0.80440497 0.88371187 0.95367283 6
-0.80218434 0.88127607 0.78562242 4
-0.80102605 0.88031226 0.63766557 4
-0.80750674 0.88774556 0.50658387 4
nan nan nan 0
nan nan nan 0
nan nan nan 0
-0.020759985 0.023608617 2.009197 7
-0.21035378 0.23400252 2.0008237 96
-0.27806988 0.30790836 2.0180943 93
-0.41257766 0.45625389 2.0125027 84
-0.5013476 0.55424178 1.8202167 39
-0.504978 0.55806726 1.4459776 39
-0.79343319 0.876863 1.8094438 33
-0.794999 0.87859738 1.4947549 36
-0.082152009 0.09312658 1.9810979 95
-0.14452571 0.16554227 2.0032918 93
-0.34407562 0.38195828 2.0154345 95
-0.48242414 0.53519166 2.0136113 93
-0.50142395 0.55588824 1.611051 40
-0.56710505 0.62871045 1.4551029 46
-0.7931217 0.87929106 1.6421953 37
-0.7977891 0.88446945 1.3695521 36
-0.80761009 0.8906582 1.2612839 14
-0.79698741 0.87894684 1.038741 11
-0.79900414 0.8814801 0.864622 7
nan nan nan 0
-0.80366766 0.88694 0.57189339 4
-0.81181747 0.89624864 0.44515967 3
nan nan nan 0
nan nan nan 0
-0.80383354 0.88898838 1.1482469 18
-0.80944657 0.8955102 0.96250236 13
-0.79621232 0.88087255 0.78309 9
-0.80707657 0.8932054 0.6439597 8
-0.80123746 0.88705432 0.50494123 6
nan nan nan 0
-0.81618285 0.90423489 0.26189524 4
nan nan nan 0
-0.020677447 0.02368094 2.009197 7
-0.20953567 0.23473535 2.0008237 97
-0.27699345 0.30887711 2.0180943 91
-0.41098249 0.45769128 2.0125027 84
-0.50202084 0.55889529 1.8294216 39
-0.50302696 0.55982655 1.4459776 39
-0.78660607 0.8754409 1.8011779 38
-0.79406995 0.88375175 1.4985918 37
-0.081826434 0.093412772 1.9810979 91
-0.14394698 0.16604574 2.0032918 93
-0.34274021 0.38315699 2.0154345 95
-0.48055303 0.53687239 2.0136113 91
-0.50093347 0.55925733 1.6155518 40
-0.56490701 0.63068616 1.4551029 46
-0.78602594 0.87756407 1.6342163 40
-0.79243499 0.88472348 1.3658769 39
-0.79256475 0.88022065 1.2437612 37
-0.79912406 0.88750929 1.0450165 27
-0.80711186 0.89669526 0.87558782 16
-0.81304997 0.90329641 0.72245526 16
-0.81607091 0.90697104 0.58125854 13
-0.80868405 0.89907694 0.44515967 8
-0.80811387 0.89844304 0.32089669 5
-0.81564265 0.90713173 0.20225278 4
-0.80072546 0.89178884 1.1482469 37
-0.8009159 0.89231414 0.95661598 30
-0.80465162 0.89648008 0.79321969 18
-0.81304669 0.90615141 0.65025389 22
-0.81390226 0.90742338 0.51315463 23
-0.81779563 0.9120844 0.38617703 11
-0.80310571 0.89601529 0.2598258 9
-0.81328994 0.90769649 0.14283895 5
-0.020622782 0.023786334 2.0141969 7
-0.20923029 0.23604694 2.0057628 97
-0.27591354 0.30984214 2.0180943 91
-0.4093824 0.45912305 2.0125027 86
-0.50136727 0.56210226 1.8340242 39
-0.50106972 0.56157905 1.4459776 40
-0.781672 0.87608159 1.7970449 42
-0.78884596 0.88412601 1.4947549 38
-0.081499867 0.093697831 1.9810979 91
-0.14336649 0.16654721 2.0032918 93
-0.34140065 0.38435102 2.0154345 93
-0.47867608 0.53854656 2.0136113 91
-0.50042552 0.56262976 1.6200527 40
-0.56270206 0.63265419 1.4551029 51
-0.7809549 0.87805045 1.6302269 57
-0.79159498 0.89001745 1.3695521 45
-0.79186445 0.88564044 1.2472657 38
-0.79602116 0.89029342 1.0450165 38
-0.80119032 0.8963896 0.87284636 35
-0.80103487 0.89621943 0.71550113 20
-0.80981123 0.90635711 0.57938552 28
-0.81193221 0.90905017 0.44797805 27
-0.80824518 0.90492213 0.32182932 28
-0.82573837 0.92483264 0.20403764 29
-0.7951225 0.89179111 1.144922 39
-0.79779631 0.89510441 0.95661598 38
-0.80725455 0.90572023 0.79828453 36
-0.80987871 0.90898395 0.65025389 23
-0.8201524 0.92083842 0.51808268 26
-0.81783903 0.91856372 0.38734937 25
-0.80985028 0.9099108 0.26189524 27
-0.82007909 0.92172736 0.14344354 72
-0.020539626 0.023858177 2.0141969 7
-0.20840505 0.23677585 2.0057628 97
-0.27483031 0.31080335 2.0180943 89
-0.40777725 0.46054929 2.0125027 86
-0.50069743 0.56531149 1.8386267 39
-0.49910638 0.56332469 1.4459776 39
-0.77674305 0.87669855 1.792912 42
-0.78362894 0.88447469 1.4909179 49
-0.081172295 0.09398175 1.9810979 91
-0.14278424 0.16704664 2.0032918 93
-0.34005696 0.3855404 2.0154345 89
-0.47679329 0.54021418 2.0136113 91
-0.49990007 0.56600541 1.6245536 40
-0.56049025 0.63461453 1.4551029 51
-0.77588999 0.87851202 1.6262373 57
-0.78399497 0.88769305 1.3622017 59
-0.78640044 0.88573229 1.2437612 40
-0.79290873 0.89306659 1.0450165 39
-0.79528093 0.89605349 0.87010491 40
-0.79790163 0.89901018 0.71550113 37
-0.80664259 0.90917838 0.57938552 28
-0.8055709 0.90828973 0.44656888 27
-0.81160045 0.91508812 0.32369456 26
-0.82250506 0.9277094 0.20403764 65
-0.7920047 0.89456123 1.144922 51
-0.78930926 0.89183015 0.95072967 46
-0.79837346 0.90207565 0.79321969 43
-0.80369353 0.90840626 0.64815581 39
-0.80754745 0.91308331 0.51315463 33
-0.81784719 0.92505449 0.38852167 25
-0.81322825 0.92015362 0.26327488 27
-0.82016444 0.92832834 0.14364508 74
-0.020456223 0.023929726 2.0141969 7
-0.20757729 0.23750186 2.0057628 97
-0.27374372 0.31176078 2.0180943 91
-0.40616718 0.46196988 2.0125027 84
-0.50130141 0.56998992 1.8478317 39
-0.49871942 0.56686217 1.4503663 39
-0.76996046 0.87517887 1.7846459 42
-0.77630162 0.88239056 1.4832441 49
-0.080843754 0.094264515 1.9810979 95
-0.14220028 0.16754402 2.0032918 93
-0.33870912 0.38672507 2.0154345 89
-0.47490472 0.54187518 2.0136113 93
-0.50079304 0.5710215 1.6335552 40
-0.55827159 0.63656723 1.4551029 51
-0.77083141 0.87894905 1.6222478 57
-0.77865624 0.8878755 1.3585266 61
-0.7833038 0.88847196 1.2437612 47
-0.78721201 0.89290881 1.0418788 52
-0.79214829 0.8988241 0.87010491 52
-0.79182953 0.89846629 0.7131831 49
-0.79733497 0.90503156 0.57563943 40
-0.8023954 0.91109616 0.44656888 37
-0.80515456 0.91422909 0.32276195 26
-0.82913405 0.94178849 0.20537627 42
-0.7864117 0.89451575 1.1415972 58
-0.78619134 0.89458001 0.95072967 58
-0.79237378 0.90161872 0.79068726 58
-0.79752237 0.90779656 0.64605778 54
-0.80123907 0.91234833 0.51151192 45
-0.80178612 0.91329265 0.38383242 37
-0.80021173 0.91182029 0.2612054 18
-0.80703479 0.91991878 0.14304048 57
-0.020372568 0.024000987 2.0141969 7
-0.206747 0.238225 2.0057628 95
-0.27265385 0.31271443 2.0180943 95
-0.4045521 0.46338484 2.0125027 86
-0.50059378 0.57320774 1.8524343 39
-0.49831384 0.57040381 1.4547548 37
-0.76504958 0.87574202 1.780513 44
-0.77110755 0.88268059 1.4794071 47
-0.080514215 0.094546139 1.9810979 93
-0.14161457 0.16803937 2.0032918 93
-0.3373571 0.387905 2.0154345 91
-0.47301027 0.54352963 2.0136113 91
-0.50022691 0.57440847 1.638056 40
-0.55604619 0.63851207 1.4551029 46
-0.76577938 0.87936145 1.6182584 55
-0.77332598 0.88803154 1.3548514 61
-0.7778486 0.88851744 1.2402567 47
-0.78152621 0.89272225 1.038741 52
-0.78625214 0.89843702 0.86736345 61
-0.78577089 0.89789093 0.71086508 56
-0.79417086 0.9078092 0.57563943 50
-0.79605216 0.91028029 0.44515967 39
-0.79872471 0.91333628 0.32182932 30
-0.81600845 0.93342888 0.20403764 44
-0.78082865 0.8944422 1.1382724 58
-0.7804063 0.89427346 0.94778651 58
-0.78638709 0.90113086 0.78815484 59
-0.79136521 0.90715486 0.6439597 55
-0.79494566 0.91158038 0.50986928 45
-0.79859328 0.91608584 0.38383242 36
-0.79377055 0.91087461 0.2605156 18
-0.80053729 0.91896325 0.14283895 57
-0.020288663 0.024071954 2.0141969 7
-0.20591417 0.23894525 2.0057628 96
-0.27156058 0.31366429 2.0180943 93
-0.40293214 0.46479422 2.0125027 84
-0.50114965 0.57790369 1.8616393 39
-0.49788961 0.57394952 1.4591435 35
-0.76014405 0.8762815 1.7763801 44
-0.76592106 0.88294518 1.4755702 47
-0.0801837 0.094826616 1.9810979 93
-0.14102714 0.16853268 2.0032918 93
-0.33600104 0.38908026 2.0154345 93
-0.47111014 0.54517746 2.0136113 91
-0.50106764 0.57944566 1.6470577 40
-0.55381399 0.64044911 1.4551029 40
-0.76073378 0.87974942 1.6142688 57
-0.768004 0.88816106 1.3511763 61
-0.77474236 0.8912273 1.2402567 51
-0.77585131 0.8925069 1.0356033 54
-0.78311121 0.9011761 0.86736345 62
-0.77972603 0.89728433 0.70854706 54
-0.78795701 0.907076 0.57376641 50
-0.79286987 0.91305345 0.44515967 38
-0.79231089 0.91240972 0.32089669 29
-0.81274521 0.93627167 0.20403764 48
-0.77525568 0.89434063 1.1349475 60
-0.77463287 0.89393741 0.94484335 58
-0.78041333 0.90061212 0.78562242 59
-0.78522217 0.90648121 0.64186168 55
-0.78866744 0.91077965 0.50822657 45
-0.79220945 0.9151929 0.38266009 37
-0.78734577 0.90989494 0.2598258 18
-0.79405612 0.91797364 0.14263742 57
-0.020232052 0.024176475 2.0191967 8
-0.20507884 0.23966256 2.0057628 97
-0.27046403 0.31461027 2.0180943 91
-0.40130723 0.46619788 2.0125027 84
-0.50167888 0.58261043 1.8708444 39
-0.4974466 0.57749921 1.4635322 33
-0.75708055 0.87892956 1.7763801 44
-0.76074207 0.88318431 1.4717332 45
-0.080038011 0.095328003 1.9860895 95
-0.14043799 0.16902393 2.0032918 95
-0.33464083 0.39025074 2.0154345 95
-0.46920425 0.54681855 2.0136113 91
-0.50046062 0.58284342 1.6515586 40
-0.55157501 0.64237839 1.4551029 39
-0.75569487 0.88011283 1.6102793 57
-0.76269054 0.88826436 1.347501 59
-0.76929647 0.89122659 1.236752 51
-0.7701875 0.89226282 1.0324655 54
-0.77722913 0.90073842 0.864622 62
-0.77369493 0.89664644 0.70622903 54
-0.78175795 0.9063105 0.57189339 49
-0.7865451 0.91218239 0.44375047 38
-0.78591323 0.91144961 0.31996405 28
-0.80296916 0.93155861 0.20314521 48
-0.76969302 0.89421105 1.1316227 58
-0.76887143 0.89357197 0.94190019 58
-0.77445298 0.9000628 0.78309 58
-0.77909362 0.90577579 0.63976359 55
-0.7824046 0.90994638 0.50658387 45
-0.78900999 0.91795266 0.38266009 37
-0.78416491 0.91263777 0.2598258 17
-0.78759176 0.91694993 0.14243588 57
-0.020147536 0.024246952 2.0191967 8
-0.20424101 0.24037696 2.0057628 97
-0.26936418 0.31555247 2.0180943 93
-0.39967746 0.46759585 2.0125027 84
-0.50345087 0.58881277 1.8846519 39
-0.49698493 0.58105278 1.4679209 30
-0.75034976 0.87728983 1.7681141 39
-0.75557083 0.88339812 1.4678962 45
-0.079704769 0.095606804 1.9860895 95
-0.13984714 0.16951312 2.0032918 93
-0.33327654 0.39141652 2.0154345 95
-0.46729267 0.54845309 2.0136113 91
-0.49983594 0.58624405 1.6560594 40
-0.54932934 0.64429986 1.4551029 38
-0.75066262 0.8804518 1.6062899 46
-0.75738579 0.88834149 1.3438259 57
-0.76385999 0.89119869 1.2332475 53
-0.76453489 0.89199013 1.0293278 54
-0.77135968 0.90027064 0.86188048 55
-0.77056026 0.89934158 0.70622903 56
-0.77557385 0.90551293 0.57002038 49
-0.78023612 0.91127831 0.4423413 38
-0.77953207 0.910456 0.31903145 27
-0.79647422 0.93057233 0.20269899 47
-0.76414067 0.89405358 1.1282978 58
-0.76312196 0.89317721 0.93895704 58
-0.76850605 0.89948285 0.78055757 56
-0.77297956 0.90503871 0.63766557 54
-0.77615714 0.90908039 0.50494123 45
-0.78264552 0.91700411 0.38148779 36
-0.78097433 0.91536951 0.2598258 17
-0.78438622 0.91969353 0.14243588 57
-0.020062774 0.024317132 2.0191967 8
-0.20340069 0.24108842 2.0057628 96
-0.26826108 0.3164908 2.0180943 93
-0.3980428 0.46898815 2.0125027 80
-0.50392121 0.59354526 1.8938569 40
-0.49805528 0.58643621 1.4766982 30
-0.74363977 0.87561399 1.7598482 38
-0.75040728 0.88358665 1.4640594 39
-0.079370551 0.095884442 1.9860895 93
-0.13925457 0.17000026 2.0032918 93
-0.33190826 0.39257744 2.0154345 96
-0.46537533 0.5500809 2.0136113 91
-0.5006007 0.59130937 1.6650611 40
-0.547077 0.64621341 1.4551029 37
-0.74174255 0.87616563 1.5943214 39
-0.74770898 0.88321739 1.3328004 47
-0.7561217 0.88842797 1.2262385 49
-0.75889361 0.89168882 1.0261899 56
-0.7682125 0.90295774 0.86188048 55
-0.76454568 0.89865166 0.70391101 56
-0.76940483 0.90468323 0.5681473 49
-0.77394313 0.91034126 0.4409321 37
-0.77316749 0.90942895 0.31809881 26
-0.793221 0.93334687 0.20269899 45
-0.75859886 0.89386821 1.1249729 55
-0.75738478 0.89275336 0.93601388 56
-0.76536155 0.90215993 0.78055757 58
-0.76981568 0.90773135 0.63766557 54
-0.7699253 0.90818191 0.50329852 45
-0.77943987 0.91973042 0.38148779 36
-0.77137226 0.91053289 0.25844616 17
-0.77794242 0.91861349 0.14223436 53
-0.019977771 0.024387017 2.0191967 8
-0.20255789 0.24179694 2.0057628 96
-0.26715469 0.31742528 2.0180943 91
-0.39640331 0.47037473 2.0125027 80
-0.50436461 0.59828818 1.903062 40
-0.49754965 0.59000266 1.4810869 32
-0.71880978 0.85238945 1.7102529 37
-0.74111831 0.87884814 1.4525485 37
-0.079035372 0.096160911 1.9860895 95
-0.13866031 0.1704853 2.0032918 93
-0.33053586 0.39373365 2.0154345 96
-0.46345237 0.55170202 2.0136113 91
-0.49993479 0.59472024 1.6695619 39
-0.54481792 0.64811915 1.4551029 37
-0.7212255 0.85798526 1.5584158 38
-0.73589569 0.87544149 1.3180997 39
-0.74841225 0.88561416 1.2192293 39
-0.75577635 0.89433241 1.0261899 46
-0.75965911 0.89924532 0.85639757 59
-0.7614041 0.90131497 0.70391101 49
-0.76325113 0.90382147 0.56627429 49
-0.76766616 0.90937144 0.43952289 37
-0.7699883 0.91212225 0.31809881 26
-0.78353465 0.92849797 0.20180658 47
-0.74825484 0.88794392 1.1149985 40
-0.75426382 0.8953917 0.93601388 46
-0.75665259 0.89823145 0.77549273 55
-0.76079571 0.90346986 0.63346946 52
-0.76979166 0.91447681 0.50494123 45
-0.77309507 0.91872656 0.38031545 36
-0.76818919 0.91321987 0.25844616 17
-0.7747311 0.92132336 0.14223436 53
-0.019892521 0.024456603 2.0191967 8
-0.20171264 0.24250254 2.0057628 97
-0.26604503 0.31835589 2.0180943 91
-0.39475897 0.47175553 2.0125027 84
-0.5035271 0.60154313 1.9076645 40
-0.49856323 0.59540957 1.4898641 35
-0.6309216 0.753488 1.5160043 20
-0.70717382 0.84455931 1.3949943 35
-0.078699231 0.096436217 1.9860895 95
-0.13806437 0.17096828 2.0032918 93
-0.32915944 0.39488503 2.0154345 95
-0.46152374 0.55331641 2.0136113 91
-0.50064671 0.59980553 1.6785636 40
-0.54255223 0.65001696 1.4551029 36
-0.66608161 0.79802269 1.4506993 23
nan nan nan 0
-0.7384392 0.88002539 1.2087157 38
-0.74764544 0.89100093 1.0199144 39
-0.75114101 0.89548427 0.85091466 40
-0.75255907 0.89717883 0.69927496 40
-0.75711292 0.90292782 0.56440127 43
-0.76448721 0.9120456 0.43952289 37
-0.76679975 0.91480452 0.31809881 26
-0.7674951 0.91595876 0.20002173 47
-0.73556525 0.87909424 1.101699 38
-0.73816735 0.88251698 0.92129809 38
-0.75351262 0.90086722 0.77549273 39
-0.75763744 0.90612 0.63346946 39
-0.76053768 0.90991139 0.50165582 40
-0.76988345 0.9214195 0.38031545 36
-0.76182222 0.91209507 0.25775632 16
-0.75550056 0.90484726 0.14122671 55
-0.019833973 0.024560215 2.0241964 8
-0.20086491 0.24320517 2.0057628 97
-0.26493213 0.31928262 2.0180943 91
-0.39310983 0.47313064 2.0125027 84
-0.50392169 0.60630214 1.9168695 40
-0.49954504 0.60083073 1.4986415 37
-0.60490036 0.72755569 1.462276 18
-0.60789245 0.73115849 1.2146579 16
-0.078544036 0.09693563 1.9910811 95
-0.13746674 0.17144917 2.0032918 93
-0.32777902 0.39603159 2.0154345 95
-0.45958951 0.55492407 2.0136113 91
-0.49993956 0.60322618 1.6830643 40
-0.53861582 0.64989877 1.450837 36
-0.62098181 0.74928951 1.3629304 18
-0.59997129 0.72394133 1.09759 18
-0.71253502 0.85519886 1.1736702 36
-0.72210389 0.86668783 0.9916743 36
-0.73463053 0.88203579 0.83720732 37
-0.7352466 0.88277954 0.68768483 36
-0.7539565 0.90556514 0.56440127 35
-0.76436776 0.91839594 0.4409321 31
-0.75731695 0.90992427 0.31623358 23
-0.75792301 0.91097564 0.19912931 45
-0.67044604 0.80697465 1.0152531 35
-0.675686 0.81357056 0.85360539 36
-0.68150187 0.82057732 0.71218204 34
-0.68199331 0.82146078 0.58101815 32
-0.7483092 0.90165865 0.49672776 19
nan nan nan 0
nan nan nan 0
-0.75233746 0.90747899 0.14122671 28
-0.019748122 0.024629299 2.0241964 8
-0.20001474 0.24390484 2.0057628 97
-0.263816 0.32020545 2.0180943 89
-0.39145592 0.47449994 2.0125027 86
-0.50304574 0.6095643 1.9214722 40
-0.50049508 0.6062659 1.5074189 38
-0.57727665 0.6992811 1.4044147 19
-0.60329556 0.73080367 1.2108209 16
-0.078205191 0.097209208 1.9910811 95
-0.13686743 0.17192797 2.0032918 93
-0.32639465 0.39717335 2.0154345 95
-0.45764968 0.55652493 2.0136113 93
-0.50059831 0.60833079 1.6920661 40
-0.53634399 0.65177494 1.450837 36
-0.58389115 0.70956093 1.2911195 21
-0.59097832 0.71817774 1.0865644 18
-0.60270429 0.72853208 1.0089566 16
-0.66200197 0.80021471 0.91950542 22
-0.66759247 0.80725926 0.77141213 24
-0.67004758 0.81023204 0.63668823 21
-0.60900855 0.73668408 0.47449565 8
nan nan nan 0
nan nan nan 0
nan nan nan 0
-0.59871107 0.72577012 0.91883242 16
-0.60083789 0.7286073 0.7711969 16
-0.60183299 0.72981805 0.64127403 14
-0.60406345 0.73278344 0.52646881 11
-0.59799963 0.72568542 0.41623619 4
nan nan nan 0
nan nan nan 0
nan nan nan 0
-0.019666336 0.02469465 2.0241964 8
-0.19920482 0.24456677 2.0057628 97
-0.26275274 0.32107854 2.0180943 89
-0.38988024 0.47579548 2.0125027 84
-0.50349849 0.61425102 1.9306772 40
-0.50000095 0.60977489 1.5118076 39
-0.57317036 0.69901544 1.4002818 23
-0.58054155 0.70800936 1.1724515 17
-0.077899419 0.097454421 1.9910811 93
-0.13632663 0.17235711 2.0032918 93
-0.32514527 0.39819679 2.0154345 95
-0.45589903 0.55795997 2.0136113 93
-0.50133461 0.61335981 1.7010677 40
-0.53417969 0.65354997 1.450837 37
-0.57772022 0.70682603 1.2831405 21
-0.58442736 0.7147817 1.0792141 18
-0.59802103 0.7277714 1.005452 16
-0.59014434 0.7181896 0.83164763 13
-0.5985598 0.72869039 0.70287549 15
-0.60549325 0.73713535 0.58569163 15
-0.59492093 0.72426444 0.46700355 7
nan nan nan 0
nan nan nan 0
nan nan nan 0
-0.59630102 0.72775149 0.91883242 16
-0.5958572 0.72746879 0.76825374 16
-0.59953719 0.73170519 0.64127403 14
-0.59600675 0.72765535 0.52227271 10
-0.59571689 0.72756052 0.41623619 4
nan nan nan 0
nan nan nan 0
nan nan nan 0
-0.019575696 0.024766564 2.0241964 8
-0.19830711 0.24529526 2.0057628 97
-0.26157415 0.3220394 2.0180943 91
-0.38813379 0.47722125 2.0125027 86
-0.50247669 0.61760777 1.9352797 40
-0.50078708 0.61531973 1.5205848 38
-0.56882823 0.69892895 1.3961488 22
-0.57794267 0.71013248 1.1724515 17
-0.07752464 0.09775281 1.9910811 93
-0.13566382 0.17287929 2.0032918 95
-0.32361394 0.39944232 2.0154345 95
-0.45375326 0.55970633 2.0136113 91
-0.50171906 0.61866319 1.7100694 40
-0.53330892 0.65762186 1.4551029 37
-0.5769003 0.71138 1.28713 20
-0.57728261 0.71185559 1.0718638 17
-0.58407968 0.71614009 0.98792928 16
-0.58996844 0.72336453 0.83478546 13
-0.59324276 0.72763848 0.70013404 15
-0.59718859 0.73248237 0.58105558 14
