# .PCD v0.7 - Point Cloud Data file format
VERSION 0.7
FIELDS x y z intensity
SIZE 4 4 4 4
TYPE F F F F
COUNT 1 1 1 1
WIDTH 1394
HEIGHT 1
VIEWPOINT 0 0 0 1 0 0 0
POINTS 1394
DATA ascii
1.9724387 0.26704282 2.0357888 18
2.3484845 0.31795049 1.9926252 67
2.8861997 0.39023513 1.9941061 64
3.6058314 0.48753062 1.9904157 52
4.6409836 0.62666404 1.980414 43
2.5010841 0.33727381 0.83127922 54
2.4535599 0.33086517 0.56151271 55
2.7488618 0.37019816 0.34147027 4
2.1317356 0.28557587 1.9960833 77
2.5946639 0.34712949 1.9896654 69
3.2194784 0.43071702 1.9935898 68
4.0677915 0.54348505 1.9846153 58
2.5142386 0.33547398 0.97146362 58
2.4862545 0.33129847 0.69566888 58
2.4445126 0.32530209 0.43572879 69
nan nan nan 0
0.031140473 0.003624368 1.9991974 82
0.32677189 0.04164584 2.0946693 101
0.40840593 0.053006545 2.0034087 91
0.6040405 0.078796223 1.9934158 84
0.81660771 0.10665686 1.999715 96
1.0408343 0.13611762 1.9901714 87
1.3009187 0.17012495 1.9995594 84
1.5944911 0.20851134 2.0012317 74
0.12476651 0.014714424 2.0060561 37
0.22792229 0.025683861 2.0927773 98
0.50489819 0.064886682 1.9960775 93
0.70606518 0.090970933 1.9901476 89
0.92387575 0.11935039 1.9891212 95
1.1656168 0.15057293 1.9926107 93
1.4404171 0.18606561 1.9972607 87
1.7596023 0.22729142 2.0016804 83
1.9698232 0.25968999 2.032284 18
2.34958 0.3097508 1.9926252 67
2.8875444 0.38015804 1.9941061 59
3.607511 0.47494099 1.9904157 53
4.6431422 0.61046016 1.980414 43
2.5070024 0.32916582 0.83268839 57
2.4547 0.32229865 0.56151271 55
2.5427501 0.33340797 0.32272944 4
2.1290169 0.27765012 1.9927584 75
2.5958598 0.3380703 1.9896654 71
3.2209623 0.41947636 1.9935898 68
4.069664 0.52928251 1.9846153 58
2.5153942 0.32669562 0.97146362 60
2.487396 0.3226178 0.69566888 58
2.4505446 0.31740332 0.43641862 69
nan nan nan 0
0.031152319 0.0035210825 1.9991974 82
0.32613716 0.040466499 2.0897303 101
0.4085795 0.051651929 2.0034087 91
0.60429853 0.07679271 1.9934158 82
0.81695688 0.1039483 1.999715 96
1.04128 0.13266534 1.9901714 87
1.3014758 0.16581 1.9995594 87
1.5951737 0.20322266 2.0012317 74
0.12481211 0.014322387 2.0060561 37
0.22853267 0.025025172 2.0977485 98
0.50509959 0.063300177 1.9960775 93
0.70634747 0.088752314 1.9901476 87
0.9242664 0.11628605 1.9891212 96
1.1661097 0.14670676 1.9926107 93
1.4410261 0.181288 1.9972607 87
1.7603077 0.22176236 2.0016804 80
1.9706736 0.25315636 2.032284 19
2.3467333 0.30146164 1.9894875 67
2.8887892 0.37058046 1.9941061 58
3.6090665 0.46297538 1.9904157 53
4.6404386 0.59528035 1.978541 44
2.508024 0.32128823 0.83268839 57
2.4606278 0.31478015 0.56244534 56
2.8945751 0.36977968 0.35441035 3
2.1299257 0.27058849 1.9927584 75
2.5969665 0.32946029 1.9896654 71
3.2222641 0.40935534 1.9935898 68
4.0713067 0.51649469 1.9846153 58
2.5164082 0.31879169 0.97146362 60
2.4883969 0.31480184 0.69566888 56
2.4515297 0.30970314 0.43641862 68
nan nan nan 0
0.031164423 0.0034123191 1.9991974 84
0.32627639 0.039327819 2.0897303 101
0.4087573 0.050225407 2.0034087 91
0.60456288 0.074682854 1.9934158 82
0.81731474 0.10109595 1.999715 95
1.0417367 0.12902978 1.9901714 87
1.3020467 0.161266 1.9995594 84
1.5958735 0.19765323 2.0012317 74
0.12486377 0.013864831 2.0060561 37
0.22862285 0.02418739 2.0977485 97
0.50532818 0.061448466 1.9960775 93
0.70666808 0.086162835 1.9901476 89
0.92466676 0.11305905 1.9891212 96
1.1666148 0.14263539 1.9926107 93
1.4416503 0.17625678 1.9972607 87
1.7611086 0.21530902 2.0016804 80
1.9680065 0.24583387 2.0287795 19
2.3477712 0.29326814 1.9894875 66
2.890065 0.36049446 1.9941061 63
3.6062648 0.44982627 1.9880978 47
4.6425896 0.57826829 1.978541 44
2.5091846 0.3120937 0.83268839 59
2.4617116 0.30618903 0.56244534 56
2.9551532 0.36703926 0.35976484 3
2.127151 0.26269433 1.9894335 77
2.5981009 0.32039317 1.9896654 71
3.2237427 0.39754239 1.9935898 68
4.0731726 0.50156909 1.9846153 58
2.5175598 0.30956644 0.97146362 60
2.4895341 0.30567929 0.69566888 58
2.4526484 0.30071577 0.43641862 69
nan nan nan 0
0.031176142 0.0033035143 1.9991974 82
0.32641169 0.038188666 2.0897303 102
0.40893012 0.048798267 2.0034087 89
0.60481989 0.072572082 1.9934158 86
0.81766266 0.098242372 1.999715 95
1.0421809 0.12539266 1.9901714 87
1.3026015 0.15672001 1.9995594 84
1.5965537 0.19208139 2.0012317 74
0.12491141 0.01342889 2.0060561 38
0.22870588 0.023389202 2.0977485 97
0.5055396 0.059684169 1.9960775 91
0.70696455 0.083695576 1.9901476 89
0.92505574 0.10983067 1.9891212 95
1.1671056 0.13856228 1.9926107 95
1.4422566 0.17122339 1.9972607 87
1.7618495 0.20916028 2.0016804 83
1.9688528 0.23896274 2.0287795 19
2.3487806 0.2850711 1.9894875 66
2.8871548 0.34990096 1.9913646 64
3.6078129 0.43723533 1.9880978 47
4.6445799 0.5620591 1.978541 42
2.5102589 0.30333313 0.83268839 55
2.4627655 0.29759419 0.56244534 56
2.9712491 0.35851133 0.3611035 3
2.1280551 0.25526759 1.9894335 77
2.5992033 0.31132215 1.9896654 71
3.2251108 0.38628703 1.9935898 66
4.0748982 0.48734805 1.9846153 58
2.518625 0.30077663 0.97146362 60
2.4954123 0.29756287 0.69684118 60
2.4536829 0.29215258 0.43641862 69
nan nan nan 0
0.031187484 0.0031946688 1.9991974 82
0.326543 0.037049044 2.0897303 103
0.40909797 0.047370538 2.0034087 89
0.60506958 0.070460424 1.9934158 86
0.81800061 0.095387608 1.999715 96
1.0426122 0.121754 1.9901714 87
1.3031406 0.15217213 1.9995594 82
1.5972145 0.1865072 2.0012317 76
0.12495752 0.012992787 2.0060561 38
0.22878614 0.022590727 2.0977485 97
0.50574487 0.057919145 1.9960775 91
0.70725238 0.081227295 1.9901476 87
0.92543352 0.10660095 1.9891212 95
1.1675822 0.13448748 1.9926107 93
1.4398514 0.16584308 1.9932711 84
1.7625688 0.20300901 2.0016804 85
1.966133 0.23167139 2.025275 19
2.3497612 0.27687061 1.9894875 66
2.8883584 0.3398208 1.9913646 64
3.6093171 0.42463908 1.9880978 56
4.6327004 0.54422051 1.972922 23
2.5113025 0.29456881 0.83268839 55
2.4637892 0.28899568 0.56244534 53
2.9823747 0.34929618 0.36199591 2
2.128933 0.24783771 1.9894335 77
2.6002741 0.30224735 1.9896654 71
3.2221572 0.37452915 1.9910573 66
4.0765743 0.47312105 1.9846153 59
2.5243506 0.29252678 0.97310632 60
2.4964359 0.28885043 0.69684118 60
2.4546881 0.28358588 0.43641862 69
nan nan nan 0
0.031198446 0.0030857851 1.9991974 82
0.32667035 0.035908967 2.0897303 102
0.40926084 0.045942232 2.0034087 89
0.60531181 0.068347909 1.9934158 86
0.81832856 0.092531674 1.999715 96
1.0430307 0.11811387 1.9901714 89
1.3036638 0.14762241 1.9995594 82
1.5978557 0.18093076 2.0012317 74
0.12500212 0.012556525 2.0060561 39
0.2288636 0.021791974 2.0977485 97
0.50594395 0.056153413 1.9960775 95
0.70753157 0.078758024 1.9901476 89
0.92579997 0.10336994 1.9891212 95
1.1706364 0.13070039 1.9968767 91
1.4404216 0.16081606 1.9932711 82
1.7632668 0.19685526 2.0016804 83
1.9669297 0.22480689 2.025275 20
2.3507135 0.26866671 1.9894875 66
2.8895271 0.3297365 1.9913646 64
3.6107776 0.41203761 1.9880978 57
nan nan nan 0
2.5170822 0.28634322 0.83409762 54
2.4696636 0.28094894 0.56337792 51
2.988524 0.33944562 0.36244211 4
2.1297851 0.24040484 1.9894335 79
2.6013134 0.29316884 1.9896654 69
3.2234447 0.36327943 1.9910573 68
4.0782013 0.45888826 1.9846153 58
2.5253565 0.28371337 0.97310632 60
2.4974291 0.28013447 0.69684118 58
2.455663 0.27501568 0.43641862 68
nan nan nan 0
0.031209026 0.0029768632 1.9991974 82
0.32679367 0.034768455 2.0897303 102
0.4094187 0.044513367 2.0034087 89
0.60554671 0.066234559 1.9934158 84
0.81864661 0.089674607 1.999715 96
1.0434368 0.11447229 1.9901714 89
1.3041713 0.14307086 1.9995594 82
1.5984776 0.1753521 2.0012317 74
0.12504518 0.012120109 2.0060561 39
0.22893827 0.020992959 2.0977485 97
0.50613689 0.054386996 1.9960775 93
0.70951784 0.07647267 1.9948403 89
0.92615515 0.10013766 1.9891212 95
1.1710856 0.1266133 1.9968767 93
1.4409741 0.15578707 1.9932711 82
1.7639432 0.1906991 2.0016804 83
1.9677024 0.21793965 2.025275 20
2.3516371 0.26045954 1.9894875 67
2.8948166 0.3201077 1.9941061 66
3.6121938 0.39943111 1.9880978 57
2.5397823 0.28039753 1.120692 34
2.5180662 0.2775552 0.83409762 57
2.4706292 0.2723265 0.56337792 51
2.9995909 0.33010113 0.36333454 5
2.1306114 0.23296905 1.9894335 79
2.6023209 0.28408679 1.9896654 60
3.2246933 0.35202533 1.9910573 66
4.0797787 0.44464988 1.9846153 58
2.5310261 0.27540734 0.97474897 60
2.4983916 0.27141511 0.69684118 58
2.4566081 0.26644212 0.43641862 69
nan nan nan 0
0.031219229 0.0028679052 1.9991974 80
0.32691306 0.033627521 2.0897303 102
0.40957159 0.043083955 2.0034087 89
0.60577416 0.064120397 1.9934158 84
0.81895465 0.086816445 1.999715 95
1.0438299 0.11082932 1.9901714 87
1.3018645 0.13822052 1.9954264 78
1.59908 0.16977128 2.0012317 73
0.12508672 0.011683547 2.0060561 39
0.22901016 0.020193689 2.0977485 93
0.5063237 0.052619915 1.9960775 93
0.70978045 0.073995523 1.9948403 89
0.92649901 0.096904166 1.9891212 95
1.1715204 0.12252469 1.9968767 95
1.4415091 0.1507562 1.9932711 84
1.764598 0.18454064 2.0016804 80
1.9684511 0.21106976 2.025275 21
2.3525319 0.25224921 1.9894875 67
2.8959165 0.31000096 1.9941061 66
3.6135659 0.38681978 1.9880978 57
2.5361357 0.2710377 1.118819 47
2.5190196 0.26876384 0.83409762 57
2.4715648 0.26370072 0.56337792 56
3.005677 0.3201561 0.36378074 5
2.1351254 0.22592336 1.9927584 79
2.6032968 0.27500129 1.9896654 54
3.2259026 0.34076688 1.9910573 68
4.0767918 0.42993012 1.9825172 58
2.5319719 0.26657075 0.97474897 58
2.4993238 0.26269245 0.69684118 58
2.4575231 0.25786537 0.43641862 69
nan nan nan 0
0.031229049 0.0027589123 1.9991974 80
0.32702845 0.032486178 2.0897303 102
0.40971947 0.041654024 2.0034087 89
0.60450858 0.061853498 1.9886441 84
0.8211962 0.084156357 2.0043178 96
1.0442104 0.107185 1.9901714 87
1.302339 0.13367532 1.9954264 78
1.5996628 0.16418843 2.0012317 74
0.12512675 0.011246841 2.0060561 40
0.22907925 0.01939417 2.0977485 93
0.50650424 0.050852198 1.9960775 93
0.71003443 0.071517475 1.9948403 89
0.92683166 0.093669496 1.9891212 95
1.1719409 0.11843458 1.9968767 93
1.4450252 0.14602648 1.9972607 84
1.7652316 0.17837992 2.0016804 81
1.9691761 0.2041973 2.025275 21
2.3495259 0.2436343 1.9863497 67
2.8969808 0.29989043 1.9941061 58
3.6148944 0.37420374 1.9880978 58
2.5462894 0.26313633 1.122565 53
2.5199428 0.25996917 0.83409762 57
2.4724703 0.25507176 0.56337792 56
3.0166841 0.31068274 0.36467317 5
2.135901 0.21846901 1.9927584 79
2.6042407 0.26591238 1.9896654 54
3.2270722 0.32950431 1.9910573 68
4.0782676 0.4156968 1.9825172 58
2.5328872 0.25773084 0.97474897 58
2.5050614 0.2544578 0.69801348 60
2.4584081 0.24928543 0.43641862 69
nan nan nan 0
0.031238491 0.0026498856 1.9991974 82
0.32713985 0.031344436 2.0897303 102
0.4098624 0.040223584 2.0034087 87
0.60472083 0.059742991 1.9886441 84
0.82148504 0.081289344 2.0043178 96
1.0445782 0.10353936 1.9901714 87
1.3027976 0.12912849 1.9954264 82
1.6002262 0.15860355 2.0012317 74
0.12516525 0.010809998 2.0060561 40
0.22914556 0.018594418 2.0977485 93
0.5066787 0.049083859 1.9960775 93
0.7102797 0.069038562 1.9948403 89
0.92715299 0.09043368 1.9891212 95
1.1723472 0.11434302 1.9968767 93
1.4455261 0.14098151 1.9972607 84
1.7658434 0.17221703 2.0016804 83
1.9698766 0.19732235 2.025275 23
2.3503618 0.23543145 1.9863497 67
2.89801 0.28977627 1.9941061 53
3.6161783 0.36158311 1.9880978 58
2.5471923 0.25424653 1.122565 53
2.5208349 0.25117135 0.83409762 57
2.4782338 0.24692671 0.56431055 55
3.0227058 0.30064356 0.36511937 4
2.1366506 0.21101199 1.9927584 79
2.6091754 0.25721678 1.9926084 54
3.2282028 0.31823772 1.9910573 66
4.0796938 0.4014585 1.9825172 58
2.5337713 0.24888788 0.97474897 58
2.5059342 0.24571195 0.69801348 58
2.4592633 0.24070247 0.43641862 69
nan nan nan 0
0.031247549 0.002540827 1.9991974 82
0.32724729 0.030202316 2.0897303 102
0.41000029 0.038792647 2.0034087 87
0.60492563 0.057631757 1.9886441 84
0.81981885 0.078235775 1.999715 96
1.0449333 0.099892475 1.9901714 87
1.3060416 0.12484784 1.9995594 84
1.60077 0.15301676 2.0012317 74
0.12520221 0.010373024 2.0060561 44
0.22920907 0.017794436 2.0977485 91
0.5068469 0.04731492 1.9960775 93
0.71051639 0.066558801 1.9948403 91
0.927463 0.08719676 1.9891212 95
1.1701425 0.11000598 1.9926107 93
1.4460095 0.13593481 1.9972607 87
1.7664338 0.16605201 2.0016804 83
1.9705534 0.19044501 2.025275 23
2.3511696 0.22722572 1.9863497 67
2.899004 0.27965856 1.9941061 43
3.6174185 0.3489581 1.9880978 58
2.5526791 0.24579798 1.124438 53
2.5264714 0.24282941 0.8355068 59
2.4790807 0.23827456 0.56431055 53
3.0336511 0.29104167 0.3660118 4
2.1373742 0.20355241 1.9927584 77
2.6100576 0.24810751 1.9926084 46
3.2292941 0.30696723 1.9910573 66
4.0810704 0.38721526 1.9825172 58
2.5393262 0.24048711 0.97639173 58
2.5067768 0.23696308 0.69801348 56
2.4650187 0.23258172 0.43710843 66
nan nan nan 0
0.031256229 0.0024317373 1.9991974 77
0.32735071 0.029059824 2.0897303 101
0.41013321 0.037361242 2.0034087 91
0.60512316 0.055519823 1.9886441 84
0.82203251 0.075552367 2.0043178 95
1.0452757 0.096244372 1.9901714 87
1.3064696 0.12028815 1.9995594 84
1.6012944 0.14742811 2.0012317 74
0.12523766 0.0099359229 2.0060561 45
0.22926979 0.016994238 2.0977485 89
0.50700897 0.045545407 1.9960775 95
0.71074444 0.064078227 1.9948403 93
0.92776173 0.083958775 1.9891212 95
1.1705195 0.10592075 1.9926107 93
1.4464751 0.13088647 1.9972607 87
1.7670027 0.15988502 2.0016804 83
1.9712063 0.18356533 2.025275 24
2.3519483 0.21901724 1.9863497 67
2.8999624 0.26953745 1.9941061 45
3.6186144 0.33632883 1.9880978 58
2.5535214 0.23688596 1.124438 53
2.5273035 0.23400891 0.8355068 59
2.4798973 0.22961949 0.56431055 53
3.0296898 0.27999222 0.3655656 2
2.1380718 0.19609036 1.9927584 77
2.614933 0.23936366 1.9955517 33
3.230346 0.29569304 1.9910573 68
4.0823975 0.3729673 1.9825172 58
2.5401504 0.23162173 0.97639173 60
2.5075886 0.22821136 0.69801348 58
2.4707477 0.22442378 0.43779826 66
nan nan nan 0
0.031264525 0.0023226177 1.9991974 77
0.32745016 0.027916981 2.0897303 101
0.41026112 0.035929386 2.0034087 91
0.60531324 0.053407215 1.9886441 84
0.8222912 0.07268247 2.0043178 96
1.0456052 0.092595086 1.9901714 87
1.3068814 0.11572699 1.9995594 84
1.6017992 0.14183764 2.0012317 74
0.12527159 0.0094987024 2.0060561 45
0.22932771 0.016193835 2.0977485 91
0.50716484 0.043775339 1.9960775 91
0.71096379 0.061596874 1.9948403 93
0.92804921 0.080719776 1.9891212 95
1.170882 0.10183423 1.9926107 93
1.4469233 0.12583654 1.9972607 84
1.7675501 0.15371606 2.0016804 83
1.9718349 0.17668343 2.025275 22
2.356576 0.21115348 1.9894875 66
2.9050505 0.2597855 1.9968475 40
3.6197665 0.32369548 1.9880978 58
2.5543327 0.22797105 1.124438 51
2.528105 0.22518553 0.8355068 58
2.4806838 0.22096163 0.56431055 53
nan nan nan 0
2.1387432 0.18862589 1.9927584 75
2.6157527 0.23023437 1.9955517 33
3.2313585 0.28441522 1.9910573 68
4.0836744 0.35871479 1.9825172 57
2.5409434 0.22275355 0.97639173 60
2.5083699 0.21945687 0.69801348 58
2.4813828 0.21665941 0.4391779 13
nan nan nan 0
0.031272441 0.0022134699 1.9991974 82
0.32754558 0.026773797 2.0897303 102
0.41038406 0.03449709 2.0034087 93
0.60549599 0.051293947 1.9886441 84
0.82253993 0.069811694 2.0043178 96
1.045922 0.088944688 1.9901714 87
1.3072774 0.11116441 1.9995594 82
1.6022846 0.13624546 2.0012317 74
0.12530398 0.0090613654 2.0060561 49
0.22938283 0.015393233 2.0977485 91
0.50856811 0.042108454 2.0009167 91
0.71117449 0.059114777 1.9948403 91
0.9283253 0.07747978 1.9891212 95
1.1738294 0.097963341 1.9968767 95
1.4443502 0.12053443 1.9932711 84
1.7680759 0.14754522 2.0016804 81
1.9688867 0.1694935 2.0217705 22
2.3572989 0.20292619 1.9894875 66
2.9101057 0.25000128 1.999589 31
3.6208744 0.31105816 1.9880978 58
2.5551128 0.21905339 1.124438 51
2.5336556 0.2167684 0.83691603 58
2.4814398 0.21230109 0.56431055 53
nan nan nan 0
2.1393886 0.18115912 1.9927584 75
2.6165402 0.2211023 1.9955517 33
3.2323315 0.27313393 1.9910573 68
4.0849018 0.34445789 1.9825172 57
2.5417054 0.21388265 0.97639173 60
2.5091209 0.21069969 0.69801348 58
6.0056362 0.50325519 0.93170631 64
nan nan nan 0
0.031279981 0.0021042954 1.9991974 82
0.32763705 0.025630286 2.0897303 102
0.41050196 0.033064369 2.0034087 91
0.60715997 0.049300876 1.9934158 86
0.82277858 0.066940077 2.0043178 95
1.0462261 0.085293196 1.9901714 85
1.3076576 0.10660049 1.9995594 84
1.6027504 0.13065162 2.0012317 74
0.12504593 0.0086045247 2.0010643 51
0.22943518 0.014592444 2.0977485 89
0.50871199 0.040332962 2.0009167 93
0.71137649 0.056631953 1.9948403 91
0.92859012 0.074238859 1.9891212 95
1.1741643 0.093865328 1.9968767 95
1.4447621 0.11549199 1.9932711 87
1.7685801 0.14137259 2.0016804 81
1.9694664 0.16261977 2.0217705 25
2.3579926 0.19469646 1.9894875 66
2.9109604 0.23984157 1.999589 22
3.6219382 0.29841703 1.9880978 60
2.5558619 0.21013303 1.124438 47
2.5343966 0.20792295 0.83691603 58
2.4870613 0.20403959 0.56524318 55
nan nan nan 0
2.140008 0.17369017 1.9927584 77
2.6172962 0.21196751 1.9955517 34
3.2289684 0.26150134 1.9885249 69
4.0860791 0.33019686 1.9825172 59
2.5471437 0.20538871 0.97803444 60
2.5146856 0.20232974 0.69918579 58
5.9974837 0.48149598 0.93032676 80
nan nan nan 0
0.031287134 0.0019950951 1.9991974 82
0.32849935 0.024544179 2.0946693 103
0.41061488 0.031631246 2.0034087 83
0.60732836 0.047181193 1.9934158 86
0.82300729 0.064067632 2.0043178 96
1.0465176 0.081640668 1.9901714 87
1.3080217 0.10203526 1.9995594 84
1.6031967 0.12505618 2.0012317 76
0.12507521 0.0081679812 2.0010643 55
0.22948472 0.013791475 2.0977485 91
0.50884968 0.038556982 2.0009167 89
0.70984918 0.054017555 1.9901476 89
0.92884356 0.070997015 1.9891212 95
1.1744847 0.089766152 1.9968767 91
1.4451565 0.11044811 1.9932711 87
1.7690628 0.13519822 2.0016804 81
1.9700221 0.15574406 2.0217705 26
2.3586578 0.18646434 1.9894875 66
2.9159486 0.23000778 2.0023305 22
3.6229577 0.28577229 1.9880978 60
2.5750666 0.20266506 1.1319302 40
2.5351074 0.199075 0.83691603 58
2.4877586 0.19535689 0.56524318 55
nan nan nan 0
2.1406012 0.16621909 1.9927584 77
2.6180203 0.20283017 1.9955517 33
3.2298615 0.25022855 1.9885249 68
4.0872068 0.31593177 1.9825172 58
2.5478451 0.19649625 0.97803444 62
2.5153766 0.1935506 0.69918579 58
5.9991279 0.46055791 0.93032676 80
nan nan nan 0
0.031293906 0.0018858704 1.9991974 82
0.32858306 0.023397351 2.0946693 104
0.41072279 0.030197743 2.0034087 83
0.60748935 0.045060936 1.9934158 86
0.82322586 0.061194412 2.0043178 96
1.0467962 0.077987142 1.9901714 85
1.3083699 0.097468793 1.9995594 84
1.6036235 0.11945921 2.0012317 74
0.12510295 0.0077313376 2.0010643 55
0.22953144 0.012990341 2.0977485 91
0.50898117 0.036780529 2.0009167 89
0.71003336 0.051539391 1.9901476 89
0.92908567 0.067754313 1.9891212 95
1.1747909 0.085665882 1.9968767 93
1.4455332 0.10540289 1.9932711 84
1.7695239 0.12902221 2.0016804 81
1.9705536 0.14886644 2.0217705 26
2.3592944 0.17822994 1.9894875 67
2.9167337 0.21982782 2.0023305 19
3.6195154 0.27279112 1.9857798 60
nan nan nan 0
2.5405703 0.19058347 0.8383252 58
2.4884253 0.18667179 0.56524318 56
nan nan nan 0
2.1411681 0.15874597 1.9927584 75
2.6187122 0.19369031 1.9955517 33
3.2307153 0.2389527 1.9885249 66
4.088285 0.30166283 1.9825172 57
2.5532253 0.18794809 0.97967708 58
2.5208845 0.18512513 0.70035815 58
5.99576 0.43925241 0.9296369 80
nan nan nan 0
0.03129999 0.0017820857 1.9991974 82
0.32865885 0.022307605 2.0946693 104
0.41082069 0.02883557 2.0034087 89
0.6076355 0.04304618 1.9934158 78
0.82342428 0.058464158 2.0043178 96
1.047049 0.074515402 1.9901714 87
1.3086859 0.093129538 1.9995594 84
1.600813 0.1139132 1.9973947 76
0.12541571 0.0073547442 2.0060561 58
0.22957113 0.012269184 2.0977485 93
0.50783938 0.035094697 1.9960775 91
0.71019179 0.049308505 1.9901476 87
0.92930526 0.064672984 1.9891212 95
1.1724668 0.081588648 1.9926107 93
1.4458747 0.10060877 1.9932711 87
1.7699205 0.12346247 2.0016804 81
1.9710366 0.14233103 2.0217705 26
2.3598723 0.17040527 1.9894875 67
2.9174469 0.21015437 2.0023305 19
3.6204002 0.26078686 1.9857798 60
4.634007 0.33379886 1.9654298 38
2.5411565 0.18260108 0.8383252 58
2.4939303 0.17877007 0.56617582 55
nan nan nan 0
2.1416829 0.15164474 1.9927584 77
2.6193399 0.18500529 1.9955517 33
3.2314498 0.22880195 1.9885249 66
4.0892124 0.28881764 1.9825172 57
2.5538032 0.17992601 0.97967708 58
2.5214539 0.17720464 0.70035815 58
5.9971104 0.42041406 0.9296369 80
nan nan nan 0
0.031306017 0.0016728175 1.9991974 80
0.3279593 0.021110497 2.0897303 103
0.41091883 0.027401363 2.0034087 89
0.60778201 0.040924873 1.9934158 80
0.82167399 0.055457994 1.999715 95
1.0473027 0.070860073 1.9901714 87
1.3090031 0.08856082 1.9995594 84
1.6012009 0.10832463 1.9973947 74
0.12544183 0.0068950229 2.0060561 62
0.22961456 0.011427681 2.0977485 93
0.50796461 0.033233136 1.9960775 93
0.7103678 0.046705186 1.9901476 87
0.92952543 0.061428707 1.9891212 95
1.1727444 0.077495478 1.9926107 91
1.4462172 0.095561109 1.9932711 87
1.7703612 0.11697455 2.0016804 81
1.9715214 0.13544998 2.0217705 26
2.3604529 0.16216674 1.9894875 67
2.9139905 0.19968344 1.999589 21
3.6212883 0.24814773 1.9857798 50
4.6583247 0.31839272 1.974795 45
2.5418086 0.17328607 0.8383252 58
2.494539 0.17006354 0.56617582 55
nan nan nan 0
2.138473 0.14391719 1.9894335 77
2.6159368 0.17559026 1.9926084 33
3.2322669 0.21695656 1.9885249 68
4.0902433 0.27382797 1.9825172 57
2.5591574 0.17087926 0.98131979 60
2.5269361 0.16828482 0.70153046 58
5.9986115 0.39843071 0.9296369 80
nan nan nan 0
0.03131194 0.001558064 1.9991974 82
0.32803449 0.019908326 2.0897303 103
0.41101649 0.025895085 2.0034087 93
0.60792792 0.038696963 1.9934158 86
0.82187176 0.052446034 1.999715 95
1.0475553 0.067021042 1.9901714 85
1.3093188 0.083762474 1.9995594 84
1.6015872 0.10245521 1.9973947 76
0.12546626 0.0064352094 2.0060561 64
0.22912152 0.010562084 2.0927773 93
0.50808299 0.031371128 1.9960775 91
0.71053421 0.044101249 1.9901476 89
0.9297443 0.058021415 1.9891212 95
1.1730206 0.073196642 1.9926107 91
1.4465576 0.090259813 1.9932711 84
1.7707779 0.11048507 2.0016804 81
1.9720047 0.12822308 2.0217705 27
2.3610315 0.15351416 1.9894875 67
2.9147029 0.1890018 1.999589 21
3.6221738 0.23487338 1.9857798 50
4.6640868 0.30161619 1.9766681 44
2.5472143 0.16427746 0.83973444 58
2.5000477 0.1612356 0.56710839 55
nan nan nan 0
2.1389861 0.13607833 1.9894335 77
2.6165628 0.1660012 1.9926084 33
3.2330401 0.20510826 1.9885249 68
4.0912194 0.25883463 1.9825172 57
2.5597668 0.16149834 0.98131979 58
2.5275359 0.159022 0.70153046 58
6.000031 0.37644204 0.9296369 81
nan nan nan 0
0.031317189 0.0014487554 1.9991974 86
0.32810196 0.018763153 2.0897303 103
0.41110438 0.024460215 2.0034087 91
0.60805929 0.036574662 1.9934158 86
0.8220498 0.049576845 1.999715 95
1.0477829 0.063363977 1.9901714 85
1.3096033 0.079191595 1.9995594 84
1.601935 0.096863993 1.9973947 76
0.12519871 0.0059838737 2.0010643 66
0.229157 0.0097622368 2.0927773 93
0.50818944 0.029597394 1.9960775 91
0.71068382 0.041620754 1.9901476 89
0.92994118 0.054775644 1.9891212 95
1.1732689 0.069101579 1.9926107 91
1.4468639 0.085209832 1.9932711 84
1.771153 0.10430323 2.0016804 81
1.97244 0.12133871 2.0217705 27
2.3615527 0.14527169 1.9894875 67
2.915345 0.17882642 1.999589 21
3.6229715 0.2222282 1.9857798 61
4.6604834 0.28505063 1.974795 40
2.5477722 0.15538502 0.83973444 58
2.5005953 0.15250781 0.56710839 58
nan nan nan 0
2.1394479 0.12861104 1.9894335 77
2.6171265 0.15686667 1.9926084 33
3.2337365 0.19382159 1.9885249 68
4.0920982 0.24455205 1.9825172 57
2.5603147 0.1525621 0.98131979 58
2.5280757 0.1501983 0.70153046 58
5.9963646 0.35520288 0.92894709 81
nan nan nan 0
0.031322055 0.0013394293 1.9991974 82
0.32816547 0.017617747 2.0897303 103
0.41118726 0.023025041 2.0034087 91
0.60818326 0.034451921 1.9934158 86
0.82221794 0.046707056 1.999715 95
1.0479977 0.059706151 1.9901714 85
1.3098717 0.074619748 1.9995594 84
1.6022635 0.091271609 1.9973947 76
0.12521884 0.0055468124 2.0010643 66
0.22918969 0.0089622699 2.0927773 97
0.50828964 0.027823305 1.9960775 93
0.71082473 0.039139751 1.9901476 91
0.93012667 0.051529214 1.9891212 96
1.1735029 0.06500569 1.9926107 93
1.4471525 0.080158815 1.9932711 84
1.7715062 0.098120116 2.0016804 81
1.9692912 0.11424632 2.018266 28
2.3620455 0.13702744 1.9894875 67
2.9159513 0.16864888 1.999589 21
3.6237249 0.20958032 1.9857798 60
4.6614504 0.26878077 1.974795 40
2.5482991 0.14649071 0.83973444 58
2.5011125 0.14377819 0.56710839 58
nan nan nan 0
2.139884 0.12114219 1.9894335 77
2.6176581 0.14773025 1.9926084 33
3.2343934 0.18253255 1.9885249 68
4.092927 0.23026648 1.9825172 57
2.5608318 0.14362401 0.98131979 58
2.5285845 0.14137274 0.70153046 58
5.9975681 0.33426946 0.92894709 82
nan nan nan 0
0.031326324 0.0012355542 1.9991974 82
0.32822207 0.016529415 2.0897303 103
0.41126135 0.021661369 2.0034087 91
0.60829413 0.032434918 1.9934158 84
0.82236826 0.043980226 1.999715 95
1.04819 0.056230534 1.9901714 87
1.3101119 0.070275642 1.9995594 84
1.6025572 0.085957818 1.9973947 74
0.1249463 0.0051419805 1.9960728 66
0.22921671 0.0082422066 2.0927773 97
0.50837457 0.026226329 1.9960775 93
0.71266747 0.036995851 1.9948403 89
0.93029249 0.048444517 1.9891212 96
1.173712 0.06111386 1.9926107 93
1.4474105 0.075359449 1.9932711 84
1.7718058 0.092554286 2.0016804 81
1.9696592 0.1077153 2.018266 28
2.3624871 0.12919386 1.9894875 66
2.9164946 0.15897831 1.999589 20
3.6199765 0.19732134 1.9834617 60
4.6576428 0.25388277 1.972922 44
2.5487471 0.13848427 0.83973444 57
2.5064807 0.13574907 0.56804103 55
nan nan nan 0
2.140274 0.11404541 1.9894335 77
2.6140971 0.13883463 1.9896654 33
3.234951 0.17237052 1.9885249 69
4.0936298 0.21740706 1.9825172 58
2.5612702 0.13557822 0.98131979 56
2.5290163 0.13342828 0.70153046 60
5.9936438 0.31516594 0.92825729 79
nan nan nan 0
0.031330444 0.0011261974 1.9991974 86
0.3282778 0.015383606 2.0897303 104
0.41133448 0.020225668 2.0034087 91
0.60840368 0.03031138 1.9934158 84
0.82251674 0.041109357 1.999715 95
1.0483799 0.052571326 1.9901714 87
1.3103492 0.065702066 1.9995594 76
1.6060494 0.080523841 2.0012317 73
0.1249643 0.0046839947 1.9960728 66
0.22924536 0.0074020303 2.0927773 97
0.50846726 0.024362868 1.9960775 93
0.7127983 0.034383543 1.9948403 87
0.93045586 0.045196895 1.9891212 95
1.1739182 0.057016466 1.9926107 93
1.4476647 0.070306584 1.9932711 84
1.772133 0.086059675 2.0016804 81
1.9700233 0.10083925 2.018266 27
2.3629236 0.12094646 1.9894875 66
2.9170318 0.14879687 1.999589 20
3.6206429 0.18468405 1.9834617 60
4.6585422 0.23680995 1.972922 45
2.549237 0.12914172 0.83973444 57
2.502033 0.12675045 0.56710839 53
nan nan nan 0
2.1406591 0.10657377 1.9894335 77
2.6145658 0.12970887 1.9896654 33
3.2355609 0.16051267 1.9885249 66
4.0898666 0.2021776 1.9804192 58
2.5664666 0.12642212 0.98296243 56
2.5294881 0.12415808 0.70153046 60
5.9947586 0.29319602 0.92825729 79
nan nan nan 0
0.031334184 0.0010168268 1.9991974 82
0.32832947 0.014237608 2.0897303 104
0.41140258 0.018789718 2.0034087 91
0.60850579 0.028187471 1.9934158 84
0.82265526 0.038237989 1.999715 95
1.048557 0.048911478 1.9901714 87
1.3105706 0.061127696 1.9995594 76
1.6063207 0.07491719 2.0012317 73
0.1249799 0.0042477595 1.9960728 66
0.22980352 0.0066164909 2.0977485 98
0.50854921 0.022587838 1.9960775 93
0.71291399 0.031895202 1.9948403 87
0.93060803 0.041948725 1.9891212 95
1.1741102 0.052918378 1.9926107 93
1.4479012 0.065252863 1.9932711 84
1.7690359 0.079720646 1.9980052 81
1.9703633 0.093961969 2.018266 27
2.3633313 0.11269758 1.9894875 67
2.9175332 0.13861363 1.999589 20
3.6212656 0.17204453 1.9834617 60
4.6593399 0.22054715 1.972922 44
2.5496724 0.12024243 0.83973444 57
2.5171809 0.11871017 0.56990629 40
nan nan nan 0
2.1410179 0.099100821 1.9894335 77
2.6150031 0.12058153 1.9896654 33
3.2361016 0.14921749 1.9885249 66
4.0905471 0.18790008 1.9804192 58
2.5668921 0.1174627 0.98296243 58
2.5347621 0.11554911 0.70270276 58
5.9957452 0.27226862 0.92825729 79
nan nan nan 0
0.031337544 0.00090744393 1.9991974 82
0.32837719 0.013091438 2.0897303 104
0.41146564 0.017353542 2.0034087 91
0.6086005 0.026063219 1.9934158 84
0.82473564 0.035450008 2.0043178 96
1.0487214 0.045251034 1.9901714 87
1.3079647 0.056431301 1.9954264 84
1.6065725 0.069309629 2.0012317 69
0.12499397 0.0038114721 1.9960728 67
0.22982523 0.0058142864 2.0977485 98
0.50862491 0.020812532 1.9960775 93
0.71302098 0.029406475 1.9948403 89
0.93074876 0.038700037 1.9891212 95
1.1742877 0.048819646 1.9926107 93
1.4481202 0.060198341 1.9932711 84
1.7693034 0.073545061 1.9980052 81
1.9706792 0.087083548 2.018266 28
2.3637104 0.10444733 1.9894875 67
2.9179993 0.1284287 1.999589 19
3.6218441 0.15940291 1.9834617 60
4.6600819 0.20428169 1.972922 44
2.5548694 0.11155094 0.84114355 57
nan nan nan 0
nan nan nan 0
2.141351 0.091626674 1.9894335 77
2.619446 0.11162481 1.9926084 33
3.2366028 0.13792048 1.9885249 66
4.0911779 0.17362025 1.9804192 58
2.5720048 0.10870126 0.98460513 58
2.5351501 0.10670044 0.70270276 56
5.9966593 0.25133792 0.92825729 79
nan nan nan 0
0.031340521 0.00079805002 1.9991974 82
0.32842091 0.011945108 2.0897303 105
0.4115237 0.015917154 2.0034087 91
0.6086877 0.023938647 1.9934158 82
0.82485431 0.032570928 2.0043178 96
1.0488729 0.041590039 1.9901714 87
1.3081536 0.051865313 1.9954264 84
1.6068046 0.063701227 2.0012317 73
0.12500651 0.0033751384 1.9960728 67
0.22984412 0.0050120112 2.0977485 100
0.50869447 0.019036973 1.9960775 93
0.71311927 0.026917389 1.9948403 89
0.93087816 0.035450883 1.9891212 96
1.174451 0.044720322 1.9926107 93
1.4483215 0.055143092 1.9932711 82
1.7695493 0.067368597 1.9980052 81
1.9709711 0.080204062 2.018266 28
2.3640604 0.096195802 1.9894875 67
2.9184301 0.11824219 1.999589 19
3.6223786 0.14675933 1.9834617 61
4.6607666 0.18801372 1.972922 42
2.5552433 0.1026321 0.84114355 57
6.0077462 0.24129941 1.2329992 63
nan nan nan 0
2.1416578 0.08415141 1.9894335 77
2.6198196 0.10248056 1.9926084 33
3.2370641 0.12662178 1.9885249 68
4.0917592 0.15933834 1.9804192 58
2.5723684 0.099722624 0.98460513 56
2.5403638 0.098037899 0.70387506 58
5.9974999 0.23040411 0.92825729 80
nan nan nan 0
0.031343114 0.00068864634 1.9991974 82
0.32846057 0.010798631 2.0897303 105
0.41157675 0.014480571 2.0034087 91
0.60876757 0.021813786 1.9934158 82
0.82496303 0.02969145 2.0043178 96
1.0490118 0.037928537 1.9901714 87
1.3083266 0.047298688 1.9954264 84
1.6070172 0.058092043 2.0012317 76
0.12501752 0.0029387639 1.9960728 67
0.22986022 0.0042096749 2.0977485 102
0.50875783 0.017261183 1.9960775 93
0.71320891 0.024427973 1.9948403 89
0.93099624 0.032201301 1.9891212 96
1.1745999 0.04062045 1.9926107 93
1.4485052 0.050087173 1.9932711 84
1.7697737 0.061191313 1.9980052 80
1.9712391 0.0733236 2.018266 27
2.3604918 0.087798417 1.9863497 67
2.9188249 0.10805424 1.999589 19
3.6228688 0.13411398 1.9834617 61
4.6613946 0.17174345 1.972922 42
2.5603797 0.093887798 0.84255278 57
6.0036426 0.22014698 1.2320666 69
nan nan nan 0
2.1419384 0.07667511 1.9894335 77
2.6201615 0.09333507 1.9926084 33
3.2374868 0.11532156 1.9885249 68
4.0922904 0.14505444 1.9804192 58
2.5727007 0.090742782 0.98460513 56
2.5406904 0.08916977 0.70387506 58
5.9982677 0.20946755 0.92825729 79
nan nan nan 0
0.031345326 0.00057923421 1.9991974 82
0.32849628 0.0096520251 2.0897303 105
0.41162482 0.013043812 2.0034087 89
0.60884005 0.019688657 1.9934158 88
0.82310891 0.026748197 1.999715 96
1.0515324 0.034344748 1.9945602 89
1.3084838 0.042731486 1.9954264 84
1.6072102 0.052482147 2.0012317 74
0.12502703 0.0025023534 1.9960728 67
0.22987351 0.0034072872 2.0977485 102
0.50881499 0.015485181 1.9960775 93
0.7132898 0.021938261 1.9948403 89
0.93110293 0.028951319 1.9891212 96
1.1747345 0.036520086 1.9926107 93
1.4486712 0.045030642 1.9932711 84
1.7699765 0.055013273 1.9980052 83
1.9714831 0.066442244 2.018266 27
2.3607838 0.079558223 1.9863497 67
2.9191844 0.097864985 1.999589 18
3.6233149 0.12146699 1.9834617 60
4.6619654 0.1554711 1.972922 43
2.5606921 0.084949836 0.84255278 57
6.0043745 0.19918904 1.2320666 70
nan nan nan 0
2.1421928 0.069197878 1.9894335 77
2.6204715 0.084188424 1.9926084 33
3.2378695 0.10401992 1.9885249 68
4.092772 0.13076881 1.9804192 58
2.5777221 0.08191181 0.98624778 56
2.5409863 0.08030057 0.70387506 58
5.9989624 0.1885284 0.92825729 79
nan nan nan 0
0.031347159 0.0004698151 1.9991974 82
0.32852796 0.0085053006 2.0897303 105
0.41166782 0.011606894 2.0034087 91
0.60890502 0.017563287 1.9934158 88
0.82319731 0.023874851 1.999715 96
1.0516459 0.030674009 1.9945602 87
1.308625 0.038163766 1.9954264 84
1.6073836 0.046871617 2.0012317 74
0.12474547 0.0020616169 1.9910811 69
0.229884 0.0026048585 2.0977485 103
0.50886595 0.013708991 1.9960775 93
0.71336204 0.019448282 1.9948403 89
0.93119836 0.025700986 1.9891212 96
1.1748548 0.032419275 1.9926107 93
1.4488195 0.039973564 1.9932711 84
1.7701577 0.04883457 1.9980052 81
1.9717031 0.059560079 2.018266 27
2.361047 0.071317069 1.9863497 67
2.9236879 0.087800056 2.0023305 18
3.6237168 0.10881852 1.9834617 60
4.6624794 0.13919687 1.972922 44
2.5609732 0.076010831 0.84255278 57
6.0050335 0.17822865 1.2320666 69
nan nan nan 0
2.1424215 0.061719812 1.9894335 77
2.616709 0.07492508 1.9896654 33
3.2382128 0.092717007 1.9885249 68
4.0932031 0.11648157 1.9804192 58
2.5779922 0.072913378 0.98624778 56
2.5412509 0.071430378 0.70387506 58
5.9995842 0.16758697 0.92825729 80
nan nan nan 0
0.031348608 0.0003603879 1.9991974 82
0.32855567 0.0073584719 2.0897303 105
0.41170582 0.010169834 2.0034087 91
0.60896266 0.015437705 1.9934158 86
0.82327557 0.021001209 1.999715 96
1.0517465 0.027002893 1.9945602 87
1.3087502 0.033595584 1.9954264 87
1.6075374 0.041260522 2.0012317 73
0.1247519 0.0016261614 1.9910811 69
0.22989169 0.0018023977 2.0977485 104
0.51016819 0.011962048 2.0009167 95
0.71342558 0.016958065 1.9948403 89
0.9312824 0.022450343 1.9891212 95
1.1749609 0.028318068 1.9926107 89
1.4489503 0.034915995 1.9932711 87
1.7737067 0.042736918 2.0016804 81
1.9718989 0.052677188 2.018266 27
2.3612816 0.063075036 1.9863497 66
2.9239764 0.077593945 2.0023305 18
3.6240745 0.096168727 1.9834617 60
4.6629372 0.12292092 1.972922 44
2.5612228 0.067070909 0.84255278 57
6.0056186 0.15726608 1.2320666 68
0.21883796 0.0056948555 0.1125646 15
2.1426239 0.05424099 1.9894335 77
2.6169546 0.065790601 1.9896654 33
3.2385168 0.081412964 1.9885249 68
4.093585 0.10219292 1.9804192 58
2.5829523 0.064031087 0.98789054 55
2.5463443 0.062678926 0.70504743 58
6.0001326 0.14664349 0.92825729 80
nan nan nan 0
0.031349719 0.00024548711 1.9991974 82
0.32858044 0.0061542061 2.0897303 105
0.41174033 0.0086607886 2.0034087 91
0.60901511 0.013205643 1.9934158 86
0.82334703 0.017983612 1.999715 96
1.0518384 0.02314787 1.9945602 87
1.3088645 0.028798547 1.9954264 84
1.6076778 0.035368323 2.0012317 73
0.12475702 0.0011689119 1.9910811 69
0.22989674 0.00095979043 2.0977485 106
0.51020861 0.010092107 2.0009167 95
0.71175766 0.014308481 1.9901476 91
0.9313584 0.01903687 1.9891212 96
1.1750567 0.024011429 1.9926107 91
1.4490685 0.029605091 1.9932711 87
1.7738514 0.036235668 2.0016804 81
1.9720788 0.045449462 2.018266 28
2.3614969 0.054420087 1.9863497 67
2.9242413 0.066876516 2.0023305 18
3.6244028 0.082885191 1.9834617 60
4.6633563 0.10582959 1.972922 44
2.5662472 0.057791106 0.84396195 57
6.006155 0.13525333 1.2320666 65
0.21885735 0.0048927357 0.1125646 17
2.1428082 0.04638752 1.9894335 77
2.617178 0.056198545 1.9896654 33
3.2387934 0.069542669 1.9885249 68
4.0939322 0.08718849 1.9804192 58
2.5831695 0.054563668 0.98789054 55
2.5465567 0.053345691 0.70504743 56
6.0006294 0.12465092 0.92825729 80
0.21951678 0.0045241644 0.10253277 14
0.031350385 0.00013605464 1.9991974 82
0.32859987 0.0050072083 2.0897303 106
0.41176808 0.0072234944 2.0034087 91
0.60905749 0.011079703 1.9934158 86
0.82340485 0.015109486 1.999715 96
1.0519128 0.019476129 1.9945602 87
1.3089571 0.024229582 1.9954264 84
1.6077915 0.029756265 2.0012317 73
0.1250499 0.00073463446 1.9960728 69
0.22989871 0.00015726493 2.0977485 106
0.51024073 0.0083110854 2.0009167 95
0.71180326 0.011823896 1.9901476 89
0.93141919 0.015785707 1.9891212 96
1.1751335 0.01990957 1.9926107 93
1.4491631 0.024546718 1.9932711 87
1.773967 0.030043552 2.0016804 81
1.9722254 0.038565349 2.018266 28
2.3616726 0.046176594 1.9863497 67
2.9244571 0.056668598 2.0023305 16
3.6246698 0.070233159 1.9834617 60
4.6636972 0.089550793 1.972922 45
2.5664334 0.048832878 0.84396195 57
6.0065904 0.11428711 1.2320666 65
0.21887311 0.0041287513 0.1125646 12
2.1429572 0.038907439 1.9894335 77
2.6173584 0.047062542 1.9896654 33
3.2390163 0.058236741 1.9885249 68
4.0942116 0.072897471 1.9804192 58
2.5927875 0.045712881 0.99117589 56
2.5515871 0.04454105 0.70621967 56
6.0010281 0.10370405 0.92825729 80
nan nan nan 0
0.031350669 2.6620546e-05 1.9991974 82
0.32861537 0.0038601507 2.0897303 106
0.41179076 0.0057861106 2.0034087 89
0.60909247 0.0089536281 1.9934158 82
0.82345259 0.012235175 1.999715 96
1.0495788 0.015768185 1.9901714 87
1.3090338 0.019660318 1.9954264 87
1.6078855 0.024143843 2.0012317 73
0.12505171 0.00029812433 1.9960728 71
0.2304318 -0.00064737559 2.10272 106
0.5102666 0.0065299626 2.0009167 95
0.71184021 0.0093391677 1.9901476 89
0.93146861 0.012534351 1.9891212 96
1.1751958 0.015807468 1.9926107 93
1.4522536 0.019528549 1.9972607 87
1.7740611 0.023851067 2.0016804 83
1.9759139 0.031738024 2.0217705 28
2.3618195 0.037932537 1.9863497 67
2.9246368 0.046459991 2.0023305 16
3.624893 0.05758027 1.9834617 60
4.6639814 0.073270902 1.972922 45
2.5713849 0.039948575 0.84537119 57
6.0069528 0.093319505 1.2320666 69
nan nan nan 0
2.14308 0.031426888 1.9894335 77
2.6175067 0.037925974 1.9896654 33
3.2391999 0.046930112 1.9885249 68
4.0899034 0.058540609 1.9783211 58
2.5834875 0.036528561 0.98789054 39
2.5517273 0.035634078 0.70621967 56
6.0013533 0.082755923 0.92825729 82
0.21954302 0.0029915504 0.10253277 7
0.031350583 -7.7342149e-05 1.9991974 84
0.32862636 0.0027704015 2.0897303 106
0.41180769 0.0044205314 2.0034087 89
0.60911882 0.0069337552 1.9934158 82
0.82348859 0.0095044402 1.999715 96
1.0496252 0.012287571 1.9901714 87
1.3090918 0.0153193 1.9954264 87
1.6047511 0.01877428 1.9973947 74
0.12505202 -9.4753501e-05 1.9960728 71
0.23042861 -0.0013712939 2.10272 109
0.5102846 0.0049268836 2.0009167 95
0.71186602 0.0071028136 1.9901476 89
0.93150508 0.0094454195 1.9891212 96
1.1752417 0.011910291 1.9926107 91
1.4523103 0.014712595 1.9972607 87
1.7741272 0.018277582 2.0016804 83
1.9760082 0.025185483 2.0217705 28
2.3619323 0.030100251 1.9863497 67
2.9247749 0.036761291 2.0023305 17
3.6250639 0.045559373 1.9834617 53
4.6641889 0.058618233 1.972922 44
2.5714979 0.031870145 0.84537119 58
6.0072293 0.073399216 1.2320666 69
nan nan nan 0
2.1431723 0.024320005 1.9894335 77
2.6135762 0.029200647 1.9867221 33
3.2393312 0.036753651 1.9885249 69
4.0900669 0.045691527 1.9783211 58
nan nan nan 0
2.5566869 0.027670024 0.70739204 58
6.0015836 0.063901737 0.92825729 82
0.22954264 0.002406456 0.10293583 11
0.031350121 -0.00018677565 1.9991974 82
0.32863402 0.0016232646 2.0897303 108
0.41182059 0.0029830278 2.0034087 87
0.60913932 0.0048074913 1.9934158 86
0.82351673 0.0066298707 1.999715 95
1.0496618 0.0086236205 1.9901714 87
1.3091372 0.010749623 1.9954264 84
1.6048069 0.01317254 1.9973947 74
0.12505084 -0.00055309146 1.9960728 71
0.23042205 -0.0022158481 2.10272 110
0.51029927 0.0030565639 2.0009167 95
0.71361291 0.0045044888 1.9948403 89
0.93153238 0.0061938036 1.9891212 95
1.1752762 0.0078078602 1.9926107 93
1.4523529 0.0096429978 1.9972607 87
1.7741823 0.011774958 2.0016804 83
1.9760841 0.018287774 2.0217705 27
2.3581302 0.021819379 1.983212 67
2.9248853 0.026551697 2.0023305 17
3.6207707 0.032865051 1.9811436 52
4.664372 0.041522738 1.972922 42
2.5763946 0.022486787 0.84678036 58
6.0074487 0.052429628 1.2320666 69
nan nan nan 0
2.1432443 0.016838789 1.9894335 77
2.613662 0.020077389 1.9867221 33
3.2351327 0.024847552 1.9859924 68
4.0902071 0.030700378 1.9783211 59
5.4170728 0.039713264 1.9735013 38
2.556771 0.018299112 0.70739204 56
6.0017776 0.041904408 0.92825729 80
0.23454575 0.0015991309 0.10313736 14
0.031349279 -0.00029620685 1.9991974 82
0.32863769 0.00047610796 2.0897303 107
0.41182852 0.0015454873 2.0034087 85
0.60915238 0.0026811692 1.9934158 86
0.82353485 0.0037552202 1.999715 95
1.0496855 0.0049595642 1.9901714 87
1.3091668 0.0061798161 1.9954264 87
1.6048431 0.0075706388 1.9973947 74
0.12504815 -0.00098959694 1.9960728 73
0.2304129 -0.0030201573 2.10272 110
0.51030678 0.0012752684 2.0009167 95
0.7136243 0.0020134873 1.9948403 89
0.9315483 0.0029421109 1.9891212 95
1.1752962 0.0037053335 1.9926107 95
1.4523776 0.0045732814 1.9972607 87
1.7742126 0.0055818334 2.0016804 83
1.976136 0.011389842 2.0217705 27
2.3581922 0.013587834 1.983212 67
2.9249601 0.016341781 2.0023305 17
3.6208634 0.020226005 1.9811436 54
4.6644888 0.025240783 1.972922 40
2.5764573 0.013493354 0.84678036 56
6.0075955 0.031459395 1.2320666 69
nan nan nan 0
2.1432898 0.0093573686 1.9894335 77
2.6137161 0.010953883 1.9867221 33
3.2352002 0.013554678 1.9859924 68
4.0902891 0.016422706 1.9783211 58
5.412456 0.020785773 1.9718586 39
2.5665407 0.0094098365 0.70973665 45
6.0018878 0.020954039 0.92825729 80
0.23954582 0.00079697144 0.10333889 20
0.031348057 -0.00040563443 1.9991974 82
0.32863736 -0.00067109859 2.0897303 107
0.41183141 0.00010792812 2.0034087 81
0.60915804 0.00055481418 1.9934158 86
0.82354301 0.00088052423 1.999715 96
1.0496963 0.0012954484 1.9901714 89
1.3091804 0.0016099336 1.9954264 87
1.6080656 0.0019725619 2.0012317 74
0.12504393 -0.0014260904 1.9960728 73
0.23040096 -0.0038244298 2.10272 113
0.51030815 -0.00050611194 2.0009167 95
0.71362692 -0.00047763664 1.9948403 93
0.93155289 -0.00030974601 1.9891212 96
1.1753019 -0.0003974014 1.9926107 91
1.4523847 -0.00049669237 1.9972607 87
1.7742213 -0.00061160541 2.0016804 83
1.9761637 0.0044917711 2.0217705 27
2.3582253 0.0053561251 1.983212 66
2.9208179 0.0061229076 1.999589 17
3.6164823 0.0075774323 1.9788257 54
4.6645484 0.0089585269 1.972922 40
2.581286 0.0045081321 0.84818959 56
6.0076685 0.010488785 1.2320666 69
0.21891177 0.00034646768 0.1125646 10
2.1433096 0.0018758336 1.9894335 79
2.6137385 0.0018302428 1.9867221 33
3.2352276 0.0022616405 1.9859924 68
4.0948601 0.0021472098 1.9804192 58
5.4124956 0.0018926485 1.9718586 39
2.5568366 0.00044918212 0.70739204 9
6.001924 2.5729387e-06 0.92825729 80
0.24454309 -4.010995e-05 0.10354042 26
0.031346448 -0.00051505922 1.9991974 82
0.32863301 -0.0018182549 2.0897303 107
0.41182929 -0.0013296902 2.0034087 81
0.60915625 -0.0015716332 1.9934158 86
0.82354105 -0.0019942983 1.999715 96
1.0496945 -0.0023688308 1.9901714 89
1.311992 -0.0029665369 1.9995594 84
1.6080627 -0.003640872 2.0012317 74
0.12503819 -0.0018625687 1.9960728 75
0.23038621 -0.0046286583 2.10272 115
0.51030326 -0.0022874188 2.0009167 95
0.7136209 -0.0029686587 1.9948403 91
0.93154609 -0.0035614728 1.9891212 96
1.1752934 -0.0044999705 1.9926107 93
1.4523742 -0.0055664605 1.9972607 87
1.7742084 -0.0068047922 2.0016804 83
1.9761672 -0.0024066323 2.0217705 27
2.3582294 -0.0028759805 1.983212 67
2.9208214 -0.0040730969 1.999589 18
3.6164868 -0.005047 1.9788257 54
4.6645513 -0.0073244949 1.972922 42
2.581286 -0.0045026275 0.84818959 56
6.0076685 -0.010482799 1.2320666 69
0.21891165 -0.00041770982 0.1125646 14
2.1433032 -0.0056060255 1.9894335 77
2.6177714 -0.0073050736 1.9896654 33
3.2352159 -0.0090318788 1.9859924 68
4.0948424 -0.012147107 1.9804192 57
5.4077473 -0.016986424 1.970216 40
5.9252172 -0.019646265 1.5198081 65
6.0068398 -0.020965338 0.92894709 80
0.24454145 -0.00089372433 0.10354042 51
0.031344458 -0.00062447554 1.9991974 82
0.32862464 -0.002965387 2.0897303 108
0.41182211 -0.0027672343 2.0034087 85
0.60914707 -0.0036979755 1.9934158 86
0.82352906 -0.0048689805 1.999715 95
1.0496799 -0.0060329339 1.9901714 87
1.3119738 -0.0075462256 1.9995594 80
1.6080403 -0.0092540355 2.0012317 73
0.12503093 -0.0022990217 1.9960728 78
0.23036864 -0.0054328279 2.10272 116
0.5090344 -0.0040585971 1.9960775 93
0.71360624 -0.0054596425 1.9948403 89
0.93152809 -0.0068131536 1.9891212 95
1.1752706 -0.0086024823 1.9926107 93
1.4523458 -0.010636158 1.9972607 87
1.7707837 -0.012973042 1.9980052 83
1.9761469 -0.0093047293 2.0217705 27
2.3582053 -0.01110772 1.983212 67
2.9207895 -0.014268641 1.999589 17
3.616447 -0.017670864 1.9788257 54
4.6644974 -0.023606772 1.972922 42
2.5860517 -0.013538088 0.84959877 56
6.0125079 -0.031479131 1.2329992 69
0.22388881 -0.001208796 0.11301081 13
2.1432703 -0.013087514 1.9894335 77
2.6177299 -0.016442755 1.9896654 33
3.2351646 -0.020324836 1.9859924 69
4.0947747 -0.026440702 1.9804192 58
5.4123769 -0.0358942 1.9718586 40
5.9105306 -0.040229756 1.5162911 79
6.0067296 -0.041932993 0.92894709 81
0.23954101 -0.0017115779 0.10333889 48
0.031342089 -0.00073388428 1.9991974 80
0.3286123 -0.004112483 2.0897303 109
0.41180998 -0.0042047449 2.0034087 87
0.60913044 -0.005824273 1.9934158 86
0.82350701 -0.0077436035 1.999715 95
1.0496523 -0.0096969632 1.9901714 85
1.3119394 -0.012125822 1.9995594 80
1.607998 -0.014867088 2.0012317 74
0.12531163 -0.0027422693 2.0010643 78
0.23034827 -0.0062369313 2.10272 117
0.50901711 -0.005835434 1.9960775 93
0.71185732 -0.0079312846 1.9901476 87
0.93149865 -0.010064753 1.9891212 95
1.1752334 -0.01270489 1.9926107 93
1.4523 -0.015705727 1.9972607 84
1.7707278 -0.019154152 1.9980052 81
1.9761025 -0.016202711 2.0217705 27
2.3581522 -0.019339323 1.983212 67
2.9207218 -0.024464013 1.999589 17
3.6163633 -0.030294511 1.9788257 54
4.6643863 -0.039888762 1.972922 42
2.5859888 -0.022565011 0.84959877 56
6.012361 -0.052466508 1.2329992 68
0.21890339 -0.0019459787 0.1125646 12
2.1432116 -0.020568844 1.9894335 77
2.6176565 -0.025580239 1.9896654 33
3.2350738 -0.031617545 1.9859924 69
4.0901198 -0.040688824 1.9783211 58
5.412219 -0.054786704 1.9718586 41
5.9103546 -0.060861114 1.5162911 79
6.0065465 -0.062900133 0.92894709 80
0.23953359 -0.0025477216 0.10333889 40
0.031339336 -0.00084328419 1.9991974 80
0.32859597 -0.0052595292 2.0897303 109
0.41179276 -0.0056422045 2.0034087 91
0.60910642 -0.0079504997 1.9934158 86
0.823475 -0.010618133 1.999715 95
1.049612 -0.013360876 1.9901714 85
1.3118891 -0.016705271 1.9995594 87
1.6079364 -0.020479957 2.0012317 71
0.12530129 -0.0031796719 2.0010643 82
0.23032509 -0.0070409589 2.10272 118
0.50899363 -0.0076122 1.9960775 95
0.71182531 -0.010416082 1.9901476 87
0.93145782 -0.013316227 1.9891212 95
1.1751819 -0.016807143 1.9926107 93
1.4522363 -0.020775104 1.9972607 87
1.77065 -0.025335027 1.9980052 81
1.9760337 -0.023100499 2.0217705 26
2.3580701 -0.027570695 1.983212 67
2.9206185 -0.034659084 1.999589 17
3.6162355 -0.042917788 1.9788257 54
4.6642189 -0.056170266 1.972922 42
2.5858943 -0.031591658 0.84959877 55
6.0121412 -0.07345324 1.2329992 70
0.21889527 -0.0027100823 0.1125646 8
2.1431267 -0.028049923 1.9894335 77
2.6175511 -0.034717407 1.9896654 33
3.2349439 -0.042909864 1.9859924 69
4.0899525 -0.054965757 1.9783211 58
5.4119945 -0.073678538 1.9718586 39
5.9149656 -0.081558742 1.5174633 80
6.0062904 -0.083866522 0.92894709 80
0.2345278 -0.0033132085 0.10313736 34
0.031292614 -0.00095074013 1.9941976 80
0.32857558 -0.0064065112 2.0897303 109
0.41177055 -0.0070795952 2.0034087 91
0.60907495 -0.01007663 1.9934158 86
0.82343292 -0.013492532 1.999715 95
1.0495591 -0.017024625 1.9901714 87
1.3090091 -0.021238843 1.9954264 87
1.6046497 -0.026040545 1.9973947 71
0.12528943 -0.0036170357 2.0010643 82
0.23029912 -0.0078449007 2.10272 118
0.508964 -0.0093888734 1.9960775 93
0.7117846 -0.012900752 1.9901476 89
0.93140566 -0.016567539 1.9891212 95
1.1751161 -0.020909188 1.9926107 93
1.4491414 -0.025790572 1.9932711 87
1.7705508 -0.031515595 1.9980052 83
1.9759411 -0.029998001 2.0217705 26
2.3579595 -0.035801724 1.983212 67
2.9162991 -0.044789519 1.9968475 17
3.6160636 -0.055540543 1.9788257 53
4.6593585 -0.072379075 1.9710488 41
2.590565 -0.040693276 0.85100794 55
6.011848 -0.094439089 1.2329992 70
nan nan nan 0
2.1430159 -0.035530664 1.9894335 77
2.617414 -0.043854155 1.9896654 34
3.2347744 -0.054201663 1.9859924 68
4.089736 -0.069242023 1.9783211 57
5.4117045 -0.092569478 1.9718586 40
5.9146452 -0.10220533 1.5174633 80
6.0059609 -0.10483187 0.92894709 80
0.22951965 -0.0040437803 0.10293583 27
0.031289101 -0.0010599658 1.9941976 78
0.3285512 -0.0075534144 2.0897303 110
