# .PCD v0.7 - Point Cloud Data file format
VERSION 0.7
FIELDS x y z intensity
SIZE 4 4 4 4
TYPE F F F F
COUNT 1 1 1 1
WIDTH 1369
HEIGHT 1
VIEWPOINT 0 0 0 1 0 0 0
POINTS 1369
DATA ascii
2.1238849 -0.28791028 1.9894335 79
2.5779731 -0.34992504 1.9778926 44
3.1972859 -0.43399224 1.9809276 68
4.0395656 -0.54904008 1.9720269 40
5.3303037 -0.72541988 1.9603598 45
5.9287815 -0.80792308 1.5338758 80
5.9173789 -0.80742121 0.9241184 88
nan nan nan 0
0.030945983 -0.0047410605 1.9941976 62
0.32536992 -0.046231687 2.0897303 117
0.40786839 -0.056995478 2.0034087 87
0.60187167 -0.083707392 1.9886441 82
0.81377524 -0.11304726 1.9951125 96
1.0397367 -0.1442624 1.9901714 87
1.2939705 -0.17954285 1.9912933 87
1.589631 -0.22057173 1.9973947 73
0.12363838 -0.01875023 1.9960728 80
0.22711781 -0.035650205 2.0977485 186
0.50406331 -0.07108207 1.9960775 91
0.70495892 -0.099180207 1.9901476 89
0.92035526 -0.12916812 1.9846202 96
1.1613119 -0.16299206 1.9883448 91
1.4323177 -0.20103382 1.9892817 84
1.7502847 -0.24566716 1.99433 81
1.9824286 -0.27296126 2.0463023 19
2.3361895 -0.32167464 1.983212 60
2.860316 -0.39435264 1.9776572 63
3.6001551 -0.49635836 1.9880978 30
4.5839958 -0.63281786 1.9579377 39
5.9262338 -0.81916779 1.8473091 77
5.9170318 -0.81789577 1.2255383 77
5.9292879 -0.82064456 0.62927562 3
2.1228669 -0.29532227 1.9894335 79
2.5767357 -0.35892171 1.9778926 58
3.1957514 -0.4451502 1.9809276 66
4.0376244 -0.56313747 1.9720269 37
5.3230615 -0.74336845 1.9587171 45
5.9307394 -0.82928663 1.5350481 80
5.9194283 -0.82875842 0.9248082 87
nan nan nan 0
0.030929245 -0.0048490539 1.9941976 62
0.32520658 -0.047367159 2.0897303 116
0.40766698 -0.058418859 2.0034087 89
0.60157585 -0.085807808 1.9886441 78
0.81337571 -0.11588717 1.9951125 96
1.0392269 -0.1478909 1.9901714 87
1.2933359 -0.18405856 1.9912933 87
1.5888515 -0.22611922 1.9973947 73
0.12357217 -0.019181695 1.9960728 78
0.22751907 -0.036528047 2.10272 187
0.50381213 -0.072841153 1.9960775 95
0.70631635 -0.10188679 1.9948403 87
0.92205435 -0.13269021 1.9891212 96
1.1607357 -0.16704479 1.9883448 95
1.4316071 -0.20603229 1.9892817 84
1.7527719 -0.25225821 1.9980052 81
1.9814637 -0.27987954 2.0463023 19
2.3350523 -0.32982752 1.983212 48
2.858922 -0.40433463 1.9776572 61
3.6027868 -0.50954258 1.9904157 30
4.581759 -0.6488151 1.9579377 40
5.932838 -0.84119624 1.8501276 77
5.919004 -0.83923471 1.2264708 77
5.9313183 -0.84203678 0.62972182 4
2.1218233 -0.30273065 1.9894335 79
2.5754671 -0.36791399 1.9778926 73
3.1941781 -0.45630273 1.9809276 66
4.0356345 -0.57722801 1.9720269 37
5.3204346 -0.76194489 1.9587171 45
5.93262 -0.85067362 1.5362206 81
5.9214015 -0.85011983 0.92549807 87
nan nan nan 0
0.030912129 -0.0049569868 1.9941976 56
0.32503924 -0.048502058 2.0897303 115
0.40746057 -0.059841529 2.0034087 89
0.60127264 -0.087907173 1.9886441 78
0.81489933 -0.11900801 1.999715 96
1.0387043 -0.15151756 1.9901714 89
1.2926855 -0.18857202 1.9912933 87
1.5880524 -0.23166399 1.9973947 74
0.12350445 -0.019612925 1.9960728 78
0.22739017 -0.037322018 2.10272 188
0.50355476 -0.074599348 1.9960775 95
0.70595634 -0.10435168 1.9948403 87
0.92158556 -0.13590798 1.9891212 95
1.1601455 -0.17109551 1.9883448 91
1.4308792 -0.21102831 1.9892817 84
1.7518805 -0.25837499 1.9980052 81
1.9804747 -0.28679445 2.0463023 19
2.3338866 -0.33797637 1.983212 36
2.8574934 -0.41431162 1.9776572 66
3.6097553 -0.52338701 1.9950519 25
4.5748782 -0.66413844 1.9560646 41
5.9346132 -0.86259055 1.8515368 77
5.9208999 -0.86059731 1.2274034 76
5.9332705 -0.86345291 0.63016802 4
2.1207533 -0.31013533 1.9894335 79
2.570168 -0.37631622 1.9749495 71
3.1883004 -0.46682513 1.9783952 68
4.0335946 -0.59131145 1.9720269 34
5.3177419 -0.78051203 1.9587171 45
5.9344234 -0.87208378 1.5373927 81
5.9183984 -0.87078422 0.92549807 87
nan nan nan 0
0.030894637 -0.0050648609 1.9941976 56
0.32486796 -0.049636364 2.0897303 115
0.40724918 -0.061263464 2.0034087 85
0.6009621 -0.090005465 1.9886441 84
0.81447893 -0.12185182 1.999715 96
1.0381691 -0.1551424 1.9901714 89
1.2920195 -0.19308318 1.9912933 87
1.587234 -0.23720591 1.9973947 74
0.12343524 -0.020043917 1.9960728 78
0.22725852 -0.038115531 2.10272 187
0.50329137 -0.07635662 1.9960775 93
0.7055878 -0.10681529 1.9948403 89
0.92110556 -0.13912408 1.9891212 96
1.1595412 -0.17514414 1.9883448 91
1.4301339 -0.21602172 1.9892817 84
1.7509681 -0.26448864 1.9980052 81
1.9829892 -0.2942293 2.0498068 19
2.3288417 -0.34554967 1.9800742 36
2.85603 -0.42428362 1.9776572 66
3.6122887 -0.53663522 1.9973699 25
4.5725322 -0.68010378 1.9560646 40
5.9363103 -0.88400745 1.8529459 76
5.9227185 -0.8819834 1.2283361 75
5.9351459 -0.884893 0.63061422 4
2.1196578 -0.31753626 1.9894335 79
2.5688386 -0.3852855 1.9749495 73
3.1866512 -0.47795153 1.9783952 68
4.0315056 -0.60538769 1.9720269 34
5.3149853 -0.7990697 1.9587171 44
5.9361496 -0.89351696 1.5385652 81
5.9202194 -0.89217585 0.92618781 87
nan nan nan 0
0.030919697 -0.0051804809 1.9991974 56
0.32469273 -0.050770056 2.0897303 115
0.40703288 -0.062684655 2.0034087 87
0.60064429 -0.092102669 1.9886441 84
0.81404865 -0.12469414 1.999715 95
1.0376211 -0.15876536 1.9901714 87
1.2913375 -0.19759201 1.9912933 87
1.5863963 -0.24274497 1.9973947 76
0.12336452 -0.020474665 1.9960728 77
0.22712407 -0.038908578 2.10272 183
0.50302172 -0.078112975 1.9960775 93
0.70521063 -0.1092776 1.9948403 93
0.9206143 -0.14233848 1.9891212 95
1.1589228 -0.17919061 1.9883448 91
1.4293711 -0.22101247 1.9892817 87
1.746684 -0.27008095 1.99433 81
1.9819502 -0.3011494 2.0498068 19
2.3276212 -0.35367674 1.9800742 40
2.8545315 -0.43425044 1.9776572 67
3.6191528 -0.55057371 2.0020061 26
4.5701303 -0.69606066 1.9560646 40
5.9379311 -0.90544683 1.8543551 76
5.9244599 -0.90339261 1.2292688 75
5.9320211 -0.90560514 0.63061422 5
2.1185367 -0.32493332 1.9894335 69
2.5674782 -0.39425007 1.9749495 71
3.1849635 -0.48907211 1.9783952 68
4.0248823 -0.61876696 1.9699289 34
5.3121634 -0.81761748 1.9587171 43
5.9377985 -0.9149729 1.5397375 80
5.9219637 -0.91359103 0.92687762 87
nan nan nan 0
0.030901426 -0.0052883793 1.9991974 56
0.32451352 -0.051903136 2.0897303 113
0.40681157 -0.064105086 2.0034087 91
0.60031909 -0.094198748 1.9886441 82
0.81360841 -0.12753496 1.999715 95
1.0370606 -0.16238636 1.9901714 87
1.2934202 -0.20253378 1.9954264 84
1.5855393 -0.24828103 1.9973947 74
0.1232923 -0.020905159 1.9960728 75
0.22698689 -0.039701153 2.10272 178
0.50274599 -0.079868369 1.9960775 93
0.70482492 -0.11173857 1.9948403 93
0.92011184 -0.14555116 1.9891212 95
1.1582903 -0.18323492 1.9883448 89
1.4285909 -0.22600058 1.9892817 84
1.7457304 -0.27617639 1.99433 81
1.9844105 -0.30861393 2.0533113 19
2.3263726 -0.36179951 1.9800742 48
2.8529983 -0.44421196 1.9776572 67
3.6215863 -0.56388521 2.004324 24
4.5676727 -0.71200919 1.9560646 40
5.9347339 -0.92616862 1.8543551 76
5.9261231 -0.92482483 1.2302012 75
5.9337444 -0.92707497 0.63106048 5
2.1173894 -0.33232644 1.9894335 56
2.5660865 -0.40320987 1.9749495 71
3.1832371 -0.50018674 1.9783952 69
4.0226984 -0.63281262 1.9699289 35
5.3092775 -0.83615553 1.9587171 43
5.9345684 -0.93569404 1.5397375 79
5.9187384 -0.93425691 0.92687762 87
nan nan nan 0
0.03088278 -0.0053962134 1.9991974 53
0.32433036 -0.053035587 2.0897303 113
0.40658534 -0.065524735 2.0034087 91
0.59998667 -0.09629368 1.9886441 86
0.81315827 -0.13037419 1.999715 95
1.0364876 -0.16600539 1.9901714 89
1.2927054 -0.20704743 1.9954264 82
1.584663 -0.25381407 1.9973947 74
0.12321858 -0.021335404 1.9960728 73
0.22684692 -0.040493242 2.10272 175
0.50246412 -0.081622787 1.9960775 89
0.70443052 -0.1141982 1.9948403 87
0.9195981 -0.14876205 1.9891212 95
1.1576436 -0.18727699 1.9883448 91
1.4277934 -0.23098589 1.9892817 87
1.7447557 -0.28226846 1.99433 81
1.9833213 -0.31553891 2.0533113 19
2.3250954 -0.36991784 1.9800742 67
2.8473005 -0.45351034 1.9749157 67
3.6239712 -0.57722032 2.0066421 23
4.5651598 -0.72794896 1.9560646 43
5.936203 -0.94763535 1.8557644 77
5.9277101 -0.94627959 1.2311339 77
5.9304724 -0.94778204 0.63106048 6
2.1162164 -0.33971548 1.9894335 38
2.5646632 -0.41216469 1.9749495 73
3.1772149 -0.51061118 1.9758627 69
4.0204649 -0.64685065 1.9699289 36
5.3063264 -0.85468322 1.9587171 44
5.9360647 -0.9571777 1.5409098 79
5.92033 -0.95570064 0.92756748 87
nan nan nan 0
0.030863753 -0.0055039814 1.9991974 53
0.32414326 -0.054167386 2.0897303 112
0.40635413 -0.066943578 2.0034087 85
0.60112071 -0.098629303 1.9934158 86
0.81269825 -0.13321185 1.999715 95
1.0359017 -0.16962239 1.9901714 87
1.2919748 -0.21155855 1.9954264 80
1.5837674 -0.25934404 1.9973947 74
0.12314335 -0.021765389 1.9960728 71
0.22670418 -0.041284837 2.10272 169
0.50217617 -0.083376221 1.9960775 89
0.70402765 -0.11665642 1.9948403 87
0.91907328 -0.15197115 1.9891212 95
1.1569829 -0.19131678 1.9883448 91
1.4269783 -0.23596844 1.9892817 84
1.7437599 -0.28835708 1.99433 83
1.9822078 -0.32246009 2.0533113 19
2.3237901 -0.3780317 1.9800742 69
2.8457003 -0.4634465 1.9749157 67
3.6306789 -0.59129101 2.0112782 23
4.5625906 -0.74387991 1.9560646 43
5.937593 -0.96912354 1.8571734 77
5.9243703 -0.96696544 1.2311339 78
5.9320426 -0.96928042 0.63150668 7
2.1150179 -0.34710035 1.9894335 33
2.5632088 -0.4211145 1.9749495 73
3.1754134 -0.52169859 1.9758627 69
4.0181823 -0.66088074 1.9699289 37
5.3033104 -0.87320054 1.9587171 44
5.9374828 -0.97868299 1.5420821 79
5.9218445 -0.97716695 0.92825729 88
nan nan nan 0
0.030844353 -0.0056116828 1.9991974 49
0.3239522 -0.05529853 2.0897303 112
0.40611798 -0.06836161 2.0034087 85
0.60077274 -0.10072701 1.9934158 86
0.81222826 -0.13604788 1.999715 96
1.0353034 -0.17323732 1.9901714 87
1.2912284 -0.21606709 1.9954264 80
1.5828525 -0.26487085 1.9973947 74
0.12278175 -0.022143232 1.9910811 71
0.22655869 -0.042075932 2.10272 166
0.50188202 -0.085128635 1.9960775 91
0.70191479 -0.11882515 1.9901476 87
0.91638988 -0.15481558 1.9846202 95
1.1563079 -0.19535422 1.9883448 93
1.426146 -0.24094808 1.9892817 84
1.7427428 -0.29444218 1.99433 83
1.9810699 -0.32937732 2.0533113 19
2.3262968 -0.38677949 1.983212 69
2.8440652 -0.47337702 1.9749157 66
3.6329632 -0.60468829 2.0135961 23
4.5599666 -0.75980181 1.9560646 44
5.9389057 -0.99063295 1.8585827 78
5.9258046 -0.98844761 1.2320666 77
5.9335351 -0.99080145 0.63195288 8
2.1137934 -0.35448104 1.9894335 33
2.5617232 -0.43005925 1.9749495 73
3.1735725 -0.53277969 1.9758627 69
4.0203266 -0.67565501 1.9720269 39
5.30023 -0.89170724 1.9587171 45
5.9388237 -1.0002099 1.5432544 80
5.9232798 -0.99865532 0.92894709 87
nan nan nan 0
0.030824576 -0.0057193153 1.9991974 49
0.3237572 -0.056428991 2.0897303 110
0.40587687 -0.069778815 2.0034087 89
0.60041749 -0.10282348 1.9934158 86
0.81174845 -0.13888226 1.999715 96
1.0346923 -0.17685017 1.9901714 87
1.2904663 -0.22057302 1.9954264 84
1.5819184 -0.27039441 1.9973947 73
0.12270372 -0.022571685 1.9910811 69
0.22641043 -0.042866509 2.10272 163
0.50158185 -0.086880013 1.9960775 95
0.70149571 -0.12127455 1.9901476 89
0.91584384 -0.15801343 1.9846202 95
1.155619 -0.19938931 1.9883448 91
1.4252962 -0.24592479 1.9892817 87
1.7417042 -0.3005237 1.99433 81
1.9799082 -0.33629054 2.0533113 22
2.3249323 -0.39489743 1.983212 69
2.8423953 -0.48330179 1.9749157 66
3.6351981 -0.61810863 2.0159142 22
4.5572863 -0.77571446 1.9560646 47
5.9401412 -1.0121634 1.8599919 78
5.9271607 -1.0099516 1.2329992 78
5.9349489 -1.0123446 0.63239908 10
2.1125431 -0.36185738 1.9894335 40
2.5562224 -0.43831557 1.9720063 73
3.1716936 -0.5438543 1.9758627 69
4.0179439 -0.68968439 1.9720269 41
5.2970853 -0.9102031 1.9587171 43
5.9400868 -1.0217584 1.5444267 81
5.9246387 -1.0201658 0.9296369 87
nan nan nan 0
0.030805442 -0.0058215018 1.9991974 47
0.32356831 -0.057502303 2.0897303 110
0.40564322 -0.071124367 2.0034087 91
0.60007322 -0.10481397 1.9934158 86
0.81128341 -0.14157334 1.999715 95
1.0341001 -0.18028034 1.9901714 87
1.2869555 -0.22436778 1.9912933 84
1.5810128 -0.27563876 1.9973947 73
0.12263219 -0.022957057 1.9910811 69
0.22627465 -0.043577589 2.10272 158
0.50130641 -0.088455342 1.9960775 95
0.70111126 -0.12347777 1.9901476 91
0.91531485 -0.1610496 1.9846202 95
1.1549515 -0.20322038 1.9883448 91
1.4244728 -0.2506499 1.9892817 84
1.7407516 -0.30599391 1.99433 81
1.9787822 -0.34285429 2.0533113 25
2.3236103 -0.402605 1.983212 69
2.8407772 -0.49272481 1.9749157 69
3.6374936 -0.63091707 2.0182323 23
4.5548272 -0.79002768 1.9560646 46
5.941659 -1.0316406 1.8614012 78
5.9286189 -1.0304424 1.2339318 78
5.9364662 -1.0328739 0.63284528 12
2.1113315 -0.36886084 1.9894335 56
2.554755 -0.44678986 1.9720063 75
3.1699693 -0.55381572 1.9758627 69
4.0157571 -0.70230371 1.9720269 48
5.2941995 -0.92683989 1.9587171 43
5.9368472 -1.0404146 1.5444267 81
5.9262815 -1.0396291 0.93032676 86
nan nan nan 0
0.030783899 -0.0059343698 1.9991974 44
0.32335538 -0.058687851 2.0897303 109
0.40537983 -0.072610646 2.0034087 91
0.59968495 -0.10701265 1.9934158 86
0.81075907 -0.14454591 1.999715 95
1.0334325 -0.18406931 1.9901714 87
1.2861245 -0.22908321 1.9912933 84
1.5799922 -0.28143162 1.9973947 74
0.12254314 -0.023427762 1.9910811 67
0.22610566 -0.0444461 2.10272 154
0.50096309 -0.090379573 1.9960775 95
0.70063198 -0.12616894 1.9901476 91
0.91471845 -0.16440333 1.9846202 95
1.1541989 -0.20745215 1.9883448 91
1.4235446 -0.25586918 1.9892817 87
1.7395639 -0.31267568 1.99433 81
1.9775122 -0.3501046 2.0533113 35
2.322119 -0.41111875 1.983212 69
2.8348353 -0.50240386 1.9721743 67
3.6395185 -0.64501798 2.0205503 22
4.5517597 -0.80751115 1.9560646 46
5.9423776 -1.055286 1.8628104 77
5.9296384 -1.0530238 1.2348644 78
5.9375439 -1.0554967 0.63329148 14
2.1062894 -0.37594065 1.9861088 77
2.5531003 -0.4561505 1.9720063 73
3.1678195 -0.56598341 1.9758627 69
4.0130305 -0.71771789 1.9720269 52
5.2906022 -0.9471612 1.9587171 43
5.937593 -1.0640601 1.5455991 80
5.9271212 -1.0632511 0.93101656 86
nan nan nan 0
0.030762997 -0.0060417899 1.9991974 44
0.32314855 -0.059816219 2.0897303 109
0.40512392 -0.074025244 2.0034087 91
0.59930784 -0.10910528 1.9934158 84
0.81024957 -0.14737511 1.999715 96
1.0327836 -0.18767554 1.9901714 85
1.2853169 -0.23357122 1.9912933 84
1.5758457 -0.28637186 1.9935577 76
0.12274474 -0.023911221 1.9960728 67
0.22594914 -0.045235083 2.10272 151
0.50064456 -0.092127711 1.9960775 95
0.70018727 -0.12861383 1.9901476 91
0.91413897 -0.1675953 1.9846202 95
1.1534678 -0.21147977 1.9883448 91
1.4226428 -0.26083672 1.9892817 87
1.7417963 -0.31935734 1.9980052 81
1.9797877 -0.35763925 2.0568159 40
2.3168385 -0.41852987 1.9800742 69
2.8330641 -0.5122962 1.9721743 67
3.6416042 -0.65850669 2.0228682 20
4.5489135 -0.82339489 1.9560646 47
5.9433775 -1.0768777 1.8642194 78
5.9259267 -1.0737158 1.2348644 76
5.9387236 -1.077105 0.63373774 17
2.1049643 -0.38329068 1.9861088 77
2.5514925 -0.4650597 1.9720063 73
3.1658247 -0.57703769 1.9758627 69
4.0105009 -0.73172158 1.9720269 52
5.2872629 -0.96562308 1.9587171 42
5.9386234 -1.0856538 1.5467713 80
5.9233732 -1.0839342 0.93101656 87
nan nan nan 0
0.030741718 -0.006149136 1.9991974 44
0.32293776 -0.060943849 2.0897303 109
0.40486306 -0.075438939 2.0034087 93
0.59892333 -0.11119659 1.9934158 84
0.80973017 -0.1502025 1.999715 96
1.0321223 -0.19127947 1.9901714 87
1.2844938 -0.23805641 1.9912933 87
1.5748365 -0.29187086 1.9935577 74
0.12266053 -0.024339532 1.9960728 67
0.22578986 -0.046023518 2.10272 143
0.5003199 -0.093874723 1.9960775 91
0.69973409 -0.13105716 1.9901476 91
0.91354841 -0.17078522 1.9846202 95
1.1527225 -0.21550484 1.9883448 91
1.4217236 -0.26580104 1.9892817 84
1.7406708 -0.32543543 1.9980052 81
1.9785273 -0.36454785 2.0568159 58
2.3153636 -0.42661458 1.9800742 69
2.8312585 -0.52218235 1.9721743 67
3.6392834 -0.67121422 2.0228682 20
4.5460114 -0.83926857 1.9560646 47
5.9395828 -1.0976174 1.8642194 78
5.922143 -1.0943946 1.2348644 76
5.9398241 -1.0987341 0.63418388 9
2.1036136 -0.39063606 1.9861088 77
2.5498536 -0.47396326 1.9720063 73
3.1637912 -0.588085 1.9758627 69
4.0079222 -0.74571645 1.9720269 52
5.2885032 -0.98493785 1.9603598 40
5.944355 -1.1081585 1.549116 82
5.9244218 -1.1055124 0.93170631 87
nan nan nan 0
0.030720066 -0.0062564071 1.9991974 44
0.32272309 -0.062070742 2.0897303 108
0.40459725 -0.076851711 2.0034087 93
0.59853148 -0.11328655 1.9934158 86
0.80920094 -0.15302807 1.999715 96
1.0314482 -0.19488108 1.9901714 87
1.283655 -0.24253866 1.9912933 84
1.5738081 -0.29736626 1.9935577 74
0.12257482 -0.024767552 1.9960728 67
0.22562782 -0.046811391 2.10272 141
0.49998918 -0.095620595 1.9960775 91
0.69927227 -0.13349889 1.9901476 91
0.91294664 -0.17397305 1.9846202 95
1.1519632 -0.21952727 1.9883448 91
1.4207872 -0.27076218 1.9892817 82
1.7395244 -0.3315095 1.9980052 78
1.9807475 -0.37211037 2.0603204 71
2.3100345 -0.43397537 1.9769365 67
2.8294187 -0.53206211 1.9721743 67
3.6412723 -0.68473238 2.0251863 18
4.5476103 -0.85598946 1.9579377 42
5.9404292 -1.1192319 1.8656287 80
5.9182863 -1.11506 1.2348644 76
5.940846 -1.1203842 0.63463014 9
2.1022372 -0.39797667 1.9861088 77
2.5481834 -0.48286104 1.9720063 75
3.1617191 -0.59912509 1.9758627 70
4.0097537 -0.760548 1.974125 53
5.2850332 -1.0033922 1.9603598 39
5.9404507 -1.1289014 1.549116 83
5.9253912 -1.1271111 0.93239617 89
nan nan nan 0
0.030699151 -0.006358244 1.9991974 44
0.32175297 -0.062991127 2.0847909 106
0.40434018 -0.078192979 2.0034087 87
0.59815252 -0.11527073 1.9934158 86
0.80868906 -0.15571064 1.999715 95
1.0307963 -0.19830042 1.9901714 87
1.2828436 -0.24679407 1.9912933 84
1.5728133 -0.30258355 1.9935577 74
0.12277996 -0.02521123 2.0010643 64
0.22547966 -0.047519989 2.10272 138
0.49968633 -0.097190879 1.9960775 91
0.6988495 -0.13569506 1.9901476 91
0.91236478 -0.17699954 1.9846202 95
1.1512289 -0.22334613 1.9883448 93
1.4198816 -0.27547222 1.9892817 82
1.7384742 -0.33697274 1.9980052 69
1.9795026 -0.37867671 2.0603204 62
2.3085828 -0.44163334 1.9769365 67
2.8276389 -0.54144186 1.9721743 67
3.6389818 -0.69680351 2.0251863 18
4.5448985 -0.87027192 1.9579377 32
5.9415956 -1.1387918 1.8670379 84
5.914556 -1.1346797 1.2348644 6
5.9419889 -1.1410178 0.63507634 18
2.1009059 -0.40494573 1.9861088 77
2.5465682 -0.49130845 1.9720063 75
3.159821 -0.60905498 1.9758627 69
4.0073447 -0.77314115 1.974125 53
5.2818546 -1.0199907 1.9603598 38
5.9464192 -1.1494031 1.5514605 47
5.9266839 -1.1466614 0.93308598 100
5.9247599 -1.147362 0.33711475 9
0.030676769 -0.0064653656 1.9991974 42
0.32153112 -0.064113878 2.0847909 106
0.40406474 -0.07960391 2.0034087 87
0.59774649 -0.11735798 1.9934158 86
0.80814058 -0.15853253 1.999715 95
1.0300977 -0.20189737 1.9901714 87
1.2819743 -0.25127053 1.9912933 87
1.5717474 -0.30807185 1.9935577 74
0.12268673 -0.02566107 2.0010643 66
0.22530396 -0.048346091 2.10272 136
0.49932674 -0.099021673 1.9960775 91
0.69834745 -0.13825554 1.9901476 91
0.91174138 -0.1801832 1.9846202 95
1.1504422 -0.22736329 1.9883448 91
1.4189112 -0.28042683 1.9892817 82
1.7405534 -0.34399962 2.0016804 54
1.9816693 -0.38626653 2.0638251 48
2.3070271 -0.44968909 1.9769365 69
2.8257315 -0.55130887 1.9721743 59
3.6365271 -0.70950168 2.0251863 18
4.5462284 -0.88781261 1.9598107 29
5.8950071 -1.1522785 1.8543551 33
5.9105592 -1.1553185 1.2348644 5
5.9428577 -1.1627086 0.63552254 28
2.1031435 -0.41299635 1.9894335 79
2.5448377 -0.50019467 1.9720063 73
3.1575677 -0.62063223 1.9758627 68
4.0044847 -0.78782362 1.974125 53
5.2780805 -1.0393426 1.9603598 38
5.8515577 -1.1533312 1.5291866 29
5.9273 -1.1693347 0.93377584 100
5.925416 -1.1700375 0.33731627 18
0.030654013 -0.0065724077 1.9991974 42
0.32130539 -0.065235838 2.0847909 105
0.40378442 -0.081013881 2.0034087 93
0.59733325 -0.11944378 1.9934158 80
0.80758232 -0.16135252 1.999715 95
1.0293868 -0.20549184 1.9901714 87
1.2810894 -0.25574395 1.9912933 84
1.5706625 -0.3135564 1.9935577 73
0.12259641 -0.026089171 2.0010643 64
0.22513384 -0.049132261 2.10272 134
0.49897808 -0.10076404 1.9960775 93
0.6978606 -0.1406924 1.9901476 91
0.91110682 -0.18336467 1.9846202 95
1.1496416 -0.23137771 1.9883448 89
1.4179238 -0.28537804 1.9892817 84
1.7426654 -0.35074213 2.0053556 34
1.9803089 -0.39318153 2.0638251 36
2.3054433 -0.45773941 1.9769365 69
2.8237898 -0.56116915 1.9721743 59
3.6340284 -0.72219127 2.0251863 19
4.5476484 -0.90458083 1.9616836 14
5.8674245 -1.1681653 1.8473091 30
5.9113083 -1.1769023 1.235797 5
5.9485307 -1.1853924 0.63641495 39
2.1016893 -0.42033514 1.9894335 79
2.543076 -0.50907475 1.9720063 73
3.1553819 -0.63165039 1.9758627 68
4.0017099 -0.80179703 1.974125 53
5.2744203 -1.0577602 1.9603598 38
5.7903094 -1.162271 1.5151187 29
5.9280367 -1.1909931 0.93446559 100
5.9212952 -1.1907139 0.33731627 21
0.030630883 -0.0066793701 1.9991974 40
0.32031485 -0.066199578 2.0798519 105
0.40349919 -0.08242286 2.0034087 93
0.59544921 -0.12123012 1.9886441 80
0.80701411 -0.1641705 1.999715 95
1.0286633 -0.20908383 1.9901714 87
1.2801889 -0.26021421 1.9912933 84
1.5695585 -0.31903714 1.9935577 73
0.12250459 -0.026516955 2.0010643 62
0.22496097 -0.049917825 2.10272 131
0.49862328 -0.10250518 1.9960775 93
0.69736522 -0.14312753 1.9901476 91
0.91046119 -0.18654393 1.9846202 95
1.148827 -0.23538929 1.9883448 89
1.4169189 -0.29032579 1.9892817 82
1.7447517 -0.35750359 2.0090308 17
1.9824196 -0.40079832 2.0673294 36
2.3038316 -0.4657841 1.9769365 69
2.8218138 -0.57102257 1.9721743 67
3.6314852 -0.73487198 2.0251863 15
4.5490065 -0.92136985 1.9635568 4
5.7786808 -1.1714827 1.8219436 31
5.9167929 -1.1994814 1.2376622 13
5.9492373 -1.2071397 0.63686121 59
2.1002092 -0.42766887 1.9894335 79
2.5412838 -0.51794863 1.9720063 75
3.1531579 -0.64266092 1.9758627 68
3.9988866 -0.81576073 1.974125 56
5.2706962 -1.0761651 1.9603598 36
5.7433577 -1.173717 1.5045679 47
5.9286952 -1.2126707 0.93515545 101
5.9317865 -1.2143819 0.33792087 32
0.030607384 -0.0067862514 1.9991974 40
0.31399915 -0.066036567 2.0403376 105
0.403209 -0.083830833 2.0034087 91
0.59502244 -0.12330788 1.9886441 86
0.80643618 -0.16698653 1.999715 95
1.0279272 -0.21267325 1.9901714 87
1.2792729 -0.26468134 1.9912933 84
1.5684352 -0.32451397 1.9935577 73
0.12241128 -0.026944412 2.0010643 56
0.22478536 -0.050702777 2.10272 127
0.49826244 -0.10424508 1.9960775 93
0.69686139 -0.14556091 1.9901476 89
0.90980446 -0.18972088 1.9846202 95
1.1479983 -0.23939802 1.9883448 89
1.4158968 -0.29527 1.9892817 84
1.7434932 -0.3635917 2.0090308 17
1.9810085 -0.40771583 2.0673294 38
2.3021915 -0.47382316 1.9769365 69
2.8198032 -0.58086908 1.9721743 67
3.6288979 -0.74754369 2.0251863 15
4.550303 -0.93817943 1.9654298 4
5.6993837 -1.176134 1.7993965 84
5.9173808 -1.2211204 1.2385949 16
5.9547415 -1.2299137 0.63775361 62
2.0987036 -0.43499738 1.9894335 79
2.5394602 -0.52681619 1.9720063 75
3.1508954 -0.65366358 1.9758627 68
3.9915709 -0.82879186 1.9720269 57
5.2669072 -1.0945567 1.9603598 34
5.705914 -1.1868292 1.4963617 99
5.9292746 -1.2343678 0.93584526 101
5.9324021 -1.2360992 0.3381224 38
0.030583508 -0.0068930499 1.9991974 40
0.30920812 -0.066155784 2.0107021 108
0.40291393 -0.085237786 2.0034087 91
0.59458834 -0.12538415 1.9886441 86
0.80584836 -0.16980049 1.999715 95
1.0271785 -0.21626011 1.9901714 87
1.2783412 -0.26914522 1.9912933 87
1.5672928 -0.32998684 1.9935577 73
0.12231649 -0.027371543 2.0010643 56
0.22460698 -0.051487118 2.10272 125
0.49789551 -0.10598371 1.9960775 93
0.69634908 -0.14799252 1.9901476 89
0.90913671 -0.19289553 1.9846202 95
1.1471555 -0.24340382 1.9883448 91
1.4148575 -0.30021057 1.9892817 84
1.7455294 -0.37037909 2.0127058 22
1.9830638 -0.4153595 2.0708342 39
2.3005235 -0.48185641 1.9769365 69
2.8136659 -0.58985049 1.9694327 67
3.6262665 -0.76020634 2.0251863 17
4.551538 -0.95500928 1.9673029 4
5.7046337 -1.1979933 1.802215 99
5.9226971 -1.2437875 1.2404602 90
5.955286 -1.2517165 0.63819981 69
2.0971725 -0.44232053 1.9894335 79
2.5376058 -0.53567737 1.9720063 73
3.1485944 -0.66465819 1.9758627 68
3.9886537 -0.84271991 1.9720269 58
5.2630544 -1.1129349 1.9603598 32
5.7112465 -1.208752 1.4987063 99
5.9297743 -1.2560836 0.93653512 100
5.9378257 -1.258872 0.33852547 54
0.03060165 -0.0070100976 2.0041974 39
0.30138338 -0.0655808 1.9613096 111
0.40261394 -0.086643696 2.0034087 89
0.59414703 -0.1274589 1.9886441 88
0.80525076 -0.1726124 1.999715 95
1.0264174 -0.21984431 1.9901714 87
1.2773939 -0.27360582 1.9912933 87
1.5692664 -0.33612722 1.9973947 73
0.12222019 -0.027798342 2.0010643 56
0.22390603 -0.052149083 2.0977485 123
0.49752253 -0.10772104 1.9960775 91
0.6958282 -0.15042233 1.9901476 87
0.90845782 -0.19606782 1.9846202 95
1.1462989 -0.24740665 1.9883448 91
1.413801 -0.30514753 1.9892817 84
1.74754 -0.37718514 2.016381 30
1.9816018 -0.42227915 2.0708342 42
2.2988276 -0.48988378 1.9769365 69
2.81159 -0.59966844 1.9694327 67
3.6279235 -0.77378392 2.0275044 18
4.5527105 -0.97185916 1.9691759 4
5.7097993 -1.2199036 1.8050332 98
5.9231234 -1.2654804 1.2413929 88
5.9508801 -1.2724968 0.63819981 76
2.0919647 -0.44885498 1.9861088 79
2.5357203 -0.544532 1.9720063 73
3.1462553 -0.67564481 1.9758627 68
3.9856877 -0.85663784 1.9720269 55
5.2637544 -1.1322929 1.9620026 31
5.7069921 -1.2286807 1.4987063 99
5.9301944 -1.2778178 0.93722486 100
5.9382796 -1.2806445 0.338727 62
0.030576995 -0.0071168747 2.0041974 39
0.30115262 -0.066632427 1.9613096 111
0.40230903 -0.088048555 2.0034087 89
0.5936985 -0.12953208 1.9886441 88
0.80464333 -0.17542219 1.999715 95
1.0256437 -0.22342584 1.9901714 87
1.2791806 -0.27866209 1.9954264 84
1.5680835 -0.34160295 1.9973947 66
0.12212241 -0.0282248 2.0010643 53
0.22372264 -0.052930348 2.0977485 121
0.49714348 -0.10945707 1.9960775 91
0.69529885 -0.15285031 1.9901476 87
0.909895 -0.19970468 1.9891212 95
1.1454284 -0.25140649 1.9883448 95
1.4127271 -0.31008077 1.9892817 84
1.749524 -0.38400972 2.0200562 36
1.9801158 -0.42919365 2.0708342 46
2.2971036 -0.49790519 1.9769365 69
2.8094792 -0.60947907 1.9694327 67
3.6252005 -0.78644305 2.0275044 17
4.5492902 -0.98774505 1.9691759 4
5.7101946 -1.2408458 1.8064425 93
5.9282703 -1.2882345 1.243258 88
5.9512687 -1.2943199 0.63864601 82
2.090385 -0.45615456 1.9861088 79
2.5338044 -0.55338001 1.9720063 75
3.1438777 -0.68662322 1.9758627 68
3.9826732 -0.87054521 1.9720269 55
5.2597704 -1.1506598 1.9620026 31
5.7121649 -1.2506735 1.5010509 99
5.9305348 -1.2995702 0.93791467 100
5.9435325 -1.3035055 0.33913007 63
0.030551966 -0.0072235651 2.0041974 39
0.30622435 -0.068878062 1.9958843 109
0.40199924 -0.089452341 2.0034087 93
0.59324276 -0.13160367 1.9886441 88
0.80402607 -0.17822984 1.999715 96
1.0248576 -0.22700463 1.9901714 85
1.2782003 -0.28312558 1.9954264 78
1.5668817 -0.34707448 1.9973947 57
0.12202314 -0.028650915 2.0010643 49
0.22353651 -0.05371096 2.0977485 118
0.49675837 -0.11119175 1.9960775 93
0.6947611 -0.15527642 1.9901476 89
0.90919238 -0.20287956 1.9891212 95
1.1445439 -0.25540322 1.9883448 91
1.4116364 -0.31501022 1.9892817 82
1.7514818 -0.39085278 2.0237315 40
1.9786055 -0.43610293 2.0708342 54
2.2953515 -0.50592053 1.9769365 69
2.8073349 -0.61928225 1.9694327 67
3.6224334 -0.79909259 2.0275044 17
4.545815 -1.0036191 1.9691759 5
5.7105131 -1.2618055 1.8078517 93
5.928534 -1.30998 1.2441907 91
5.9515762 -1.3161612 0.63909227 86
2.0887799 -0.46344858 1.9861088 79
2.5318573 -0.56222123 1.9720063 75
3.1414616 -0.69759321 1.9758627 68
3.9796102 -0.88444215 1.9720269 56
5.2603312 -1.1700382 1.9636453 31
5.7125092 -1.2716612 1.5022233 99
5.9259624 -1.3202637 0.93791467 100
5.9438224 -1.3253317 0.3393316 70
0.030526564 -0.0073301671 2.0041974 39
0.30522463 -0.069773227 1.9909451 98
0.40168458 -0.090855032 2.0034087 93
0.59277976 -0.13367368 1.9886441 88
0.80149323 -0.18060586 1.9951125 95
1.0240589 -0.23058066 1.9901714 85
1.2772042 -0.28758562 1.9954264 78
1.5656605 -0.3525418 1.9973947 42
0.12192239 -0.029076681 2.0010643 49
0.22334766 -0.05449092 2.0977485 116
0.49636725 -0.11292508 1.9960775 95
0.69421482 -0.15770066 1.9901476 89
0.90847868 -0.20605201 1.9891212 96
1.1436454 -0.25939688 1.9883448 91
1.4105281 -0.3199358 1.9892817 82
1.7534127 -0.39771408 2.0274065 49
1.9770712 -0.4430069 2.0708342 56
2.2935717 -0.51392972 1.9769365 69
2.805156 -0.62907797 1.9694327 67
3.6196218 -0.81173235 2.0275044 16
4.5377603 -1.0184655 1.9673029 6
5.7107544 -1.2827828 1.809261 93
5.9335103 -1.3328197 1.2460558 90
5.9469461 -1.3369279 0.63909227 88
2.0871496 -0.47073698 1.9861088 79
2.5298793 -0.57105565 1.9720063 75
3.1390073 -0.70855469 1.9758627 68
3.9764986 -0.89832807 1.9720269 58
5.2608213 -1.1894344 1.9652878 31
5.7127767 -1.2926666 1.5033956 100
5.9261479 -1.3420349 0.93860453 97
5.948904 -1.3482801 0.33973464 81
0.030500792 -0.0074366806 2.0041974 38
0.30649284 -0.071190178 2.0008237 107
0.40136495 -0.092256621 2.0034087 91
0.59230953 -0.13574205 1.9886441 88
0.8008579 -0.18340248 1.9951125 95
1.0232478 -0.2341539 1.9901714 87
1.2761925 -0.29204211 1.9954264 87
1.5644205 -0.35800484 1.9973947 36
0.12182015 -0.029502092 2.0010643 45
0.222638 -0.055141237 2.0927773 115
0.49597001 -0.11465704 1.9960775 95
0.69366014 -0.16012295 1.9901476 89
0.90775388 -0.20922193 1.9891212 96
1.1427329 -0.26338735 1.9883448 91
1.4094026 -0.3248575 1.9892817 82
1.7553174 -0.40459371 2.0310817 62
1.9789903 -0.45069745 2.0743387 62
2.2917635 -0.52193272 1.9769365 69
2.802943 -0.63886595 1.9694327 67
3.6167662 -0.82436222 2.0275044 16
4.5296574 -1.0332681 1.9654298 7
5.7109184 -1.3037769 1.81067 95
5.9336109 -1.3546166 1.2469885 83
5.9470978 -1.3587878 0.63953841 91
2.0854936 -0.47801962 1.9861088 79
2.5278707 -0.5798831 1.9720063 75
3.1365151 -0.71950758 1.9758627 69
3.9733388 -0.91220325 1.9720269 58
5.2612395 -1.2088484 1.9669306 31
5.7129664 -1.3136894 1.5045679 100
5.9262533 -1.3638237 0.93929434 96
5.9490304 -1.3701588 0.3399362 85
0.030474648 -0.0075431028 2.0041974 38
0.30699867 -0.072438218 2.0057628 106
0.40104049 -0.093657084 2.0034087 91
0.59183204 -0.13780877 1.9886441 88
0.8002128 -0.18619686 1.9951125 95
1.0224243 -0.23772427 1.9901714 87
1.2724242 -0.29585773 1.9912933 87
1.5662838 -0.36418957 2.0012317 36
0.12171642 -0.029927144 2.0010643 45
0.22244416 -0.055918053 2.0927773 113
0.49556676 -0.11638761 1.9960775 95
0.693097 -0.1625433 1.9901476 89
0.90701807 -0.21238932 1.9891212 96
1.1418066 -0.26737466 1.9883448 91
1.4082601 -0.3297753 1.9892817 80
1.7571954 -0.41149145 2.0347569 69
1.977405 -0.45760268 2.0743387 64
2.2899277 -0.52992928 1.9769365 69
2.8006959 -0.64864612 1.9694327 67
3.6181822 -0.83798158 2.0298221 17
4.5260229 -1.0490731 1.9654298 7
5.7110062 -1.3247879 1.8120793 93
5.9336314 -1.3764305 1.2479211 5
5.9471693 -1.3806649 0.63998467 90
2.0838122 -0.48529643 1.9861088 79
2.525831 -0.58870345 1.9720063 73
3.1339846 -0.73045164 1.9758627 68
3.9701302 -0.92606717 1.9720269 58
5.2569876 -1.2272061 1.9669306 31
5.713079 -1.3347291 1.5057403 100
5.9262781 -1.3856291 0.93998414 96
5.9539409 -1.393193 0.34033924 85
0.030448133 -0.0076494329 2.0041974 38
0.3074995 -0.073690668 2.0107021 106
0.40071112 -0.095056407 2.0034087 91
0.5913474 -0.13987382 1.9886441 86
0.79955798 -0.18898901 1.9951125 95
1.0215882 -0.24129175 1.9901714 85
1.2713838 -0.30029753 1.9912933 87
1.565003 -0.36965469 2.0012317 38
0.12161122 -0.030351831 2.0010643 44
0.2222476 -0.056694183 2.0927773 111
0.49515745 -0.11811674 1.9960775 95
0.69252533 -0.16496167 1.9901476 91
0.90415245 -0.21505015 1.9846202 95
1.1408663 -0.27135867 1.9883448 91
1.4071003 -0.33468902 1.9892817 80
1.7590463 -0.4184072 2.0384321 80
1.9757955 -0.4645023 2.0743387 64
2.288064 -0.5379194 1.9769365 69
2.7984147 -0.65841842 1.9694327 67
3.6152351 -0.85060626 2.0298221 16
4.5178213 -1.0638031 1.9635568 8
5.7156858 -1.3469155 1.8148978 93
5.9335723 -1.3982611 1.2488538 5
5.9520082 -1.4037023 0.64087707 89
2.0821056 -0.49256736 1.9861088 79
2.5237606 -0.59751672 1.9720063 73
3.1272204 -0.74039358 1.9733303 68
3.9624572 -0.93887353 1.9699289 56
5.2618623 -1.2477282 1.970216 31
5.7131147 -1.3557857 1.5069126 100
5.9262238 -1.4074516 0.94067395 97
5.9539018 -1.4151229 0.34054077 85
0.030421244 -0.0077556707 2.0041974 37
0.30799532 -0.074947484 2.0156415 105
0.40037686 -0.096454568 2.0034087 91
0.5908556 -0.14193715 1.9886441 86
0.79889345 -0.19177884 1.9951125 93
1.0207397 -0.2448563 1.9901714 85
1.2703278 -0.30473363 1.9912933 84
1.5699381 -0.37661102 2.0089054 39
0.12150454 -0.030776147 2.0010643 42
0.22204836 -0.057469629 2.0927773 109
0.49474216 -0.11984444 1.9960775 95
0.69194531 -0.16737802 1.9901476 91
0.90339631 -0.2182049 1.9846202 95
1.1399121 -0.27533939 1.9883448 91
1.4088533 -0.34030634 1.9932711 74
1.7608705 -0.42534086 2.0421071 68
1.9741621 -0.4713963 2.0743387 60
2.2861724 -0.54590291 1.9769365 69
2.7960994 -0.66818267 1.9694327 66
3.6122441 -0.86322063 2.0298221 16
4.5095711 -1.0784882 1.9616836 8
5.7156148 -1.3679755 1.8163068 92
5.9334321 -1.4201081 1.2497864 6
5.9519153 -1.4256301 0.64132327 90
2.0803735 -0.49983224 1.9861088 77
2.5216596 -0.60632265 1.9720063 75
3.1246169 -0.7513051 1.9733303 68
3.9591558 -0.95269936 1.9699289 56
5.2620659 -1.2671934 1.9718586 34
5.7130718 -1.3768586 1.5080848 100
5.9260893 -1.4292905 0.94136375 98
5.9586387 -1.4382416 0.34094384 86
0.030393986 -0.0078618135 2.0041974 36
0.30773181 -0.076022133 2.0156415 96
0.40003774 -0.09785156 2.0034087 89
0.59035653 -0.14399876 1.9886441 86
0.79821914 -0.19456632 1.9951125 91
1.0198787 -0.24841784 1.9901714 85
1.2692564 -0.30916607 1.9912933 87
1.5904176 -0.38740003 2.0357642 47
0.12139637 -0.03120009 2.0010643 40
0.2218464 -0.05824437 2.0927773 106
0.49432081 -0.12157068 1.9960775 95
0.6913569 -0.16979235 1.9901476 91
0.90262914 -0.22135703 1.9846202 95
1.138944 -0.27931672 1.9883448 91
1.4076568 -0.34522212 1.9932711 63
1.75279 -0.42986986 2.0347569 45
1.9759703 -0.47912484 2.0778432 60
2.2842529 -0.5538798 1.9769365 69
2.79375 -0.67793882 1.9694327 66
3.6135144 -0.87686926 2.0321403 15
4.5057793 -1.094223 1.9616836 8
5.7154665 -1.3890513 1.817716 92
5.9332128 -1.4419709 1.250719 79
5.9517412 -1.4475744 0.64176947 89
2.0786161 -0.5070911 1.9861088 77
2.5195277 -0.61512119 1.9720063 75
3.1219752 -0.76220745 1.9733303 69
3.9558063 -0.96651357 1.9699289 56
5.2621975 -1.2866756 1.9735013 34
5.7129526 -1.397948 1.5092572 99
5.9306846 -1.4523236 0.94274342 97
5.9584341 -1.4602215 0.34114537 85
0.030367751 -0.0079625603 2.0041974 36
0.30823171 -0.077231213 2.0205805 97
0.39971104 -0.099177592 2.0034087 89
0.58987582 -0.14595565 1.9886441 86
0.79756951 -0.19721225 1.9951125 88
1.0190494 -0.25179851 1.9901714 87
1.2682241 -0.31337336 1.9912933 87
1.6015735 -0.39574814 2.0511119 54
0.12129775 -0.031581316 2.0010643 40
0.22166233 -0.058941036 2.0927773 105
0.49393645 -0.12312303 1.9960775 95
0.69082004 -0.17196348 1.9901476 91
0.9018901 -0.22434904 1.9846202 95
1.1380116 -0.28309208 1.9883448 95
1.4094291 -0.3506158 1.9972607 46
1.7481408 -0.43455645 2.0310817 36
1.9743706 -0.48567477 2.0778432 62
2.2824037 -0.56145161 1.9769365 71
2.7914863 -0.68719953 1.9694327 67
3.6105866 -0.88884729 2.0321403 15
4.4978185 -1.1072649 1.9598107 7
5.7157321 -1.4081477 1.8191253 94
5.933167 -1.4628142 1.2516516 66
5.9517436 -1.4684961 0.64221573 89
2.0769231 -0.51398116 1.9861088 79
2.5174739 -0.62347281 1.9720063 75
3.119565 -0.77201164 1.9733303 69
3.9527502 -0.97893631 1.9699289 57
5.2581296 -1.3032008 1.9735013 32
5.7179685 -1.4182291 1.5116018 100
5.9308982 -1.4721411 0.94343323 98
5.9586658 -1.4801376 0.34134689 85
0.030297764 -0.0080567151 1.9991974 36
0.30796024 -0.078306668 2.0205805 104
0.39936242 -0.10057224 2.0034087 91
0.58936268 -0.1480138 1.9886441 86
0.79687631 -0.19999509 1.9951125 90
1.0181643 -0.25535414 1.9901714 85
1.2671225 -0.31779838 1.9912933 84
1.6126207 -0.40445599 2.0664597 64
0.12118118 -0.03202568 2.0010643 39
0.22092947 -0.059613347 2.0878057 102
0.49348187 -0.12493257 1.9960775 93
0.69018507 -0.1744943 1.9901476 91
0.90110147 -0.22749585 1.9846202 96
1.1370165 -0.28706276 1.9883448 91
1.4081967 -0.35553345 1.9972607 37
1.7432492 -0.44013083 2.0274065 36
1.972663 -0.49256366 2.0778432 58
2.2804298 -0.56941533 1.9769365 69
2.7890706 -0.69693941 1.9694327 67
3.6074622 -0.90144509 2.0321403 14
4.4937296 -1.1237428 1.9598107 7
5.7151866 -1.4302521 1.8205345 96
5.9375553 -1.485901 1.2535168 5
5.9514122 -1.4904726 0.64266193 89
2.0751164 -0.5212279 1.9861088 79
2.5152824 -0.63225663 1.9720063 73
3.1167147 -0.78344023 1.9733303 70
3.9491358 -0.99341726 1.9699289 58
5.2578974 -1.323617 1.975144 31
5.7174449 -1.4403644 1.5127741 100
5.9350672 -1.4962904 0.94481289 99
5.958045 -1.5031894 0.34154844 84
0.030269455 -0.0081624249 1.9991974 36
0.30843732 -0.079575449 2.0255198 104
0.39900893 -0.10196566 2.0034087 91
0.58884245 -0.15007018 1.9886441 86
0.79617327 -0.20277548 1.9951125 90
1.0172668 -0.25890663 1.9901714 87
1.2660055 -0.32221952 1.9912933 82
1.6236264 -0.41324568 2.0818074 52
0.12106866 -0.032448485 2.0010643 38
0.22072004 -0.060384173 2.0878057 99
0.49304274 -0.12665439 1.9960775 93
0.68957186 -0.17690243 1.9901476 91
0.90241152 -0.23118038 1.9891212 95
1.1360074 -0.29102993 1.9883448 91
1.4098666 -0.36119482 2.00125 16
1.7417022 -0.44621322 2.0274065 38
1.9709316 -0.49944651 2.0778432 58
2.2784283 -0.57737195 1.9769365 71
2.7866209 -0.70667082 1.9694327 63
3.6042933 -0.91403204 2.0321403 14
4.4897795 -1.1394221 1.9598107 7
5.7194586 -1.4525548 1.8233528 96
5.9370937 -1.507827 1.2544495 5
5.9558263 -1.5136912 0.64355433 89
2.0732841 -0.52846825 1.9861088 79
2.5130601 -0.64103281 1.9720063 75
3.1181386 -0.79538041 1.9758627 69
3.9456441 -1.0071963 1.9699289 58
5.2578206 -1.3431313 1.9767867 29
5.7218008 -1.4627209 1.5151187 100
5.9346056 -1.5182259 0.9455027 84
5.9576015 -1.5252168 0.34174997 85
0.03024078 -0.008268035 1.9991974 36
0.3089093 -0.08084853 2.0304592 97
0.39865059 -0.10335784 2.0034087 85
0.58831501 -0.1521247 1.9886441 82
0.79546064 -0.20555343 1.9951125 86
1.0163567 -0.26245594 1.9901714 87
1.264873 -0.32663673 1.9912933 82
1.6252781 -0.41971228 2.0856445 52
0.12095466 -0.032870896 2.0010643 38
0.22050792 -0.061154265 2.0878057 98
0.49259764 -0.12837467 1.9960775 93
0.68728 -0.1788737 1.9854547 89
0.90159905 -0.23432899 1.9891212 96
1.1375089 -0.29564962 1.9926107 95
1.4085971 -0.36611399 2.00125 15
1.7401341 -0.45229018 2.0274065 39
1.9726306 -0.50721151 2.0813477 50
2.2763991 -0.58532166 1.9769365 71
2.784137 -0.71639365 1.9694327 61
3.5967901 -0.92550373 2.0298221 14
4.4812856 -1.1539311 1.9579377 8
5.7189989 -1.4737078 1.824762 97
5.941308 -1.5309938 1.2563148 14
5.9553289 -1.5357152 0.64400053 92
2.0714271 -0.53570211 1.9861088 79
2.5108073 -0.64980108 1.9720063 75
3.1153431 -0.80625993 1.9758627 69
3.9421041 -1.0209631 1.9699289 57
5.2576714 -1.3626611 1.9784293 25
5.7213655 -1.4839052 1.5162911 100
5.934063 -1.5401765 0.94619244 84
5.9570765 -1.5472593 0.34195149 85
0.030211734 -0.0083735455 1.9991974 35
0.30937618 -0.082125857 2.0353985 97
0.39828736 -0.10474876 2.0034087 85
0.58778042 -0.15417738 1.9886441 80
0.79473835 -0.20832884 1.9951125 84
1.0154344 -0.26600212 1.9901714 87
1.263725 -0.33105001 1.9912933 82
1.6424106 -0.43025768 2.1086662 54
0.12083917 -0.033292908 2.0010643 37
0.2202931 -0.061923601 2.0878057 93
0.49214655 -0.13009337 1.9960775 93
0.68665141 -0.18127166 1.9854547 89
0.90077561 -0.23747472 1.9891212 96
1.1364698 -0.29961848 1.9926107 91
1.4073106 -0.37102866 2.00125 15
1.7385447 -0.45836163 2.0274065 52
1.9708481 -0.51409417 2.0813477 46
2.2743421 -0.59326422 1.9769365 69
2.7816193 -0.72610778 1.9694327 67
3.5935376 -0.93805331 2.0298221 11
4.4772296 -1.1695668 1.9579377 8
5.7184615 -1.4948751 1.8261713 98
5.94068 -1.5529658 1.2572473 74
5.9595675 -1.5590146 0.64489299 92
2.0695443 -0.54292947 1.9861088 77
2.5085237 -0.65856147 1.9720063 75
3.11251 -0.81712961 1.9758627 69
3.9385164 -1.0347172 1.9699289 55
5.2574501 -1.3822062 1.980072 25
5.7255516 -1.5063407 1.5186357 100
5.9334397 -1.5621417 0.94688231 86
5.956471 -1.569317 0.34215304 86
0.030182321 -0.0084789526 1.9991974 35
0.30983788 -0.083407439 2.0403376 102
0.3979193 -0.1061384 2.0034087 87
0.58723867 -0.15622817 1.9886441 86
0.79211813 -0.21059968 1.99051 84
1.0144997 -0.26954502 1.9901714 89
1.2625618 -0.33545917 1.9912933 84
1.634702 -0.43434161 2.1009922 42
0.12072222 -0.033714514 2.0010643 37
0.22058894 -0.062839098 2.0927773 84
0.49168941 -0.13181049 1.9960775 93
0.68601453 -0.18366742 1.9854547 89
0.89994121 -0.24061756 1.9891212 96
1.135417 -0.30358365 1.9926107 95
1.4060069 -0.37593883 2.00125 20
1.7402093 -0.46530321 2.0310817 68
1.9724889 -0.52188271 2.0848522 39
2.2722573 -0.60119957 1.9769365 71
2.779068 -0.73581302 1.9694327 67
3.5902414 -0.95059127 2.0298221 11
4.4731202 -1.1851879 1.9579377 8
5.7178459 -1.5160565 1.8275805 100
5.9447198 -1.5762111 1.2591126 74
5.9589024 -1.5810848 0.64533913 82
2.0676365 -0.55015022 1.9861088 77
2.5062096 -0.66731387 1.9720063 75
3.1054723 -0.82688004 1.9733303 70
3.9348805 -1.0484589 1.9699289 55
5.2571568 -1.4017664 1.9817147 23
5.7249551 -1.5275706 1.5198081 100
5.932735 -1.5841212 0.94757211 87
5.9606094 -1.5926788 0.34255609 85
0.030152541 -0.0085842572 1.9991974 34
0.31029436 -0.084693223 2.0452769 101
0.39754635 -0.10752675 2.0034087 87
0.58668977 -0.15827708 1.9886441 82
0.79137814 -0.21336339 1.99051 81
1.0135527 -0.27308467 1.9901714 87
1.2613832 -0.33986431 1.9912933 87
1.6146029 -0.43504074 2.0779707 42
0.12088228 -0.034215033 2.0060561 36
0.22036825 -0.063608713 2.0927773 64
0.49122629 -0.133526 1.9960775 95
0.68536919 -0.18606094 1.9854547 89
0.89909571 -0.24375749 1.9891212 95
1.1343504 -0.30754516 1.9926107 95
1.4017773 -0.38005573 1.9972607 28
1.7385745 -0.47137487 2.0310817 73
1.9706551 -0.52876478 2.0848522 39
2.2701449 -0.60912758 1.9769365 69
2.772444 -0.74442494 1.9666914 67
3.5869009 -0.96311784 2.0298221 11
4.4644785 -1.199592 1.9560646 8
5.7217846 -1.5384978 1.8303988 99
5.9439254 -1.5982281 1.2600452 75
5.9581561 -1.6031697 0.64578539 81
2.0657036 -0.55736428 1.9861088 79
2.503865 -0.67605811 1.9720063 73
3.1025672 -0.83771515 1.9733303 70
3.9311967 -1.0621879 1.9699289 57
5.2567906 -1.4213415 1.9833575 18
5.7242804 -1.5488147 1.5209804 100
5.9367294 -1.607409 0.94895172 88
5.9598355 -1.6147819 0.34275761 84
0.030122392 -0.0086894566 1.9991974 34
0.31074563 -0.085983217 2.0502162 101
0.39716861 -0.10891379 2.0034087 89
0.58613366 -0.16032404 1.9886441 84
0.79062855 -0.21612453 1.99051 81
1.0125933 -0.27662092 1.9901714 87
1.2601892 -0.34426531 1.9912933 84
1.6007042 -0.43729457 2.0626228 52
0.12076211 -0.034636781 2.0060561 35
0.22014488 -0.064377554 2.0927773 40
0.49075723 -0.13523987 1.9960775 95
0.68471551 -0.18845218 1.9854547 89
0.89823937 -0.24689442 1.9891212 96
1.1332699 -0.3115029 1.9926107 95
1.400442 -0.38494655 1.9972607 35
1.7369184 -0.47744077 2.0310817 55
1.9722388 -0.53657675 2.088357 37
2.2680049 -0.61704808 1.9769365 69
2.7698288 -0.75409806 1.9666914 67
3.5835176 -0.97563261 2.0298221 10
4.4602642 -1.2151687 1.9560646 8
5.7210078 -1.559723 1.8318081 99
5.943049 -1.6202585 1.2609777 77
5.9573283 -1.6252685 0.64623159 81
2.0637455 -0.5645715 1.9861088 77
2.5014896 -0.68479413 1.9720063 73
3.0996239 -0.84854001 1.9733303 70
3.9274652 -1.0759039 1.9699289 57
5.256351 -1.4409308 1.985 17
5.723526 -1.5700724 1.5221527 99
5.9358578 -1.6294333 0.94964159 86
5.9637976 -1.6382223 0.34316069 84
0.030091878 -0.0087945499 1.9991974 32
0.31119174 -0.087277412 2.0551555 101
0.396786 -0.11029951 2.0034087 89
0.58557045 -0.16236904 1.9886441 84
0.78986937 -0.21888301 1.99051 81
1.0116214 -0.28015384 1.9901714 85
1.2589797 -0.34866208 1.9912933 76
1.5868094 -0.43945673 2.0472748 45
0.12064048 -0.035058111 2.0060561 35
0.22043054 -0.065297879 2.0977485 33
0.49028218 -0.13695212 1.9960775 95
0.6840536 -0.19084114 1.9854547 87
0.89737219 -0.25002837 1.9891212 95
1.1321758 -0.3154569 1.9926107 93
1.3961865 -0.38902369 1.9932711 39
1.7319756 -0.48259085 2.0274065 37
1.9703537 -0.54345787 2.088357 36
2.2620845 -0.62392604 1.9737986 71
2.7671797 -0.763762 1.9666914 67
3.58009 -0.98813552 2.0298221 9
4.4559956 -1.2307305 1.9560646 8
5.7201519 -1.5809615 1.8332173 99
5.9468269 -1.6436111 1.262843 77
5.9612184 -1.6487086 0.64712399 81
2.0617621 -0.57177192 1.9861088 77
2.4990842 -0.6935218 1.9720063 75
3.092489 -0.85820168 1.9707979 69
3.9236856 -1.0896068 1.9699289 57
5.2558398 -1.4605347 1.9866428 14
5.7226934 -1.5913439 1.523325 99
5.9396763 -1.6527985 0.95102125 84
5.9628558 -1.6603701 0.34336221 84
0.030060995 -0.0088995369 1.9991974 32
0.31163248 -0.088575736 2.0600948 100
0.39639857 -0.11168388 2.0034087 91
0.5850001 -0.16441208 1.9886441 84
0.78910053 -0.22163884 1.99051 79
1.0106373 -0.28368339 1.9901714 87
1.2577549 -0.35305464 1.9912933 61
1.5760059 -0.44239375 2.0357642 45
0.12051736 -0.035479009 2.0060561 33
0.22020128 -0.066066921 2.0977485 17
0.48980114 -0.1386627 1.9960775 95
0.68338323 -0.19322777 1.9854547 87
0.89649391 -0.25315925 1.9891212 95
1.1310678 -0.31940696 1.9926107 91
1.39482 -0.39389485 1.9932711 42
1.727018 -0.48771223 2.0237315 37
1.9684447 -0.55033237 2.088357 33
2.2598927 -0.63181841 1.9737986 71
2.7644968 -0.77341652 1.9666914 66
3.5766189 -1.0006262 2.0298221 9
4.4516726 -1.2462772 1.9560646 8
5.7192173 -1.6022129 1.8346263 99
5.9457836 -1.6656843 1.2637757 77
5.9602222 -1.6708513 0.64757019 82
2.0597537 -0.57896531 1.9861088 79
2.4966481 -0.702241 1.9720063 75
3.0894744 -0.86899132 1.9707979 69
3.9198582 -1.1032963 1.9699289 57
5.2598009 -1.4814326 1.9899282 14
5.7217822 -1.6126288 1.5244973 98
5.9434028 -1.6762104 0.9524008 84
5.961832 -1.6825311 0.34356374 84
0.030029746 -0.0090044159 1.9991974 32
0.31206799 -0.089878216 2.0650342 97
0.39600632 -0.11306689 2.0034087 91
0.58442271 -0.16645312 1.9886441 84
0.78832203 -0.22439197 1.99051 81
1.0096411 -0.28720945 1.9901714 89
1.2565149 -0.35744286 1.9912933 48
1.5806192 -0.44964677 2.0434382 42
0.12039278 -0.035899479 2.0060561 32
0.21996932 -0.066835172 2.0977485 9
0.48931411 -0.14037156 1.9960775 95
0.68270457 -0.19561204 1.9854547 89
0.89560473 -0.25628707 1.9891212 95
1.1274385 -0.32263565 1.9883448 95
1.3905388 -0.39793208 1.9892817 51
1.7187864 -0.49187222 2.016381 35
1.9630804 -0.55622786 2.0848522 31
2.2576735 -0.63970304 1.9737986 71
2.7617803 -0.78306174 1.9666914 67
3.5475316 -1.0058541 2.0159142 10
4.4428349 -1.2605433 1.9541916 8
5.7182055 -1.6234772 1.8360356 98
5.9493837 -1.6891122 1.2656409 76
5.9591446 -1.6930071 0.64801645 83
2.0577202 -0.58615166 1.9861088 77
2.4941814 -0.71095163 1.9720063 75
3.0864222 -0.87977028 1.9707979 69
3.915983 -1.1169724 1.9699289 56
5.2591386 -1.5010798 1.9915709 14
5.7254653 -1.6352614 1.5268419 98
5.942277 -1.6983073 0.95309067 86
5.9607267 -1.7047055 0.34376529 84
0.029998131 -0.0091091841 1.9991974 32
0.31175238 -0.090966985 2.0650342 99
0.3956092 -0.11444853 2.0034087 89
0.58383805 -0.16849209 1.9886441 86
0.78753394 -0.22714238 1.99051 81
1.0086323 -0.290732 1.9901714 89
1.2552596 -0.36182675 1.9912933 28
1.597523 -0.46048924 2.0664597 45
0.12026674 -0.036319509 2.0060561 30
0.21973467 -0.067602597 2.0977485 8
0.48882115 -0.14207874 1.9960775 93
0.68201762 -0.19799393 1.9854547 89
0.8947047 -0.25941175 1.9891212 95
1.1263055 -0.32656917 1.9883448 91
1.3891413 -0.40278351 1.9892817 55
1.7138027 -0.49692473 2.0127058 35
1.9611267 -0.56307691 2.0848522 28
2.2554266 -0.64757997 1.9737986 69
2.7590301 -0.79269737 1.9666914 67
3.518451 -1.0108908 2.0020061 10
4.4384074 -1.2760441 1.9541916 8
5.721724 -1.6460805 1.8388541 97
5.9481721 -1.7112273 1.2665735 73
5.9627695 -1.7165536 0.64890885 82
2.0556617 -0.5933308 1.9861088 77
2.4916847 -0.71965361 1.9720063 75
3.0833325 -0.89053851 1.9707979 69
3.9120603 -1.1306349 1.9699289 56
5.2629395 -1.5220525 1.9948562 11
5.7243915 -1.6565882 1.5280142 98
5.9458256 -1.7217941 0.95447028 84
5.9595375 -1.7268921 0.34396681 84
0.029966153 -0.0092138406 1.9991974 31
0.31217805 -0.092275076 2.0699732 99
0.39520732 -0.11582875 2.0034087 89
0.58324635 -0.17052907 1.9886441 86
0.78673625 -0.22988999 1.99051 81
1.0076113 -0.29425099 1.9901714 89
1.2566903 -0.3669951 1.9954264 14
1.6082152 -0.46965766 2.0818074 45
0.12013923 -0.036739096 2.0060561 29
0.21949735 -0.068369195 2.0977485 8
0.48832223 -0.14378418 1.9960775 93
0.68132234 -0.20037341 1.9854547 89
0.8937937 -0.26253325 1.9891212 95
1.1251587 -0.33049873 1.9883448 91
1.3877269 -0.40763009 1.9892817 57
1.7088052 -0.50194854 2.0090308 37
1.9591494 -0.56991911 2.0848522 27
