# .PCD v0.7 - Point Cloud Data file format
VERSION 0.7
FIELDS x y z intensity
SIZE 4 4 4 4
TYPE F F F F
COUNT 1 1 1 1
WIDTH 1462
HEIGHT 1
VIEWPOINT 0 0 0 1 0 0 0
POINTS 1462
DATA ascii
-0.74051404 -0.91315871 0.43529528 5
nan nan nan 0
nan nan nan 0
-1.3726317 -1.6896336 2.0193572 12
-0.74855238 -0.92110169 0.94778651 17
-0.77876383 -0.95827281 0.81094664 28
-0.76510859 -0.94113439 0.64815581 35
-0.7571758 -0.93104458 0.50658387 9
nan nan nan 0
nan nan nan 0
nan nan nan 0
-0.020185906 -0.023987377 1.9991974 73
-0.19995856 -0.24294539 2.0008237 95
nan nan nan 0
-0.38667479 -0.47262913 1.9981875 88
-0.47685257 -0.58304358 1.8340242 39
-0.47486573 -0.58081311 1.4415889 34
-0.6291765 -0.76954144 1.5325361 55
-1.0138024 -1.2399609 1.9935577 74
-0.080370903 -0.095804684 1.9960728 88
-0.14244431 -0.16803716 2.0082631 89
-0.3246848 -0.39532232 2.0057559 88
-0.45275244 -0.55161476 1.9948403 93
-0.4775207 -0.58219576 1.6200527 39
-0.53364557 -0.65061659 1.4465711 31
-0.69744498 -0.85030931 1.5304893 93
-1.1187389 -1.3639276 1.9906548 69
-1.2537667 -1.5367346 2.0287795 13
-0.7402032 -0.90726376 1.0261899 4
-0.85536337 -1.0480402 0.97153914 35
-0.76284003 -0.93467212 0.71781921 35
-0.7569527 -0.92712831 0.57189339 36
-0.76797432 -0.94029266 0.44656888 10
nan nan nan 0
nan nan nan 0
-1.3714268 -1.6761612 2.0093827 14
-0.75688326 -0.92473882 0.95367283 21
-0.79575735 -0.97222972 0.82360876 17
-0.76838911 -0.93845797 0.64815581 35
-0.78436023 -0.95762295 0.51972532 32
nan nan nan 0
nan nan nan 0
nan nan nan 0
-0.020240843 -0.023883879 1.9941976 71
-0.2008054 -0.24224594 2.0008237 96
nan nan nan 0
-0.3883222 -0.47127649 1.9981875 86
-0.47640049 -0.5783596 1.8248191 39
-0.47536734 -0.57730258 1.4372003 35
-0.63185883 -0.76734054 1.5325361 57
-1.0160867 -1.2339398 1.9897208 73
-0.080704831 -0.095523551 1.9960728 86
-0.14268282 -0.1671333 2.0032918 91
-0.32686448 -0.39515576 2.0105951 88
-0.4546752 -0.55003101 1.9948403 93
-0.47677606 -0.57716739 1.611051 39
-0.53591335 -0.64874977 1.4465711 30
-0.70040888 -0.84786952 1.5304893 95
-1.1234931 -1.3600142 1.9906548 66
-1.2704437 -1.5461255 2.0463023 12
-0.75572288 -0.91971296 1.0418788 4
-0.86167181 -1.0482785 0.97428066 34
-0.76891112 -0.935426 0.72013724 27
-0.77196211 -0.93880355 0.57938552 32
-0.78953725 -0.95983559 0.45502403 24
nan nan nan 0
nan nan nan 0
-1.3725196 -1.6655998 2.002733 16
-0.7652486 -0.92832899 0.95955914 18
-0.81559998 -0.98940605 0.83880329 17
nan nan nan 0
-0.832775 -1.0095229 0.54436564 31
-0.92820257 -1.1248034 0.44244829 5
nan nan nan 0
nan nan nan 0
-0.020324092 -0.02381308 1.9941976 71
-0.20115168 -0.24094717 1.9958843 95
nan nan nan 0
-0.38996491 -0.4699181 1.9981875 84
-0.47716907 -0.57518953 1.8202167 39
-0.47585025 -0.57379568 1.4328116 35
-0.63453346 -0.76513028 1.5325361 61
-1.0224342 -1.2328532 1.9935577 69
-0.081037782 -0.095241256 1.9960728 88
-0.14326535 -0.1666342 2.0032918 91
-0.32904702 -0.3949787 2.0154345 91
-0.45659238 -0.54844052 1.9948403 93
-0.47739506 -0.57382554 1.6065502 39
-0.53817469 -0.64687514 1.4465711 29
-0.70336425 -0.84541953 1.5304893 93
-1.1282337 -1.3560841 1.9906548 61
-1.289475 -1.5581659 2.0673294 11
-0.75644672 -0.91407037 1.038741 4
-0.86532575 -1.0452642 0.97428066 34
nan nan nan 0
-0.7811482 -0.9432441 0.58313155 7
-0.8173669 -0.98662782 0.4662976 25
-0.99655116 -1.2029169 0.38804534 5
nan nan nan 0
-1.3735555 -1.6550516 1.9960833 14
-0.76848441 -0.92565215 0.95955914 14
-0.82180262 -0.98987013 0.84133577 16
-0.96340072 -1.1600138 0.78452927 15
-0.84836513 -1.0211393 0.5509364 32
-0.92590958 -1.1140802 0.44010365 4
-0.83889562 -1.0090246 0.27500173 4
-0.82723367 -0.99464446 0.14586191 10
-0.02040709 -0.02374199 1.9941976 71
-0.20199153 -0.24024357 1.9958843 95
nan nan nan 0
-0.39160287 -0.46855402 1.9981875 84
-0.47792134 -0.57202125 1.8156141 39
-0.47785029 -0.57213104 1.4328116 35
-0.63720047 -0.76291066 1.5325361 63
-1.0267315 -1.2292765 1.9935577 69
-0.081369743 -0.094957799 1.9960728 88
-0.14384614 -0.16613311 2.0032918 91
-0.33204076 -0.39575481 2.0251129 95
-0.45850402 -0.54684335 1.9948403 93
-0.47799653 -0.57048643 1.6020494 40
-0.53875434 -0.64299363 1.4423051 28
-0.70631105 -0.84295917 1.5304893 91
-1.1329604 -1.3521377 1.9906548 54
-1.2994728 -1.5591346 2.0743387 10
-0.75963289 -0.91142434 1.038741 4
-0.86896914 -1.0422373 0.97428066 34
nan nan nan 0
nan nan nan 0
-0.83309942 -0.99850285 0.47193438 25
-1.0007441 -1.1994309 0.38804534 5
-0.92528683 -1.1085992 0.22233224 6
-1.3769298 -1.6473818 1.9927584 13
-0.76652533 -0.91676223 0.95367283 8
-0.83078372 -0.99361032 0.84640062 12
-0.98200315 -1.1740503 0.79501951 15
-0.85495496 -1.0217937 0.55257905 32
-0.92979282 -1.1108413 0.44010365 4
-0.81379956 -0.97191781 0.2687934 3
-0.83070058 -0.9917509 0.14586191 10
-0.020489842 -0.023670612 1.9941976 71
-0.2028289 -0.23953702 1.9958843 95
nan nan nan 0
-0.39323604 -0.46718425 1.9981875 88
-0.47865725 -0.56885469 1.8110116 39
-0.47830227 -0.56862622 1.4284229 36
-0.63985962 -0.76068175 1.5325361 68
-1.0310162 -1.2256851 1.9935577 62
-0.081700712 -0.094673187 1.9960728 88
-0.14407377 -0.16522799 1.9983203 93
-0.33423203 -0.3955541 2.029952 96
-0.46041006 -0.54523963 1.9948403 93
-0.47717607 -0.56548584 1.5930477 40
-0.5409956 -0.64110911 1.4423051 27
-0.7092492 -0.84048855 1.5304893 89
-1.1376734 -1.3481746 1.9906548 50
-1.3072 -1.5573204 2.0778432 9
-0.76280969 -0.9087671 1.038741 4
-0.87260187 -1.0391977 0.97428066 34
nan nan nan 0
nan nan nan 0
-0.83966601 -0.99926156 0.47334358 29
-1.0049249 -1.1959304 0.38804534 6
-0.94517308 -1.1244234 0.22456327 4
-1.3802667 -1.6397083 1.9894335 13
nan nan nan 0
-0.83702409 -0.9940021 0.84893304 8
-1.0065632 -1.194913 0.80970585 16
-0.86155957 -1.0224143 0.55422175 32
-0.93366474 -1.107589 0.44010365 5
-0.81718719 -0.96907121 0.2687934 3
-0.84060007 -0.99648255 0.14626497 9
-0.020572342 -0.023598945 1.9941976 71
-0.2041681 -0.23941863 2.0008237 96
nan nan nan 0
-0.39486444 -0.46580875 1.9981875 86
-0.47811383 -0.56419945 1.8018064 39
-0.48028424 -0.56695318 1.4284229 36
-0.64251101 -0.75844359 1.5325361 70
-1.0352883 -1.2220788 1.9935577 59
-0.082030676 -0.09438742 1.9960728 88
-0.14464964 -0.16472408 1.9983203 93
-0.33724117 -0.3963007 2.0396304 96
-0.46231049 -0.54362917 1.9948403 95
-0.4777368 -0.56215733 1.5885469 39
-0.54154122 -0.63722944 1.4380392 26
-0.71217877 -0.83800769 1.5304893 91
-1.1423724 -1.3441952 1.9906548 49
-1.3126283 -1.552748 2.0778432 9
-0.76597726 -0.9060989 1.038741 4
-0.87352401 -1.0329525 0.97153914 34
nan nan nan 0
nan nan nan 0
-0.84314901 -0.99632442 0.47334358 26
-1.0217863 -1.2074142 0.39177582 6
-0.96839881 -1.1439229 0.22724053 4
-1.3835672 -1.6320319 1.9861088 13
nan nan nan 0
-0.8432771 -0.99436235 0.85146546 8
-1.0048559 -1.1844704 0.80550975 18
-0.86817878 -1.0230013 0.55586439 32
-0.94696248 -1.1154394 0.44362059 4
-0.8301819 -0.97753668 0.27086285 4
-0.8505426 -1.001157 0.14666803 7
-0.020654593 -0.023526991 1.9941976 73
-0.20500258 -0.2387045 2.0008237 95
nan nan nan 0
-0.39648801 -0.46442756 1.9981875 86
-0.47881204 -0.56104106 1.7972039 39
-0.48226035 -0.56527323 1.4284229 36
-0.64698094 -0.75833696 1.5366691 70
-1.0395478 -1.2184575 1.9935577 54
-0.082359657 -0.094100505 1.9960728 86
-0.14522375 -0.16421816 1.9983203 93
-0.339441 -0.39607611 2.0444696 96
-0.46420532 -0.5420121 1.9948403 93
-0.47686404 -0.55717736 1.5795453 39
-0.54376227 -0.63533527 1.4380392 25
-0.71509957 -0.83551669 1.5304893 89
-1.1470575 -1.3401995 1.9906548 49
-1.3180404 -1.5481565 2.0778432 8
-0.77165896 -0.90638369 1.0418788 4
-0.87712431 -1.0298971 0.97153914 34
nan nan nan 0
-0.95959818 -1.1263328 0.68614835 6
-0.84973347 -0.99702644 0.47475278 26
-1.0228084 -1.2001015 0.39084318 5
-1.0176195 -1.1935911 0.23348749 3
-1.3892556 -1.6271924 1.9861088 20
nan nan nan 0
-0.84674299 -0.9914127 0.85146546 9
-1.0178288 -1.1913074 0.81180394 29
-0.87481272 -1.0235544 0.5575071 31
-0.95400906 -1.1158215 0.44479293 4
-0.91405946 -1.0687186 0.28810823 4
-0.85403204 -0.998182 0.14666803 6
-0.02073659 -0.02345475 1.9941976 71
-0.20583457 -0.23798744 2.0008237 95
nan nan nan 0
-0.39810672 -0.46304074 1.9981875 86
-0.47822061 -0.5564031 1.7879989 39
-0.48579192 -0.56540346 1.4328116 36
-0.64962417 -0.75607395 1.5366691 72
-1.0437948 -1.2148215 1.9935577 52
-0.082687624 -0.093812443 1.9960728 86
-0.14615169 -0.1641085 2.0032918 91
-0.34164339 -0.39584097 2.049309 96
-0.46609446 -0.54038841 1.9948403 95
-0.47738427 -0.55385989 1.5750444 39
-0.5459767 -0.63343322 1.4380392 25
-0.71801168 -0.83301532 1.5304893 84
-1.1517287 -1.3361872 1.9906548 49
-1.3234363 -1.5435464 2.0778432 7
-0.77481812 -0.90368462 1.0418788 5
-0.87799168 -1.0236551 0.96879762 35
nan nan nan 0
-0.95748639 -1.1159396 0.68240231 8
-0.85633308 -0.99769455 0.47616199 22
-1.0301907 -1.2002515 0.39177582 5
-1.0217798 -1.1900318 0.23348749 3
-1.3973616 -1.6251644 1.9894335 34
nan nan nan 0
-0.85300976 -0.99171942 0.85399795 9
-1.0249411 -1.1911874 0.81390196 32
-0.88454175 -1.0276529 0.56079245 31
-0.94838345 -1.1014345 0.44127598 3
-1.0050467 -1.1668299 0.30673325 3
-0.86077237 -0.99897951 0.14686957 13
-0.020847803 -0.023414401 1.9991974 71
-0.20666406 -0.23726748 2.0008237 95
nan nan nan 0
-0.39972064 -0.46164826 1.9981875 86
-0.4788813 -0.55325335 1.7833964 39
-0.48776254 -0.56370431 1.4328116 37
-0.65225935 -0.7538017 1.5366691 70
-1.0480289 -1.2111704 1.9935577 45
-0.083014585 -0.093523234 1.9960728 86
-0.14672364 -0.16359733 2.0032918 91
-0.34302303 -0.39464602 2.049309 96
-0.46797794 -0.53875816 1.9948403 91
-0.47645953 -0.54890102 1.5660427 39
-0.54818445 -0.63152361 1.4380392 26
-0.72091508 -0.83050394 1.5304893 78
-1.1563858 -1.3321588 1.9906548 49
-1.3288162 -1.5389173 2.0778432 7
-0.77796781 -0.90097445 1.0418788 5
-0.88155961 -1.0205841 0.96879762 35
nan nan nan 0
-0.96440697 -1.1160983 0.68427533 8
-0.86294764 -0.99832857 0.47757116 22
-1.0375865 -1.2003644 0.39270842 5
-1.0324423 -1.1939919 0.23437989 4
-1.4030261 -1.6202768 1.9894335 42
nan nan nan 0
-0.85082084 -0.9822185 0.84893304 10
-1.0380095 -1.1978924 0.82019615 34
-0.89121675 -1.0281273 0.56243515 31
nan nan nan 0
-1.0123585 -1.1670555 0.30742308 3
-0.86425418 -0.99596882 0.14686957 12
-0.020929407 -0.023341488 1.9991974 71
-0.20749101 -0.23654465 2.0008237 97
nan nan nan 0
-0.40132964 -0.46025014 1.9981875 88
-0.47952583 -0.55010569 1.7787938 39
-0.48972732 -0.56199831 1.4328116 37
-0.65488666 -0.75152034 1.5366691 70
-1.0543566 -1.2099217 1.9973947 42
-0.083340541 -0.0932329 1.9960728 86
-0.14729382 -0.16308418 2.0032918 89
-0.34439853 -0.39344627 2.049309 96
-0.46871951 -0.53582251 1.9901476 81
-0.47693935 -0.54559499 1.5615419 39
-0.55210209 -0.6315698 1.4423051 27
-0.72380966 -0.82798243 1.5304893 78
-1.1632603 -1.3306667 1.99433 50
-1.3365202 -1.5369607 2.0813477 7
-0.78366256 -0.90119088 1.0450165 5
-0.88786113 -1.0206555 0.97153914 35
-0.966281 -1.1107998 0.85690075 4
-0.96525377 -1.1092279 0.68240231 8
-0.86957699 -0.99892861 0.47898036 26
-1.0449955 -1.2004404 0.39364105 5
-1.0398742 -1.1941363 0.23482609 4
-1.4086733 -1.6153696 1.9894335 66
nan nan nan 0
-0.85141021 -0.97599375 0.84640062 9
-1.0481528 -1.2011008 0.82439226 30
-0.90101153 -1.0321254 0.5657205 31
nan nan nan 0
-1.0490067 -1.2008096 0.31432122 4
-0.87101299 -0.9967078 0.14707109 13
-0.021010758 -0.023268288 1.9991974 75
-0.20831543 -0.23581895 2.0008237 96
nan nan nan 0
-0.40293378 -0.45884648 1.9981875 86
-0.47886536 -0.54549223 1.7695888 39
-0.49168605 -0.56028533 1.4328116 37
-0.65564978 -0.74711472 1.5325361 80
-1.0585736 -1.206234 1.9973947 39
-0.08385957 -0.0931563 2.0010643 88
-0.14786218 -0.16256905 2.0032918 88
-0.34576979 -0.39224166 2.049309 96
-0.47058702 -0.53418314 1.9901476 66
-0.47740194 -0.54229236 1.557041 39
-0.55602664 -0.63159627 1.4465711 29
-0.72669548 -0.8254509 1.5304893 74
-1.1678981 -1.326598 1.99433 50
-1.3395274 -1.5296029 2.0778432 7
-0.78936827 -0.90137857 1.0481544 5
-0.8941738 -1.0206954 0.97428066 35
-0.96723318 -1.1040878 0.85458273 5
-0.9721753 -1.1093383 0.68427533 5
-0.87622112 -0.99949455 0.48038957 27
-1.0524178 -1.200479 0.39457369 5
-1.0473198 -1.1942434 0.23527232 5
-1.4143034 -1.6104425 1.9894335 69
-0.84471738 -0.96152955 1.0154792 4
-0.84912103 -0.96653813 0.84133577 9
-1.0613272 -1.2076621 0.83068639 17
-0.91396302 -1.0396141 0.57064855 31
nan nan nan 0
-1.0531919 -1.1971407 0.31432122 3
-0.87448686 -0.99366128 0.14707109 12
-0.02109185 -0.023194805 1.9991974 73
-0.20913732 -0.23509035 2.0008237 96
nan nan nan 0
-0.404533 -0.45743716 1.9981875 86
-0.47947252 -0.54235363 1.7649863 39
-0.49363878 -0.55856568 1.4328116 37
-0.65825367 -0.74482155 1.5325361 80
-1.0627776 -1.2025316 1.9973947 39
-0.084184237 -0.092863008 2.0010643 88
-0.14842875 -0.16205192 2.0032918 88
-0.34630179 -0.39009175 2.0444696 96
-0.47130349 -0.5312463 1.9854547 40
-0.47640252 -0.53736353 1.5480394 39
-0.56687886 -0.63940901 1.4679009 31
-0.72957242 -0.82290918 1.5304893 67
-1.1725217 -1.3225132 1.99433 50
-1.3472176 -1.5275925 2.0813477 7
-0.79508477 -0.90153718 1.0512922 6
-0.90049762 -1.0207034 0.97702211 35
-0.9359104 -1.0608393 0.82676637 5
-0.97604167 -1.1059381 0.68427533 4
-0.88287967 -1.0000262 0.48179877 27
-1.0598528 -1.2004806 0.39550629 4
-1.0580753 -1.1980457 0.23616472 16
-1.4199164 -1.6054959 1.9894335 66
-0.85074699 -0.96160233 1.0184224 4
-0.84677613 -0.95711029 0.83627087 9
-1.0745599 -1.2141459 0.83698058 11
-0.93323863 -1.0540966 0.57886201 30
nan nan nan 0
-1.0606483 -1.1971636 0.31501105 3
-0.87795001 -0.99060273 0.14707109 12
-0.021168651 -0.023124732 1.9991974 71
-0.20991577 -0.23439552 2.0008237 98
nan nan nan 0
-0.40604764 -0.45609319 1.9981875 88
-0.4799695 -0.53930134 1.7603837 39
-0.49548835 -0.55692565 1.4328116 37
-0.66072005 -0.74263459 1.5325361 80
-1.0667596 -1.1990006 1.9973947 40
-0.084475562 -0.092598073 2.0010643 88
-0.14893714 -0.16158481 2.0032918 88
-0.34752557 -0.38900185 2.0444696 96
-0.47182083 -0.52847582 1.980762 37
-0.47673178 -0.53415602 1.5435386 39
-0.57594264 -0.64530861 1.4849645 34
-0.7322973 -0.82048529 1.5304893 63
-1.1766707 -1.3188231 1.99433 52
-1.3522758 -1.5231167 2.0813477 9
-0.80065453 -0.90180677 1.0544299 7
-0.90665406 -1.0208379 0.97976357 36
-0.93353933 -1.051105 0.82213032 6
-0.98258972 -1.1063324 0.68614835 4
-0.88920331 -1.0008339 0.48320794 28
-1.063828 -1.1969594 0.39550629 4
-1.0653514 -1.1982522 0.23661095 13
-1.4252324 -1.6007785 1.9894335 62
-0.85930771 -0.96481264 1.0243087 4
-0.84977877 -0.95444542 0.83627087 16
-1.0813874 -1.2141532 0.83907861 8
-0.94911152 -1.0652634 0.58543277 19
nan nan nan 0
-1.0644041 -1.1938256 0.31501105 3
-0.8810578 -0.9878397 0.14707109 10
-0.021219224 -0.023019034 1.9941976 71
-0.21073267 -0.23366135 2.0008237 97
nan nan nan 0
-0.40763727 -0.45467299 1.9981875 88
-0.47924116 -0.53471297 1.7511787 39
-0.49742937 -0.55519265 1.4328116 37
-0.66330826 -0.74032372 1.5325361 80
-1.0709385 -1.1952696 1.9973947 40
-0.084814377 -0.092287838 2.0010643 88
-0.14952837 -0.16103785 2.0032918 88
-0.34894902 -0.3877255 2.0444696 96
-0.47260055 -0.52545989 1.9760692 37
-0.47713768 -0.53086907 1.5390377 39
-0.58516532 -0.65105289 1.5020282 38
-0.73515683 -0.81792414 1.5304893 55
-1.1814965 -1.3145015 1.99433 52
-1.3575842 -1.5183871 2.0813477 11
-0.8037976 -0.89900643 1.0544299 9
-0.91299957 -1.0207838 0.98250502 37
-0.92538887 -1.0346316 0.81285822 9
-0.99900281 -1.1165432 0.69364047 4
-0.896065 -1.0011427 0.48461714 28
-1.0712758 -1.1968988 0.39643893 4
-1.0728495 -1.1982362 0.23705715 13
-1.4308116 -1.5957936 1.9894335 56
-0.87076694 -0.97083426 1.0331382 4
-0.85327131 -0.9513244 0.83627087 27
-1.0858302 -1.2101816 0.83907861 4
-0.99086261 -1.1039506 0.60514492 16
nan nan nan 0
-1.0720817 -1.1936007 0.31570089 4
-0.88801157 -0.98832005 0.14727263 10
-0.021299446 -0.022944827 1.9941976 71
-0.21154703 -0.23292434 2.0008237 97
nan nan nan 0
-0.40922189 -0.45324734 1.9981875 86
-0.47979575 -0.53158665 1.7465762 39
-0.49936432 -0.55345291 1.4328116 37
-0.66588837 -0.73800379 1.5325361 80
-1.0751041 -1.1915241 1.9973947 40
-0.084938966 -0.091779023 1.9960728 86
-0.15008959 -0.16051491 2.0032918 91
-0.35030028 -0.38650507 2.0444696 96
-0.47327343 -0.52252805 1.9713765 38
-0.47606498 -0.52597117 1.530036 39
-0.59618521 -0.65867406 1.5233579 42
-0.74002999 -0.81758744 1.5344788 53
-1.1838026 -1.3078558 1.9906548 50
-1.3604896 -1.5109886 2.0778432 13
-0.80953556 -0.89908814 1.0575677 12
-0.91935569 -1.0206975 0.98524648 37
-0.90231013 -1.0017692 0.791996 12
-1.0122041 -1.1233815 0.69925964 6
-0.90597796 -1.0051355 0.48743552 28
-1.0754472 -1.1931521 0.39643893 4
-1.0836955 -1.2018813 0.23794958 13
-1.4363732 -1.5907894 1.9894335 54
-0.87685978 -0.9707883 1.0360813 4
-0.85658687 -0.94834006 0.83627087 25
nan nan nan 0
-0.97571003 -1.0794649 0.59528887 11
nan nan nan 0
-1.0795636 -1.1935238 0.31639069 4
-0.89145595 -0.98521429 0.14727263 9
-0.021379409 -0.022870338 1.9941976 71
-0.21235879 -0.23218448 2.0008237 98
nan nan nan 0
-0.4108015 -0.45181614 1.9981875 86
-0.47902027 -0.5270173 1.7373712 39
-0.49968207 -0.54993337 1.4284229 37
-0.66846049 -0.73567498 1.5325361 80
-1.0792569 -1.1877639 1.9973947 40
-0.085258819 -0.091481976 1.9960728 86
-0.15064898 -0.15999003 2.0032918 91
-0.35164732 -0.38527995 2.0444696 95
-0.47393155 -0.51959789 1.9666837 39
-0.47643101 -0.52269679 1.5255351 39
-0.60023773 -0.65851647 1.5276239 55
-0.74287939 -0.81499934 1.5344788 51
-1.1883607 -1.3037156 1.9906548 55
-1.3633604 -1.5035886 2.0743387 15
-0.81528395 -0.89914072 1.0607054 8
-0.92291296 -1.0174819 0.98524648 37
-0.88794285 -0.97892505 0.77808791 27
-1.025465 -1.1301411 0.70487869 11
-0.91592968 -1.0090714 0.49025393 27
-1.0796056 -1.1893909 0.39643893 4
-1.0912321 -1.2017779 0.23839578 13
-1.4419172 -1.585766 1.9894335 52
-0.87752336 -0.96473151 1.0331382 4
-0.86279303 -0.94853359 0.83880329 15
nan nan nan 0
-0.97947216 -1.0760524 0.59528887 11
nan nan nan 0
-1.0903927 -1.1970701 0.31777033 4
-0.89825451 -0.9857893 0.14747415 8
-0.021459114 -0.022795569 1.9941976 69
-0.21316798 -0.23144181 2.0008237 99
-0.27280346 -0.29755747 1.9642467 4
-0.41237617 -0.4503794 1.9981875 86
-0.47953784 -0.52390087 1.7327687 39
-0.50159866 -0.54818577 1.4284229 37
-0.67102438 -0.7333371 1.5325361 78
-1.0833962 -1.1839895 1.9973947 40
-0.08557763 -0.091183811 1.9960728 86
-0.15120651 -0.15946318 2.0032918 93
-0.35299006 -0.38405013 2.0444696 95
-0.47340757 -0.51539868 1.9572983 39
-0.47677997 -0.51942617 1.5210344 39
-0.60605997 -0.66025984 1.5361557 63
-0.74775791 -0.81462157 1.5384684 51
-1.1929042 -1.2995595 1.9906548 61
-1.3661957 -1.4961867 2.0708342 13
-0.8210426 -0.89916402 1.0638433 8
-0.92927903 -1.0173415 0.98798794 36
-0.85549998 -0.93656766 0.75027156 28
-1.035658 -1.1333994 0.70862478 11
-0.93562984 -1.0235724 0.49729988 13
-1.0837506 -1.1856151 0.39643893 4
-1.0987809 -1.2016368 0.23884201 14
-1.4499661 -1.5834773 1.9927584 50
-0.87815529 -0.95868194 1.030195 3
-0.8631866 -0.94233692 0.83627087 12
nan nan nan 0
-0.98960447 -1.0795892 0.59857422 6
nan nan nan 0
-1.0945647 -1.1932567 0.31777033 4
-0.90169013 -0.98264784 0.14747415 5
-0.021538552 -0.022720525 1.9941976 71
-0.21397457 -0.23069629 2.0008237 98
-0.27245897 -0.29510731 1.9544563 4
-0.41394573 -0.44893718 1.9981875 88
-0.48003957 -0.5207873 1.7281661 40
-0.5035091 -0.54643154 1.4284229 36
-0.67358017 -0.73099035 1.5325361 78
-1.0875225 -1.1802005 1.9973947 42
-0.085895397 -0.090884537 1.9960728 86
-0.15176222 -0.15893441 2.0032918 91
-0.35432848 -0.3828156 2.0444696 95
-0.47403196 -0.51247627 1.9526054 39
-0.477112 -0.51615965 1.5165335 39
-0.60659075 -0.65622514 1.5318898 61
-0.75059694 -0.81200647 1.5384684 46
-1.1974334 -1.2953876 1.9906548 64
-1.3689961 -1.4887836 2.0673294 11
-0.82681119 -0.89915806 1.066981 14
-0.93282461 -1.0140916 0.98798794 35
-0.85876405 -0.93357569 0.75027156 33
-1.0490253 -1.1400115 0.71424389 13
nan nan nan 0
-1.0912094 -1.185439 0.39737153 4
-1.1097156 -1.2051208 0.23973441 14
-1.4554845 -1.5784063 1.9927584 42
nan nan nan 0
-0.86939389 -0.94248706 0.83880329 9
nan nan nan 0
-0.99336684 -1.0761284 0.59857422 6
nan nan nan 0
-1.1121644 -1.2039794 0.32052958 4
-0.90850526 -0.98316342 0.14767569 4
-0.021617729 -0.022645202 1.9941976 71
-0.21477853 -0.22994798 2.0008237 98
-0.2741808 -0.29490009 1.9593515 5
-0.41551033 -0.44748953 1.9981875 86
-0.47919622 -0.51624477 1.7189611 39
-0.50541347 -0.54467064 1.4284229 34
-0.67612773 -0.72863466 1.5325361 74
-1.0894549 -1.1740471 1.9935577 42
-0.086212121 -0.090584144 1.9960728 88
-0.15231611 -0.15840369 2.0032918 91
-0.35566258 -0.38157645 2.0444696 91
-0.47346544 -0.50829303 1.9432199 39
-0.47742701 -0.51289707 1.5120326 39
-0.59821564 -0.64265013 1.5062943 57
-0.75753397 -0.8137936 1.5464473 53
-1.2019477 -1.2911999 1.9906548 57
-1.3693385 -1.4787625 2.0603204 9
-0.82994479 -0.89626652 1.066981 12
-0.93635875 -1.0108291 0.98798794 35
-0.86803889 -0.93707246 0.75490761 34
-1.0593003 -1.1431435 0.71798992 16
nan nan nan 0
-1.0886619 -1.1744177 0.39550629 4
-1.1173017 -1.2048916 0.24018061 15
-1.4609854 -1.5733162 1.9927584 39
nan nan nan 0
-0.88441533 -0.95208138 0.84893304 5
nan nan nan 0
-0.9906866 -1.0657367 0.59528887 5
nan nan nan 0
-1.1163602 -1.2000899 0.32052958 4
-0.91193157 -0.97998619 0.14767569 11
-0.021696646 -0.022569604 1.9941976 71
-0.2155799 -0.22919686 2.0008237 97
-0.27660045 -0.29542765 1.969142 5
-0.41706979 -0.4460364 1.9981875 86
-0.47966117 -0.51314175 1.7143586 40
-0.50731164 -0.54290313 1.4284229 31
-0.67866695 -0.72627008 1.5325361 72
-1.0935464 -1.1702371 1.9935577 43
-0.086527795 -0.090282656 1.9960728 88
-0.15286809 -0.15787104 2.0032918 91
-0.35699239 -0.38033265 2.0444696 88
-0.47405621 -0.50537866 1.9385271 38
-0.47772509 -0.50963861 1.5075319 39
-0.59332061 -0.63294709 1.4892305 48
-0.77067643 -0.82213861 1.5663948 74
-1.2087663 -1.2894697 1.99433 47
-1.3720599 -1.4713656 2.0568159 9
-0.83306825 -0.89336401 1.066981 8
-0.93988156 -1.0075545 0.98798794 35
-0.87734854 -0.94051576 0.75954366 34
-1.0727729 -1.1496071 0.72360903 14
nan nan nan 0
-1.122923 -1.2029281 0.40389988 4
-1.1248997 -1.2046241 0.24062684 14
-1.4664683 -1.5682069 1.9927584 38
nan nan nan 0
nan nan nan 0
-1.0737236 -1.14741 0.81390196 4
nan nan nan 0
nan nan nan 0
-1.1273139 -1.203414 0.32190922 4
-0.92559516 -0.98773342 0.14828028 14
-0.021775296 -0.022493731 1.9941976 71
-0.2158442 -0.22787899 1.9958843 95
-0.27763 -0.29446033 1.969142 5
-0.41862422 -0.44457784 1.9981875 88
-0.47877127 -0.50861931 1.7051535 39
-0.50920361 -0.54112893 1.4284229 29
-0.681198 -0.72389668 1.5325361 67
-1.0976247 -1.1664127 1.9935577 49
-0.086842418 -0.089980073 1.9960728 88
-0.15341824 -0.15733647 2.0032918 91
-0.35831782 -0.3790842 2.0444696 84
-0.47344735 -0.50121194 1.9291415 38
-0.47800627 -0.50638437 1.503031 39
-0.58478469 -0.61949325 1.4636348 46
-0.78802413 -0.83478522 1.5943214 97
-1.2132599 -1.2852427 1.99433 37
-1.3747462 -1.4639676 2.0533113 9
-0.83618164 -0.89045066 1.066981 4
-0.94339281 -1.0042676 0.98798794 34
-0.88669264 -0.94390547 0.76417971 31
-1.0767791 -1.1458554 0.72360903 14
nan nan nan 0
-1.1338441 -1.2061591 0.40576512 3
-1.1325094 -1.2043178 0.24107304 13
-1.4719335 -1.5630783 1.9927584 38
-0.89699817 -0.9522118 1.0360813 4
nan nan nan 0
-1.096398 -1.163473 0.82649034 7
nan nan nan 0
nan nan nan 0
nan nan nan 0
-0.98047006 -1.0389992 0.15130325 10
-0.021853682 -0.022417584 1.9941976 71
-0.21663831 -0.22712415 1.9958843 95
-0.28146073 -0.29644278 1.9887229 6
-0.42017356 -0.44311386 1.9981875 88
-0.47919971 -0.50552714 1.700551 39
-0.51108938 -0.53934824 1.4284229 28
-0.68372065 -0.72151446 1.5325361 63
-1.1016895 -1.1625742 1.9935577 52
-0.087155968 -0.089676395 1.9960728 88
-0.15396652 -0.15679999 2.0032918 91
-0.3596389 -0.3778311 2.0444696 82
-0.47400457 -0.49830595 1.9244488 39
-0.4782705 -0.50313437 1.4985301 39
-0.58694357 -0.61744821 1.4636348 48
-0.81377554 -0.85605818 1.6382058 99
-1.2200745 -1.2834568 1.9980052 25
-1.3749473 -1.4539775 2.0463023 10
nan nan nan 0
-0.94976616 -1.0040061 0.99072945 32
-0.89607108 -0.94724125 0.76881576 13
-1.0552807 -1.115152 0.70862478 12
nan nan nan 0
nan nan nan 0
-1.1367062 -1.2003573 0.24107304 13
-1.4773806 -1.5579308 1.9927584 37
-0.90588021 -0.9549399 1.0419677 4
nan nan nan 0
-1.0942043 -1.1530546 0.82229424 6
-1.0538137 -1.1101036 0.62157184 4
nan nan nan 0
nan nan nan 0
-1.0288305 -1.0826503 0.15392315 7
-0.021931799 -0.022341166 1.9941976 73
-0.2174298 -0.22636656 1.9958843 91
-0.27967894 -0.29251498 1.969142 6
-0.42171773 -0.44164446 1.9981875 88
-0.47961238 -0.50243819 1.6959485 39
-0.51296896 -0.53756088 1.4284229 29
-0.68623507 -0.71912342 1.5325361 59
-1.1035277 -1.1564023 1.9897208 57
-0.087468475 -0.089371614 1.9960728 88
-0.1545129 -0.15626158 2.0032918 91
-0.3609556 -0.37657341 2.0444696 80
-0.47454736 -0.49540213 1.9197561 39
-0.47851792 -0.49988869 1.4940293 38
-0.59991622 -0.62669933 1.4892305 57
nan nan nan 0
-1.2268915 -1.281639 2.0016804 17
-1.377555 -1.4465866 2.0427978 11
-1.6209093 -1.7021301 1.9769365 27
-0.95326507 -1.0006847 0.99072945 31
-0.89937216 -0.94410759 0.76881576 7
-1.0207887 -1.0711886 0.68614835 4
nan nan nan 0
nan nan nan 0
-1.1443263 -1.1999862 0.24151924 13
-1.4828098 -1.5527642 1.9927584 36
-0.91758418 -0.96054006 1.0507972 4
nan nan nan 0
-1.0982226 -1.1492282 0.82229424 6
-1.0544189 -1.1030047 0.61992908 12
nan nan nan 0
nan nan nan 0
-1.1016859 -1.151242 0.15795377 5
-0.02200965 -0.022264473 1.9941976 71
-0.21821865 -0.22560622 1.9958843 90
-0.28069833 -0.2915369 1.969142 5
-0.42325678 -0.44016972 1.9981875 86
-0.47865543 -0.49794418 1.6867434 39
-0.51484227 -0.53576702 1.4284229 29
-0.68874109 -0.71672362 1.5325361 53
-1.1075575 -1.1525432 1.9897208 59
-0.087779902 -0.089065745 1.9960728 88
-0.15505742 -0.15572128 2.0032918 93
-0.36226785 -0.37531117 2.0444696 77
-0.47507563 -0.49250066 1.9150633 39
-0.47723714 -0.49507964 1.4850277 38
-0.60934031 -0.63211197 1.5062943 72
-0.99334931 -1.0304563 1.9693341 55
-1.2360638 -1.28223 2.0090308 16
-1.3776594 -1.4366213 2.0357888 11
-1.6295353 -1.6992714 1.9800742 39
-0.95964688 -1.0003686 0.99347091 31
-0.90572906 -0.94415939 0.77113378 7
-0.98921275 -1.0308249 0.66554499 4
nan nan nan 0
nan nan nan 0
-1.1450586 -1.1923925 0.24107304 12
-1.4882209 -1.5475788 1.9927584 35
-0.91812927 -0.95441824 1.0478541 4
nan nan nan 0
-1.0833453 -1.1257662 0.80970585 7
-1.0418869 -1.0823064 0.61171567 8
nan nan nan 0
nan nan nan 0
-1.1507648 -1.1941558 0.16057366 4
-0.022087235 -0.022187509 1.9941976 69
-0.21900484 -0.22484313 1.9958843 86
-0.27958772 -0.28836241 1.9544563 5
-0.42479071 -0.43868959 1.9981875 88
-0.47903186 -0.49486661 1.6821408 39
-0.51670933 -0.5339666 1.4284229 28
-0.69123876 -0.71431506 1.5325361 46
-1.1115739 -1.1486702 1.9897208 64
-0.088090263 -0.088758796 1.9960728 86
-0.15560004 -0.15517908 2.0032918 91
-0.36357573 -0.37404433 2.0444696 71
-0.47558948 -0.48960155 1.9103705 39
-0.47744551 -0.4918482 1.4805268 37
-0.62425923 -0.64308017 1.5361557 82
-1.0053375 -1.0356328 1.9852921 46
-1.2428932 -1.28034 2.0127058 16
-1.3801885 -1.4292383 2.032284 12
-1.6354569 -1.6935729 1.9800742 56
-0.96313304 -0.99701267 0.99347091 31
-0.91209739 -0.94417846 0.77345181 13
-0.9251526 -0.95735836 0.62621135 19
nan nan nan 0
-1.1642309 -1.2043378 0.40949559 4
-1.1561376 -1.1955481 0.24196547 11
-1.493614 -1.5423745 1.9927584 35
-0.92707998 -0.95701391 1.0537404 4
nan nan nan 0
-1.0177832 -1.0502746 0.76354867 7
-1.0423715 -1.0752722 0.61007297 6
nan nan nan 0
-1.158489 -1.1942199 0.32397866 3
nan nan nan 0
-0.02216069 -0.022114143 1.9941976 71
-0.21974923 -0.22411564 1.9958843 86
-0.27627489 -0.2830621 1.9250849 4
-0.42624313 -0.43727851 1.9981875 86
-0.47794327 -0.49047703 1.6729357 39
-0.5184772 -0.53225017 1.4284229 26
-0.69360369 -0.71201891 1.5325361 44
-1.1153771 -1.1449776 1.9897208 68
-0.088368669 -0.088481605 1.9960728 86
-0.15608679 -0.15468949 2.0032918 91
-0.36474901 -0.37290028 2.0444696 71
-0.47591892 -0.48687103 1.9056778 39
-0.47755188 -0.48870474 1.4760261 36
-0.62638825 -0.64100653 1.5361557 89
-1.0108727 -1.0344489 1.9892817 48
-1.2658615 -1.2958295 2.0421071 16
-1.3799487 -1.4195393 2.025275 13
-1.6437776 -1.6909317 1.983212 71
-0.96934915 -0.99681109 0.99621236 31
-0.91522336 -0.94114864 0.77345181 12
-0.92815566 -0.95444721 0.62621135 30
nan nan nan 0
-1.1476631 -1.1793478 0.40389988 3
-1.1670436 -1.1988444 0.24285787 10
-1.4987205 -1.537413 1.9927584 34
-0.93024844 -0.95393437 1.0537404 5
nan nan nan 0
-0.94186181 -0.96583968 0.71109736 29
-1.0424469 -1.0686119 0.60843033 6
nan nan nan 0
-1.1449385 -1.1728563 0.32052958 3
nan nan nan 0
-0.022237748 -0.022036653 1.9941976 71
-0.2205302 -0.2233472 1.9958843 80
nan nan nan 0
-0.42776689 -0.43578801 1.9981875 86
-0.47828409 -0.48741129 1.6683333 39
-0.52200961 -0.53214735 1.4328116 24
-0.69608486 -0.70959347 1.5325361 40
-1.1193669 -1.1410773 1.9897208 69
-0.0888981 -0.088360913 2.0010643 84
-0.1566527 -0.15411636 2.0032918 89
-0.36611331 -0.3715609 2.0444696 62
-0.47648937 -0.4838939 1.900985 39
-0.47619995 -0.48393041 1.4670243 35
-0.62862206 -0.63881618 1.5361557 89
-1.0144775 -1.0309139 1.9892817 51
-1.2801141 -1.3008467 2.0568078 15
-1.3799061 -1.4096169 2.018266 14
-1.6496701 -1.6851835 1.983212 71
-0.97282273 -0.99342132 0.99621236 31
-0.92160261 -0.94111341 0.77576983 12
-0.92840344 -0.9477272 0.62433827 30
nan nan nan 0
-1.1517729 -1.1753345 0.40389988 3
-1.1747073 -1.1983196 0.2433041 9
-1.5040778 -1.5321722 1.9927584 34
-0.93640471 -0.95356536 1.0566835 6
nan nan nan 0
-0.94221491 -0.95914346 0.70899934 27
-1.0463564 -1.0647838 0.60843033 9
nan nan nan 0
-1.1492296 -1.1686519 0.32052958 3
nan nan nan 0
-0.022314534 -0.021958895 1.9941976 71
-0.22185646 -0.22312689 2.0008237 73
nan nan nan 0
-0.4292855 -0.43429214 1.9981875 86
-0.47860929 -0.48434919 1.6637307 39
-0.52386397 -0.53032202 1.4328116 23
-0.69855762 -0.7071594 1.5325361 39
-1.1233432 -1.137163 1.9897208 69
-0.089205995 -0.088050067 2.0010643 86
-0.1571897 -0.1535686 2.0032918 88
-0.3674081 -0.37028065 2.0444696 58
-0.47696048 -0.48100233 1.8962922 39
-0.47635338 -0.48071828 1.4625236 33
-0.63084811 -0.6366179 1.5361557 91
-1.0180699 -1.0273664 1.9892817 55
-1.3037375 -1.3156348 2.0862093 14
-1.3823146 -1.4022517 2.0147614 14
-1.6555425 -1.6794147 1.983212 69
-0.97922051 -0.99299669 0.99895382 31
-0.92799288 -0.94104511 0.77808791 13
-0.95124018 -0.96428263 0.63557649 29
nan nan nan 0
-1.180021 -1.1957821 0.41042823 3
nan nan nan 0
-1.5094171 -1.5269126 1.9927584 34
-0.94256961 -0.95316494 1.0596267 6
nan nan nan 0
-0.94555718 -0.95584857 0.70899934 25
-1.0567104 -1.0678384 0.61171567 9
nan nan nan 0
-1.1637557 -1.1751897 0.32259902 3
nan nan nan 0
-0.022391047 -0.021880869 1.9941976 71
-0.22263397 -0.2223511 2.0008237 66
nan nan nan 0
-0.43079883 -0.43279102 1.9981875 86
-0.47891903 -0.48129076 1.6591282 39
-0.52571195 -0.52849013 1.4328116 21
-0.69903719 -0.70272166 1.5284033 38
-1.1273057 -1.1332349 1.9897208 73
-0.08951281 -0.087738134 2.0010643 86
-0.15772481 -0.15301898 2.0032918 86
-0.36958748 -0.36988562 2.049309 55
-0.47741723 -0.47811341 1.8915994 39
-0.47649023 -0.47751114 1.4580227 33
-0.63306642 -0.63441199 1.5361557 89
-1.0216498 -1.0238066 1.9892817 57
-1.3131114 -1.3158755 2.0935595 14
-1.3821759 -1.3923562 2.0077524 16
-1.6613947 -1.6736256 1.983212 67
-0.98268074 -0.98957258 0.99895382 31
-0.93439376 -0.9409436 0.78040594 17
-0.96113473 -0.96753424 0.63932252 16
-1.0890908 -1.0959591 0.54380333 3
-1.191113 -1.1986244 0.41229346 3
nan nan nan 0
-1.5147377 -1.5216345 1.9927584 34
-0.94589102 -0.94986892 1.0596267 6
nan nan nan 0
-0.94568497 -0.94932687 0.70690131 24
nan nan nan 0
nan nan nan 0
-1.1678507 -1.1711203 0.32259902 3
nan nan nan 0
-0.022467293 -0.021802574 1.9941976 71
-0.22396058 -0.22211963 2.0057628 57
-0.06739793 -0.067190446 0.48099291 4
-0.43230689 -0.43128461 1.9981875 86
-0.47921321 -0.47823608 1.6545256 39
-0.52924907 -0.52834439 1.4372003 18
-0.70148593 -0.70027727 1.5284033 38
-1.1312547 -1.1292931 1.9897208 74
-0.089818522 -0.08742515 2.0010643 86
-0.15825799 -0.15246746 2.0032918 86
-0.3708764 -0.36859331 2.049309 44
-0.47663593 -0.47401035 1.882214 39
-0.47661051 -0.47430882 1.4535218 33
-0.63527709 -0.63219827 1.5361557 87
-1.0252174 -1.020234 1.9892817 59
-1.3176967 -1.3112838 2.0935595 14
-1.3845065 -1.3850008 2.0042477 15
-1.6672266 -1.667816 1.983212 60
-0.98908567 -0.98909307 1.0016953 31
-0.9439379 -0.94394159 0.78504199 15
-0.99401426 -0.99367106 0.65617985 7
-1.0929098 -1.0921508 0.54380333 3
-1.2196127 -1.2187653 0.41882181 3
-1.1977614 -1.1965115 0.2446427 6
-1.5200399 -1.5163378 1.9927584 34
-0.95206302 -0.94941545 1.0625699 6
nan nan nan 0
-0.96506429 -0.96204084 0.71739161 11
nan nan nan 0
nan nan nan 0
-1.1578954 -1.153059 0.31983978 4
nan nan nan 0
-0.022543259 -0.021724015 1.9941976 69
-0.22473456 -0.22133651 2.0057628 50
-0.06618432 -0.065522619 0.47120249 5
-0.43380976 -0.42977297 1.9981875 84
-0.47949195 -0.47518522 1.6499232 39
-0.53109014 -0.52649373 1.4372003 18
-0.70392603 -0.69782436 1.5284033 38
-1.1351898 -1.1253372 1.9897208 74
-0.090123147 -0.087111086 2.0010643 86
-0.15878922 -0.15191412 2.0032918 86
-0.37305599 -0.36817992 2.054148 39
-0.47705975 -0.47113115 1.8775212 39
-0.47671422 -0.47111154 1.449021 33
-0.63747996 -0.62997687 1.5361557 87
-1.0287724 -1.0166491 1.9892817 61
-1.3222659 -1.3066761 2.0935595 14
-1.3868026 -1.3776464 2.0007432 15
-1.6757997 -1.6647296 1.9863497 42
-0.99253219 -0.98563445 1.0016953 29
-0.95351416 -0.94688421 0.78967798 6
-0.97115606 -0.96406674 0.6411956 7
-1.0864999 -1.0781918 0.53957576 5
-1.216886 -1.2075803 0.41695657 3
-1.2090017 -1.1993377 0.24553514 5
-1.5226705 -1.5083944 1.9894335 34
-0.95537138 -0.94608629 1.0625699 6
nan nan nan 0
-1.1587163 -1.1470494 0.84117669 4
nan nan nan 0
nan nan nan 0
-1.0774038 -1.0654395 0.3032842 9
nan nan nan 0
-0.022618953 -0.021645194 1.9941976 71
-0.22606142 -0.22109385 2.0107021 45
-0.065686271 -0.064577654 0.46630725 5
-0.43530726 -0.42825606 1.9981875 84
-0.48114774 -0.4735086 1.6499232 39
-0.53463203 -0.52631736 1.4415889 18
-0.70635766 -0.69536293 1.5284033 38
-1.1391109 -1.1213678 1.9897208 74
-0.090426676 -0.086795971 2.0010643 86
-0.15931854 -0.15135892 2.0032918 89
-0.37433892 -0.36687547 2.054148 38
-0.4774693 -0.46825477 1.8728285 39
-0.47680151 -0.46791932 1.4445202 37
-0.63967514 -0.62774789 1.5361557 80
-1.0323149 -1.0130519 1.9892817 65
-1.3243991 -1.2996781 2.0898843 14
-1.3890641 -1.3702925 1.9972385 16
-1.6816006 -1.6588699 1.9863497 23
-0.99596667 -0.98216385 1.0016953 21
-0.96943122 -0.95599276 0.79895008 6
-0.94810367 -0.93463457 0.62621135 9
-1.0970907 -1.0811272 0.54239416 8
-1.2280915 -1.2102212 0.41882181 5
-1.209633 -1.1916152 0.24508893 5
-1.5279266 -1.5030701 1.9894335 35
-0.96155 -0.94557989 1.065513 6
nan nan nan 0
-1.1659498 -1.1461794 0.84327471 4
nan nan nan 0
nan nan nan 0
-1.0775828 -1.0582024 0.30259436 6
-1.1335436 -1.1127679 0.15775225 7
-0.022694372 -0.021566108 1.9941976 71
-0.22683179 -0.2203034 2.0107021 39
-0.067368984 -0.065769978 0.4760977 6
-0.43679953 -0.42673394 1.9981875 84
-0.48140046 -0.47046083 1.6453207 39
-0.53646588 -0.52444798 1.4415889 17
-0.70878059 -0.69289309 1.5284033 39
-1.1430182 -1.1173849 1.9897208 73
-0.090729088 -0.086479798 2.0010643 86
-0.15984592 -0.15080187 2.0032918 91
-0.37561727 -0.36556655 2.054148 36
-0.47786462 -0.46538135 1.8681357 38
-0.4768723 -0.46473226 1.4400194 38
-0.64186251 -0.62551117 1.5361557 80
-1.0358448 -1.0094423 1.9892817 67
-1.3289278 -1.2950472 2.0898843 14
-1.3912914 -1.36294 1.9937341 16
nan nan nan 0
-0.99341404 -0.97283024 0.99621236 11
-0.98542339 -0.96500158 0.80822217 6
-0.97123706 -0.95077735 0.6374495 15
nan nan nan 0
-1.2393302 -1.2127984 0.42068705 6
-1.217345 -1.1908683 0.24553514 4
-1.533164 -1.4977274 1.9894335 36
-0.96484476 -0.94221765 1.065513 6
nan nan nan 0
nan nan nan 0
-1.071806 -1.0459354 0.61007297 5
nan nan nan 0
-1.0812701 -1.0544345 0.30259436 6
-1.1302662 -1.1018294 0.15734917 8
-0.022769514 -0.021486757 1.9941976 71
-0.22759943 -0.21951027 2.0107021 36
-0.066866837 -0.06482596 0.47120249 7
-0.43828645 -0.42520663 1.9981875 80
-0.48163769 -0.46741694 1.6407181 39
-0.54001236 -0.52424085 1.4459776 16
-0.71321398 -0.69237471 1.5325361 39
-1.149212 -1.1156211 1.9935577 71
-0.091030411 -0.086162567 2.0010643 88
-0.16037135 -0.15024298 2.0032918 93
-0.37779564 -0.36512727 2.0589874 32
-0.47700518 -0.46131125 1.8587501 38
-0.47692665 -0.46155041 1.4355185 39
-0.64404202 -0.62326688 1.5361557 74
-1.0393622 -1.0058204 1.9892817 67
-1.3334402 -1.2904004 2.0898843 13
-1.3960404 -1.358075 1.9937341 18
nan nan nan 0
nan nan nan 0
-1.0205464 -0.99244177 0.83140242 4
-1.0144393 -0.98615849 0.65992594 13
-1.0942906 -1.0634117 0.53816658 4
nan nan nan 0
-1.2214947 -1.1866117 0.24553514 4
-1.5383826 -1.4923666 1.9894335 37
-0.96812785 -0.93884403 1.065513 6
nan nan nan 0
nan nan nan 0
-1.0754504 -1.0421876 0.61007297 5
nan nan nan 0
-1.0778292 -1.0437635 0.30121472 6
-1.1269264 -1.0909278 0.15694612 13
-0.022844376 -0.021407146 1.9941976 71
-0.22836426 -0.21871448 2.0107021 33
-0.067092709 -0.06459216 0.47120249 9
-0.43976805 -0.42367414 1.9981875 69
-0.48185956 -0.46437725 1.6361156 39
-0.541839 -0.52235276 1.4459776 16
-0.71562648 -0.68988097 1.5325361 39
-1.1530992 -1.1116028 1.9935577 69
-0.091330625 -0.085844286 2.0010643 86
-0.16089481 -0.14968227 2.0032918 93
-0.37816024 -0.36293533 2.054148 27
-0.47736788 -0.45844805 1.8540574 37
-0.47853488 -0.4598828 1.4355185 40
-0.64621377 -0.62101489 1.5361557 67
-1.0428668 -1.0021862 1.9892817 70
-1.340381 -1.2880871 2.0935595 13
-1.4007725 -1.3531936 1.9937341 29
nan nan nan 0
nan nan nan 0
-1.0208179 -0.98579597 0.8290844 4
-1.1045949 -1.0663261 0.70862478 13
nan nan nan 0
nan nan nan 0
nan nan nan 0
-1.5435827 -1.4869875 1.9894335 37
-0.97139913 -0.9354589 1.065513 9
nan nan nan 0
-0.99805558 -0.96078962 0.72788185 11
-1.0926927 -1.0515255 0.61664373 11
nan nan nan 0
-1.088605 -1.0468601 0.30259436 8
nan nan nan 0
-0.022918962 -0.021327274 1.9941976 71
-0.22912633 -0.217916 2.0107021 29
-0.06805402 -0.065060899 0.4760977 10
-0.44124424 -0.42213646 1.9981875 67
-0.48206612 -0.46134168 1.6315131 38
-0.54365903 -0.52045816 1.4459776 15
-0.71803027 -0.68737876 1.5325361 39
-1.1569725 -1.107571 1.9935577 69
-0.091629714 -0.085524954 2.0010643 88
-0.16141631 -0.14911972 2.0032918 91
-0.38306716 -0.36508405 2.0735047 17
-0.47771639 -0.45558801 1.8493646 37
-0.4801372 -0.45820957 1.4355185 40
-0.64837754 -0.6187554 1.5361557 63
-1.0463587 -0.99853981 1.9892817 72
-1.344869 -1.2834005 2.0935595 13
-1.4054875 -1.3482958 1.9937341 36
-1.128704 -1.0827736 1.3431054 15
nan nan nan 0
-1.0178576 -0.97609389 0.82444835 4
-1.2220942 -1.1715405 0.77230787 23
nan nan nan 0
nan nan nan 0
nan nan nan 0
-1.5487638 -1.4815903 1.9894335 38
-0.97757989 -0.93485588 1.0684562 6
nan nan nan 0
-0.98500007 -0.94161916 0.71739161 25
-1.0997708 -1.0509676 0.61828643 11
nan nan nan 0
-1.0958343 -1.0464739 0.3032842 11
nan nan nan 0
-0.022993268 -0.021247143 1.9941976 71
-0.22988562 -0.21711487 2.0107021 20
-0.068280712 -0.064822949 0.4760977 12
-0.44271508 -0.42059368 1.9981875 58
-0.48084116 -0.45696452 1.622308 38
-0.54547244 -0.51855731 1.4459776 15
-0.72042531 -0.68486816 1.5325361 39
-1.1608315 -1.1035256 1.9935577 64
-0.0919277 -0.085204586 2.0010643 86
-0.16193585 -0.14855537 2.0032918 91
-0.38159841 -0.3611511 2.0589874 10
-0.47805077 -0.45273116 1.8446718 37
-0.48173374 -0.45653081 1.4355185 40
-0.65053344 -0.6164884 1.5361557 57
-1.0498378 -0.99488121 1.9892817 70
-1.3493407 -1.2786982 2.0935595 12
-1.4076031 -1.3409216 1.9902295 40
nan nan nan 0
nan nan nan 0
-1.0244668 -0.97559017 0.82676637 4
-1.2328917 -1.1736603 0.77605397 20
nan nan nan 0
-6.860775 -6.5288668 1.8895638 2
nan nan nan 0
-1.553926 -1.4761752 1.9894335 38
-0.98083723 -0.93143779 1.0684562 6
nan nan nan 0
-0.99815559 -0.94754916 0.72368574 14
-1.1342627 -1.0763788 0.63307059 12
nan nan nan 0
-1.1030737 -1.04605 0.303974 12
nan nan nan 0
-0.023067296 -0.021166751 1.9941976 69
-0.23064208 -0.21631108 2.0107021 13
-0.069247715 -0.06528239 0.48099291 13
-0.44526696 -0.42007059 2.0029593 42
-0.48101246 -0.45394245 1.6177055 38
-0.5472793 -0.51665008 1.4459776 15
-0.72281158 -0.68234921 1.5325361 39
-1.1646764 -1.0994668 1.9935577 62
-0.092011169 -0.084687449 1.9960728 86
-0.16245343 -0.14798921 2.0032918 91
-0.38285676 -0.35981685 2.0589874 4
-0.47711387 -0.44869527 1.8352863 36
-0.48332441 -0.45484647 1.4355185 39
-0.65268147 -0.61421388 1.5361557 51
-1.0533043 -0.99121052 1.9892817 70
-1.353796 -1.2739803 2.0935595 12
-1.4122752 -1.3360001 1.9902295 52
-1.1305795 -1.0695169 1.3368298 31
nan nan nan 0
-1.0375227 -0.9811399 0.83372045 4
-1.2437187 -1.1757189 0.7798 17
nan nan nan 0
-6.9013748 -6.5217476 1.8942268 3
nan nan nan 0
-1.5590695 -1.4707419 1.9894335 38
-0.98702323 -0.93078154 1.0713993 6
nan nan nan 0
nan nan nan 0
nan nan nan 0
nan nan nan 0
-1.1139289 -1.0489833 0.30535364 11
nan nan nan 0
-0.023141041 -0.021086102 1.9941976 69
-0.23025829 -0.21444583 2.0008237 7
-0.069475174 -0.065040268 0.48099291 15
-0.44673058 -0.41851377 2.0029593 38
-0.48116857 -0.45092478 1.613103 37
-0.54907936 -0.51473653 1.4459776 16
-0.72518897 -0.67982203 1.5325361 40
-1.1708462 -1.0975872 1.9973947 59
-0.092306219 -0.084365748 1.9960728 86
-0.16296902 -0.14742124 2.0032918 91
nan nan nan 0
-0.47741595 -0.44584933 1.8305935 36
-0.48490921 -0.45315659 1.4355185 38
-0.65482146 -0.6119318 1.5361557 44
-1.0567579 -0.98752773 1.9892817 67
-1.3607118 -1.2715615 2.0972347 13
-1.4169301 -1.3310621 1.9902295 54
-1.1030957 -1.0362453 1.3023143 33
nan nan nan 0
-1.0312526 -0.96841425 0.82676637 5
-1.2511952 -1.1745434 0.78167301 16
-1.1091847 -1.0408691 0.53675735 4
-6.992157 -6.5614853 1.9119467 4
nan nan nan 0
-1.5641937 -1.4652908 1.9894335 38
-0.99321651 -0.93009329 1.0743425 11
nan nan nan 0
nan nan nan 0
nan nan nan 0
nan nan nan 0
-1.1212008 -1.048471 0.30604345 11
-1.1238962 -1.050624 0.15573692 4
-0.023214504 -0.021005198 1.9941976 69
-0.23157601 -0.21416821 2.0057628 3
-0.069701783 -0.064797364 0.48099291 15
-0.44818872 -0.41695184 2.0029593 36
-0.48130947 -0.44791156 1.6085005 37
-0.5508728 -0.51281673 1.4459776 17
-0.7275576 -0.67728651 1.5325361 40
-1.1746705 -1.0934935 1.9973947 57
-0.092600152 -0.084043026 1.9960728 86
-0.16348262 -0.14685147 2.0032918 91
nan nan nan 0
-0.47770402 -0.44300669 1.8259007 36
-0.48648804 -0.45146117 1.4355185 38
-0.65695351 -0.60964233 1.5361557 40
-1.0601985 -0.98383301 1.9892817 63
-1.3651421 -1.2668041 2.0972347 13
-1.4215677 -1.3261081 1.9902295 52
-1.1123992 -1.0376992 1.3085898 32
-1.0138277 -0.94541669 0.99347091 4
-1.0216664 -0.95272303 0.81749427 4
nan nan nan 0
-1.1479081 -1.0696963 0.55084938 17
-7.0042367 -6.5269914 1.9091487 4
nan nan nan 0
-1.569299 -1.4598218 1.9894335 38
-0.99645716 -0.92662066 1.0743425 11
-1.0368575 -0.96418566 0.91730857 3
nan nan nan 0
nan nan nan 0
nan nan nan 0
-1.1321117 -1.0512905 0.30742308 12
-1.1312183 -1.0500933 0.15593846 6
-0.023287684 -0.020924035 1.9941976 69
-0.23117739 -0.21230771 1.9958843 2
-0.069927543 -0.064553663 0.48099291 13
-0.44964141 -0.4153848 2.0029593 35
-0.48143518 -0.44490287 1.6038979 37
-0.55265951 -0.51089072 1.4459776 17
-0.72991735 -0.6747427 1.5325361 39
-1.1784803 -1.0893865 1.9973947 54
-0.09289296 -0.083719283 1.9960728 86
-0.16359533 -0.14592502 1.9983203 93
nan nan nan 0
-0.47797799 -0.44016758 1.8212079 35
-0.48806095 -0.44976026 1.4355185 37
-0.65907753 -0.6073454 1.5361557 39
-1.0636263 -0.9801262 1.9892817 61
-1.3695557 -1.262031 2.0972347 15
-1.4261881 -1.3211377 1.9902295 46
-1.1388614 -1.0549736 1.3336921 29
-1.0201896 -0.94471318 0.99621236 5
-1.0249859 -0.94915098 0.81749427 4
nan nan nan 0
-1.1375506 -1.0526497 0.54521257 10
-7.0666375 -6.5392022 1.9194076 3
nan nan nan 0
-1.5743852 -1.454335 1.9894335 38
-1.0026551 -0.92587882 1.0772856 14
-1.0528862 -0.97225982 0.92743826 5
nan nan nan 0
nan nan nan 0
nan nan nan 0
-1.1539774 -1.0641177 0.31087214 13
-1.1238568 -1.0359799 0.15533386 6
-0.02336058 -0.020842619 1.9941976 69
nan nan nan 0
-0.070152454 -0.064309172 0.48099291 13
-0.45108864 -0.41381279 2.0029593 34
-0.48154581 -0.44189873 1.5992955 36
-0.55443949 -0.50895852 1.4459776 17
-0.73226821 -0.67219079 1.5325361 39
-1.1822757 -1.0852662 1.9973947 50
-0.09318462 -0.083394513 1.9960728 84
-0.1641037 -0.14535306 1.9983203 93
nan nan nan 0
-0.47823805 -0.43733191 1.8165152 34
-0.4912346 -0.44952402 1.4400194 37
-0.66119355 -0.60504109 1.5361557 38
-1.067041 -0.97640753 1.9892817 57
-1.3739526 -1.2572428 2.0972347 16
-1.430791 -1.3161514 1.9902295 44
-1.1625924 -1.0694401 1.3556565 17
-1.0080914 -0.92699474 0.98250502 4
nan nan nan 0
nan nan nan 0
-1.1094264 -1.019459 0.53252977 4
-7.1328244 -6.554379 1.930599 2
nan nan nan 0
-1.5794522 -1.4488306 1.9894335 38
-0.99694365 -0.91417807 1.0684562 9
-1.1007595 -1.009371 0.96289223 4
nan nan nan 0
-1.1076125 -1.0149435 0.61171567 5
nan nan nan 0
nan nan nan 0
-1.1016703 -1.0084376 0.15392315 7
-0.023433194 -0.020760948 1.9941976 71
nan nan nan 0
-0.070376508 -0.064063907 0.48099291 13
-0.45363447 -0.41324139 2.007731 33
-0.48308533 -0.44021514 1.5992955 36
-0.55621266 -0.50702006 1.4459776 17
-0.73461008 -0.66963053 1.5325361 42
-1.1836874 -1.0789731 1.9935577 40
-0.093475156 -0.083068728 1.9960728 86
-0.16461009 -0.14477935 1.9983203 93
nan nan nan 0
-0.47848412 -0.43449983 1.8118224 34
-0.49280077 -0.44780657 1.4400194 36
-0.66330159 -0.60272944 1.5361557 37
-1.0704429 -0.97267693 1.9892817 53
-1.3783329 -1.252439 2.0972347 17
-1.4380096 -1.3135543 1.9937341 39
nan nan nan 0
nan nan nan 0
nan nan nan 0
nan nan nan 0
nan nan nan 0
-7.1919465 -6.562552 1.9399252 2
nan nan nan 0
-1.5872607 -1.4458233 1.9927584 38
nan nan nan 0
nan nan nan 0
nan nan nan 0
-1.1321058 -1.0301406 0.62157184 8
nan nan nan 0
nan nan nan 0
-1.1014867 -1.0012256 0.15372163 5
-0.02350191 -0.020683127 1.9941976 71
nan nan nan 0
-0.070588559 -0.063830182 0.48099291 13
-0.45500237 -0.41173479 2.007731 33
-0.4830941 -0.4372997 1.5946929 36
-0.55789101 -0.50517279 1.4459776 17
-0.73682666 -0.66719079 1.5325361 42
-1.1872588 -1.0750419 1.9935577 40
-0.093735658 -0.082774654 1.9960728 86
-0.16506411 -0.14426151 1.9983203 95
nan nan nan 0
-0.47856563 -0.43183848 1.8071296 33
-0.49589959 -0.44762906 1.4445202 35
-0.66529661 -0.60052651 1.5361557 36
-1.0736625 -0.96912175 1.9892817 51
-1.3797445 -1.2458309 2.0935595 17
-1.4423578 -1.3087784 1.9937341 39
-1.7406662 -1.5794542 1.9769365 13
nan nan nan 0
nan nan nan 0
nan nan nan 0
nan nan nan 0
nan nan nan 0
nan nan nan 0
-1.5920466 -1.4405519 1.9927584 37
nan nan nan 0
nan nan nan 0
-3.0806041 -2.7864742 2.007694 2
-1.2194046 -1.1025937 0.6609962 10
nan nan nan 0
nan nan nan 0
-1.1009191 -0.99441135 0.15352008 5
-0.023573965 -0.020600963 1.9941976 69
nan nan nan 0
-0.070053071 -0.062903397 0.4760977 14
-0.45643681 -0.41014403 2.007731 31
-0.48316464 -0.43430477 1.5900904 35
-0.56143248 -0.5048241 1.4503663 17
-0.73915106 -0.66461468 1.5325361 44
-1.1910043 -1.0708909 1.9935577 39
-0.094038412 -0.082430542 1.9960728 84
-0.16559175 -0.14365554 1.9983203 95
nan nan nan 0
-0.47885972 -0.42893019 1.8024368 32
-0.49745908 -0.44589531 1.4445202 34
-0.6673888 -0.59820062 1.5361557 35
-1.0770389 -0.96536815 1.9892817 44
-1.3817768 -1.2385026 2.0898843 16
-1.4469174 -1.3037357 1.9937341 38
-1.7432767 -1.5707628 1.9737986 12
nan nan nan 0
nan nan nan 0
nan nan nan 0
nan nan nan 0
nan nan nan 0
nan nan nan 0
-1.5970654 -1.4349856 1.9927584 36
-1.0002902 -0.89846182 1.0625699 5
nan nan nan 0
-3.0806658 -2.7660687 2.0013998 2
-1.2972406 -1.1643598 0.69549263 5
nan nan nan 0
-1.1832855 -1.0613322 0.31363142 11
-1.1268747 -1.0103805 0.15472928 5
-0.023645733 -0.020518549 1.9941976 69
nan nan nan 0
-0.070272222 -0.062658474 0.4760977 14
-0.45786572 -0.40854824 2.007731 30
-0.48322013 -0.43131462 1.5854878 34
-0.57391375 -0.5124349 1.4766982 16
-0.74146646 -0.66203058 1.5325361 42
-1.1971266 -1.0688622 1.9973947 38
-0.09432558 -0.082101785 1.9960728 84
-0.1660922 -0.14307664 1.9983203 95
nan nan nan 0
