# .PCD v0.7 - Point Cloud Data file format
VERSION 0.7
FIELDS x y z intensity
SIZE 4 4 4 4
TYPE F F F F
COUNT 1 1 1 1
WIDTH 1354
HEIGHT 1
VIEWPOINT 0 0 0 1 0 0 0
POINTS 1354
DATA ascii
-0.56785178 0.69972253 1.3961488 23
-0.57695055 0.71093869 1.1724515 17
-0.077388078 0.097860955 1.9910811 93
-0.1354223 0.17306854 2.0032918 95
-0.32305586 0.39989376 2.0154345 95
-0.45297131 0.56033933 2.0136113 91
-0.50233245 0.62096882 1.7145702 40
-0.5325051 0.65827298 1.4551029 38
-0.57603073 0.71208435 1.28713 20
-0.57641256 0.71256036 1.0718638 17
-0.58307922 0.71695495 0.98792928 17
-0.57913315 0.71210682 0.82223433 12
-0.59486389 0.73171055 0.70287549 15
-0.5961653 0.73331547 0.58105558 14
-0.58819675 0.72377181 0.46513048 7
nan nan nan 0
nan nan nan 0
nan nan nan 0
-0.59496206 0.73366082 0.92215723 15
-0.58962214 0.72733545 0.76531059 16
-0.58483821 0.72143811 0.63114434 12
-0.5921886 0.73076606 0.52227271 10
-0.59189922 0.73066968 0.41623619 4
nan nan nan 0
nan nan nan 0
nan nan nan 0
-0.019480839 0.024896666 2.0291963 8
-0.19662061 0.2456547 2.0008237 97
-0.25999725 0.32331386 2.0180943 93
-0.38486028 0.47794896 2.007731 84
-0.50312901 0.62462038 1.9490871 40
-0.50078046 0.62149078 1.5293622 38
-0.56364024 0.6995092 1.3920158 22
-0.57044256 0.70795554 1.1647776 17
-0.077046007 0.098130494 1.9910811 91
-0.13481736 0.1735402 2.0032918 93
-0.32165802 0.40101901 2.0154345 95
-0.45101258 0.56191707 2.0136113 91
-0.50288916 0.62611431 1.7235719 40
-0.53020406 0.6601277 1.4551029 38
-0.57354164 0.7140907 1.28713 15
-0.57392174 0.71456808 1.0718638 17
-0.58057296 0.71898586 0.98792928 16
-0.57664388 0.71412408 0.82223433 12
-0.59230614 0.73378259 0.70287549 15
-0.59081936 0.73194474 0.57873756 14
-0.57984442 0.7186048 0.46138442 7
nan nan nan 0
nan nan nan 0
nan nan nan 0
-0.58771348 0.7299158 0.91550756 15
-0.58454531 0.7262404 0.76236743 16
-0.57961315 0.72011667 0.62861192 11
-0.58678901 0.72929263 0.52017468 9
-0.58342564 0.72537154 0.41295084 4
nan nan nan 0
nan nan nan 0
nan nan nan 0
-0.019393817 0.024964513 2.0291963 8
-0.19576193 0.24633951 2.0008237 97
-0.25886708 0.32421947 2.0180943 93
-0.38318959 0.47928947 2.007731 84
-0.50338596 0.62942439 1.9582922 40
-0.50160122 0.62697661 1.5381395 38
-0.55943716 0.69927502 1.3878829 20
-0.56596518 0.70743906 1.1609406 17
-0.076702997 0.098398842 1.9910811 91
-0.13421075 0.17400976 2.0032918 93
-0.32103977 0.40312335 2.0202737 95
-0.4490484 0.56348801 2.0136113 89
-0.50341606 0.63127124 1.7325735 40
-0.52789658 0.66197449 1.4551029 38
-0.56916636 0.71373194 1.2831405 15
-0.57142389 0.7165671 1.0718638 17
-0.57805973 0.72100812 0.98792928 14
-0.57171261 0.71309537 0.81909657 12
-0.58712614 0.73258287 0.70013404 14
-0.58271962 0.72708869 0.57410151 12
-0.58023107 0.72424257 0.46325746 7
-0.57898724 0.72294855 0.36201712 3
-0.57728571 0.72082388 0.26680472 4
nan nan nan 0
-0.5851621 0.7319628 0.91550756 15
-0.58200675 0.72827643 0.76236743 16
-0.57709593 0.72213554 0.62861192 11
-0.58423972 0.73133647 0.52017468 8
-0.57794315 0.72371352 0.41130814 4
-0.56109673 0.70286947 0.30763176 4
-0.56519043 0.70825112 0.21843684 4
-0.59801728 0.74965566 0.13235934 4
-0.019306555 0.025032058 2.0291963 9
-0.19490083 0.24702136 2.0008237 96
-0.25773379 0.32512107 2.0180943 93
-0.38151425 0.48062414 2.007731 84
-0.50361544 0.63423765 1.9674972 39
-0.50089973 0.63059962 1.5425282 38
-0.5552426 0.69902009 1.38375 19
-0.56149828 0.7069 1.1571038 17
-0.076359056 0.098665982 1.9910811 91
-0.13360254 0.17447716 2.0032918 93
-0.31963065 0.4042415 2.0202737 95
-0.44707873 0.56505203 2.0136113 89
-0.50391304 0.63643932 1.7415752 40
-0.52720153 0.66585785 1.4593688 38
-0.56480062 0.71335131 1.279151 16
-0.56681478 0.71589941 1.0681885 17
-0.57331842 0.72023129 0.98442471 14
-0.56921995 0.71508664 0.81909657 11
-0.57935822 0.72808385 0.69465107 14
-0.57741958 0.72565162 0.57178348 11
-0.57769948 0.72626346 0.46325746 7
-0.57646018 0.72496521 0.36201712 4
-0.56559426 0.71129996 0.26400685 5
-0.59174085 0.7444492 0.17815745 4
-0.57796019 0.72815102 0.90885788 15
-0.57694864 0.72713715 0.75942427 15
-0.57189202 0.72076833 0.6260795 11
-0.57886302 0.7298156 0.5180766 8
-0.57247937 0.72202599 0.40966547 5
-0.56769735 0.71625143 0.31114873 5
-0.56271482 0.71021974 0.21843684 5
-0.59229493 0.74782217 0.1321578 6
-0.019219059 0.0250993 2.0291963 9
-0.19403739 0.24770018 2.0008237 96
-0.25659731 0.32601878 2.0180943 93
-0.38075867 0.48312604 2.0125027 84
-0.502608 0.63752604 1.9720999 40
-0.50166249 0.63610661 1.5513054 38
-0.54931408 0.69653487 1.3754841 19
-0.55704206 0.70633835 1.1532668 16
-0.076014183 0.098931924 1.9910811 91
-0.13299268 0.17494246 2.0032918 93
-0.31821766 0.40535483 2.0202737 95
-0.44510362 0.56660914 2.0136113 91
-0.50438005 0.64161873 1.7505769 40
-0.52487403 0.66769409 1.4593688 37
-0.55858195 0.71057957 1.271172 17
-0.56221724 0.71520841 1.0645134 17
-0.56858957 0.71943021 0.9809202 14
-0.56430656 0.71401507 0.8159588 12
-0.57422113 0.72682077 0.69190961 14
-0.57213676 0.7241866 0.56946546 10
-0.5751608 0.7282756 0.46325746 7
-0.56798089 0.71944237 0.35919875 6
-0.55093259 0.69784772 0.26027638 5
-0.58296824 0.73869157 0.17726503 5
-0.57310361 0.72723097 0.90553302 14
-0.57190573 0.72597158 0.75648111 15
-0.56670469 0.71937358 0.62354708 11
-0.57631195 0.73183179 0.5180766 8
-0.56995553 0.72401994 0.40966547 6
-0.56819952 0.72204858 0.31232107 5
-0.56635582 0.71996421 0.21981648 5
-0.5804165 0.73810357 0.13155322 6
-0.019105408 0.025131136 2.0241964 9
-0.19317158 0.248376 2.0008237 95
-0.25545776 0.32691249 2.0180943 89
-0.37906995 0.48445216 2.0125027 84
-0.50278783 0.64235348 1.9813049 40
-0.500916 0.63974017 1.5556941 38
-0.54514462 0.69623238 1.3713511 20
-0.55259675 0.70575434 1.1494299 16
-0.07566838 0.099196665 1.9910811 89
-0.13238122 0.17540564 2.0032918 93
-0.31602758 0.40547097 2.0154345 95
-0.44312307 0.5681594 2.0136113 89
-0.50347716 0.64509213 1.7550777 40
-0.52254009 0.66952217 1.4593688 37
-0.55238944 0.70777297 1.2631929 18
-0.55554569 0.71182132 1.0571631 17
-0.56387335 0.71860504 0.97741562 14
-0.55940765 0.71291792 0.81282103 12
-0.56909978 0.72553056 0.6891681 13
-0.56687111 0.7226935 0.56714743 10
-0.5697546 0.72663063 0.46138442 7
-0.56546605 0.72142053 0.35919875 6
-0.56364506 0.71909732 0.26493949 5
-0.5865292 0.74856216 0.17815745 6
-0.56595922 0.7233448 0.89888322 14
-0.5668779 0.72477967 0.75353795 14
-0.56153417 0.71795148 0.62101465 11
-0.57095844 0.73026359 0.51597857 11
-0.56451672 0.72228432 0.40802279 6
-0.55669814 0.71253681 0.30880409 6
-0.55469465 0.71022803 0.21774703 6
-0.57476205 0.7361871 0.13135168 7
-0.019017566 0.025197674 2.0241964 10
-0.1918287 0.24843369 1.9958843 95
-0.25431505 0.32780218 2.0180943 89
-0.37737659 0.48577243 2.0125027 84
-0.50294 0.64718986 1.99051 44
-0.50162053 0.64526778 1.5644714 38
-0.54098392 0.69590932 1.3672181 21
-0.54816228 0.70514786 1.1455929 16
-0.075496085 0.099691316 1.9960728 89
-0.13176812 0.17586666 2.0032918 95
-0.31461027 0.40657163 2.0154345 95
-0.44113714 0.56970274 2.0136113 89
-0.50388998 0.65028858 1.7640793 40
-0.52019989 0.67134213 1.4593688 37
-0.54622346 0.70493191 1.255214 23
-0.55098116 0.71107638 1.0534879 17
-0.55916983 0.71775562 0.97391111 14
-0.5569157 0.71486628 0.81282103 13
-0.56142545 0.72091466 0.68368518 11
-0.56162298 0.72117251 0.56482941 9
-0.56721473 0.72861505 0.46138442 7
-0.55705184 0.71581805 0.35638034 6
-0.55509782 0.71330702 0.26307425 6
-0.57473922 0.73881269 0.17681882 7
-0.56114 0.72236687 0.89555842 16
-0.56186551 0.72356141 0.75059479 14
-0.55902463 0.71990716 0.62101465 11
-0.56840587 0.73225218 0.51597857 11
-0.55909699 0.72051942 0.40638009 5
-0.5571866 0.71831632 0.3099764 7
-0.55828124 0.71998698 0.21912666 7
-0.57524949 0.74213761 0.13155322 9
-0.018903818 0.025228627 2.0191967 10
-0.19096032 0.24910177 1.9958843 95
-0.25316924 0.32868794 2.0180943 91
-0.37567863 0.48708677 2.0125027 82
-0.50306451 0.65203512 1.999715 42
-0.5008288 0.64891136 1.5688601 38
-0.53855151 0.69779348 1.3672181 22
-0.54373884 0.70451903 1.1417559 16
-0.075147636 0.099954247 1.9960728 89
-0.13115343 0.17632554 2.0032918 95
-0.31242293 0.40666986 2.0105951 93
-0.4391458 0.57123917 2.0136113 91
-0.50294483 0.65376961 1.7685803 40
-0.51785332 0.67315388 1.4593688 37
-0.54192173 0.70444548 1.2512244 25
-0.54642856 0.71030825 1.0498128 18
-0.55447918 0.71688211 0.97040653 16
-0.55203533 0.71372658 0.80968326 14
-0.55634791 0.71956199 0.68094373 11
-0.55639243 0.71962368 0.56251138 9
-0.5618329 0.72692245 0.4595114 8
-0.55161679 0.7139619 0.35497114 6
-0.5526045 0.71524036 0.26307425 8
-0.57215685 0.74081439 0.17681882 9
-0.5563345 0.72136414 0.89223355 17
-0.55686849 0.72231722 0.74765164 15
-0.55387598 0.71843976 0.61848223 12
-0.56307602 0.73063695 0.51388049 11
-0.55657846 0.72246665 0.40638009 5
-0.55171013 0.71640593 0.30880409 8
-0.55576456 0.72193128 0.21912666 9
-0.57265544 0.7441411 0.13155322 13
-0.018815637 0.02529446 2.0191967 10
-0.18961921 0.24914841 1.9909451 95
-0.25202039 0.32956967 2.0180943 93
-0.37397608 0.48839515 2.0125027 82
-0.50197345 0.65533823 2.0043178 39
-0.50147486 0.65445906 1.5776374 38
-0.53440082 0.69743538 1.3630853 25
-0.54127622 0.70641267 1.1417559 17
-0.07497108 0.1004483 2.0010643 89
-0.13053714 0.17678228 2.0032918 93
-0.31100148 0.40775794 2.0105951 91
-0.43714911 0.57276857 2.0136113 89
-0.50330329 0.65898263 1.7775819 40
-0.51550037 0.67495739 1.4593688 37
-0.53945947 0.7063328 1.2512244 27
-0.54394585 0.71221125 1.0498128 22
-0.54980141 0.7159847 0.96690202 17
-0.54954058 0.71564919 0.80968326 16
-0.55383277 0.72149962 0.68094373 14
-0.55387706 0.72156155 0.56251138 14
-0.55646986 0.72520137 0.45763835 9
-0.54620147 0.7120766 0.35356197 6
-0.5501045 0.71716493 0.26307425 10
-0.56653708 0.738855 0.17637262 13
-0.55154282 0.72033662 0.88890874 21
-0.55188704 0.72104686 0.74470848 18
-0.55136478 0.7203688 0.61848223 17
-0.5605222 0.73259801 0.51388049 16
-0.55405319 0.72440505 0.40638009 11
-0.5521583 0.72218871 0.3099764 10
-0.55624837 0.7278015 0.21981648 13
-0.57005447 0.74613553 0.13155322 71
-0.018727228 0.025359984 2.0191967 11
-0.18874837 0.2498088 1.9909451 95
-0.25086841 0.33044738 2.0180943 93
-0.37226897 0.48969761 2.0125027 84
-0.50204796 0.66019672 2.0135226 38
-0.50063783 0.65811235 1.582026 38
-0.53196311 0.69929653 1.3630853 25
-0.53686619 0.70574623 1.1379191 19
-0.074619994 0.10070938 2.0010643 89
-0.12991926 0.17723687 2.0032918 93
-0.30957624 0.40884107 2.0105951 91
-0.43514708 0.57429099 2.0136113 91
-0.50363141 0.66420615 1.7865835 40
-0.51314121 0.67675275 1.4593688 38
-0.53699064 0.7082116 1.2512244 26
-0.53940821 0.71140432 1.0461376 25
-0.54729879 0.71789956 0.96690202 23
-0.54703909 0.71756309 0.80968326 22
-0.55131096 0.72342849 0.68094373 23
-0.551355 0.72349054 0.56251138 22
-0.55112576 0.72345161 0.45576534 31
-0.546619 0.71779543 0.35497114 89
-0.55057389 0.72298884 0.26400685 74
-0.56395453 0.7408281 0.17637262 133
-0.54676515 0.71928459 0.88558388 26
-0.54936671 0.722969 0.74470848 27
-0.55145526 0.72572172 0.62101465 30
-0.55521619 0.73093605 0.51178247 34
-0.55152112 0.72633463 0.40638009 73
-0.54963404 0.72411174 0.3099764 107
-0.55669791 0.73368382 0.22050628 149
-0.56744641 0.74812078 0.13155322 204
-0.018638592 0.025425199 2.0191967 13
-0.18740912 0.24984445 1.9860058 95
-0.24971344 0.33132106 2.0180943 91
-0.37055737 0.49099407 2.0125027 84
-0.49974036 0.66194516 2.0135226 38
-0.50122511 0.66367954 1.5908034 38
-0.53121483 0.70339483 1.3672181 22
-0.53439933 0.70761603 1.1379191 18
-0.074267998 0.10096924 2.0010643 89
-0.1292998 0.17768928 2.0032918 95
-0.30890301 0.41092464 2.0154345 95
-0.4331398 0.5758065 2.0136113 91
-0.5026195 0.66769999 1.7910844 40
-0.51077574 0.67853981 1.4593688 38
-0.53451526 0.71008176 1.2512244 22
-0.53692162 0.71328282 1.0461376 21
-0.54263735 0.71696198 0.9633975 26
-0.54453099 0.71946836 0.80968326 28
-0.54878229 0.72534847 0.68094373 31
-0.54882616 0.7254107 0.56251138 34
-0.54580069 0.72167349 0.45389229 47
-0.54411006 0.71969914 0.35497114 95
-0.55100924 0.72882479 0.26493949 162
-0.56436777 0.74676526 0.17681882 201
-0.54425108 0.72118878 0.88558388 28
-0.54440552 0.72165537 0.74176532 31
-0.5489186 0.72764224 0.62101465 35
-0.55266136 0.73286963 0.51178247 40
-0.55182511 0.73202646 0.40802279 80
-0.55002826 0.72990781 0.31114873 106
-0.55413347 0.73562264 0.22050628 152
-0.56483155 0.75009698 0.13155322 225
-0.018574908 0.025525738 2.0241964 13
-0.18653585 0.2504971 1.9860058 95
-0.24855538 0.33219066 2.0180943 89
-0.3688412 0.4922846 2.0125027 86
-0.49859831 0.66524881 2.0181251 49
-0.50177962 0.66925877 1.5995806 38
-0.5287562 0.70524484 1.3672181 19
-0.53192604 0.70947713 1.1379191 16
-0.073915102 0.10122786 2.0010643 89
-0.12867877 0.17813955 2.0032918 95
-0.30746672 0.41200045 2.0154345 95
-0.43112725 0.57731491 2.0136113 93
-0.50289291 0.6729393 1.800086 40
-0.50840414 0.68031865 1.4593688 38
-0.53203332 0.71194327 1.2512244 17
-0.53442854 0.71515268 1.0461376 18
-0.54013139 0.71885175 0.9633975 23
-0.54201633 0.72136468 0.80968326 27
-0.54624701 0.72725964 0.68094373 31
-0.54629064 0.72732204 0.56251138 34
-0.54327822 0.72357428 0.45389229 38
-0.55023372 0.73310459 0.35919875 89
-0.55141056 0.73467249 0.26587209 143
-0.56474638 0.75271428 0.17726503 190
-0.54173034 0.72308415 0.88558388 24
-0.54188311 0.72355127 0.74176532 27
-0.54637533 0.72955388 0.62101465 28
-0.55009979 0.73479432 0.51178247 31
-0.54926652 0.73394823 0.40802279 31
-0.55038875 0.73571539 0.31232107 77
-0.55156231 0.7375524 0.22050628 116
-0.55622721 0.74406117 0.13115016 200
-0.018485695 0.02559042 2.0241964 16
-0.18519859 0.25052178 1.9810666 93
-0.24739431 0.33305627 2.0180943 87
-0.36712053 0.49356908 2.0125027 86
-0.49627313 0.66698521 2.0181251 69
-0.50087082 0.67292809 1.6039693 38
-0.52629125 0.70708621 1.3672181 18
-0.5294463 0.71132952 1.1379191 16
-0.073561296 0.10148527 2.0010643 89
-0.12836674 0.17902192 2.0082631 95
-0.3060267 0.41307116 2.0154345 95
-0.42910942 0.57881629 2.0136113 93
-0.50313586 0.67818862 1.8090878 40
-0.50758022 0.68418378 1.4636348 39
-0.52774924 0.71137542 1.2472349 17
-0.5319289 0.71701384 1.0461376 17
-0.53761882 0.72073281 0.9633975 22
-0.53949493 0.7232523 0.80968326 19
-0.54370511 0.72916198 0.68094373 17
-0.5437485 0.7292245 0.56251138 16
-0.54074919 0.72546625 0.45389229 11
-0.54480511 0.73117399 0.35778955 22
-0.54884273 0.73659277 0.26587209 29
-0.56806517 0.76266879 0.17815745 110
-0.53697437 0.72197437 0.88225901 20
-0.53935421 0.72543842 0.74176532 18
-0.54125315 0.72799683 0.61848223 14
-0.5475316 0.73671007 0.51178247 13
-0.54951745 0.7396518 0.40966547 7
-0.55071527 0.74153423 0.31349337 29
-0.55488825 0.74742568 0.22188592 62
-0.56255847 0.75803381 0.13175476 121
-0.018396255 0.025654793 2.0241964 16
-0.18432297 0.25116673 1.9810666 91
-0.24623021 0.3339178 2.0180943 81
-0.36539543 0.49484757 2.0125027 84
-0.4939419 0.66871351 2.0181251 82
-0.50136626 0.67852604 1.6127467 38
-0.52381986 0.70891905 1.3672181 17
-0.52505493 0.71059489 1.1340821 16
-0.073206596 0.10174143 2.0010643 89
-0.12774105 0.17946891 2.0082631 95
-0.30458295 0.41413689 2.0154345 95
-0.42708635 0.58031064 2.0136113 91
-0.50334823 0.68344772 1.8180894 39
-0.50518888 0.68595135 1.4636348 38
-0.52526283 0.71321321 1.2472349 19
-0.52741247 0.71613646 1.0424625 17
-0.53297746 0.71973896 0.95989293 20
-0.53465044 0.72200257 0.80654544 18
-0.53866875 0.72769457 0.67820227 15
-0.53856391 0.7275573 0.56019336 13
-0.53821355 0.7273494 0.45389229 10
-0.54224956 0.73307121 0.35778955 21
-0.54626822 0.73850411 0.26587209 29
-0.56539947 0.76464713 0.17815745 110
-0.53445095 0.72384423 0.88225901 20
-0.53681862 0.72731668 0.74176532 17
-0.53870857 0.7298817 0.61848223 14
-0.54226214 0.73496467 0.50968438 12
-0.54132622 0.73396426 0.40638009 7
-0.54523909 0.7395398 0.31232107 30
-0.55227584 0.74935806 0.22188592 62
-0.55694574 0.75597072 0.13155322 121
-0.018306591 0.025718851 2.0241964 19
-0.18344511 0.25180858 1.9810666 90
-0.24506311 0.3347753 2.0180943 75
-0.36366585 0.49612001 2.0125027 86
-0.49160466 0.67043358 2.0181251 95
-0.50182867 0.68413568 1.6215241 38
-0.52134204 0.71074319 1.3672181 17
-0.52257133 0.71242332 1.1340821 18
-0.072851017 0.10199635 2.0010643 89
-0.1271138 0.17991371 2.0082631 95
-0.30313545 0.41519758 2.0154345 93
-0.4250581 0.5817979 2.0136113 91
-0.50353003 0.68871665 1.8270911 39
-0.50433058 0.689816 1.4679009 36
-0.52099127 0.71260935 1.2432455 22
-0.52490944 0.71797311 1.0424625 17
-0.53046179 0.72159505 0.95989293 19
-0.53212684 0.7238645 0.80654544 17
-0.53612536 0.72957045 0.67820227 13
-0.53602099 0.72943282 0.56019336 12
-0.53567135 0.72922367 0.45389229 10
-0.54536605 0.74269313 0.36060795 16
-0.54077953 0.73644704 0.26493949 28
-0.55683321 0.75858688 0.17726503 96
-0.52971333 0.72269356 0.8789342 20
-0.53427655 0.72918612 0.74176532 17
-0.53360951 0.72828013 0.61594981 12
-0.5370115 0.73319155 0.5075863 11
-0.53039157 0.7244184 0.40145203 5
-0.54265428 0.74143857 0.31232107 19
-0.5467326 0.74728459 0.22119612 38
-0.55725276 0.76194274 0.13175476 74
-0.018192023 0.025746616 2.0191967 19
-0.18256502 0.2524474 1.9810666 75
-0.24389303 0.33562869 2.0180943 73
-0.36193189 0.49738643 2.0125027 86
-0.48926139 0.67214549 2.0181251 95
-0.502258 0.68975669 1.6303014 38
-0.51720148 0.71028376 1.3630853 17
-0.52008128 0.71424317 1.1340821 19
-0.072494529 0.10225002 2.0010643 89
-0.12648502 0.18035635 2.0082631 93
-0.30168429 0.41625318 2.0154345 95
-0.42302462 0.58327812 2.0136113 91
-0.50368112 0.69399506 1.8360927 39
-0.50498331 0.69579375 1.4764327 35
-0.51673031 0.7119844 1.2392559 24
-0.52040881 0.71705735 1.0387872 17
-0.52583748 0.72056156 0.95638841 22
-0.52959692 0.72571754 0.80654544 17
-0.53111112 0.72805929 0.67546082 13
-0.53086066 0.72772026 0.55787534 11
-0.5331226 0.73108912 0.45389229 8
nan nan nan 0
nan nan nan 0
-0.54831612 0.75247622 0.17637262 28
-0.52718753 0.72453821 0.8789342 20
-0.53172803 0.73104668 0.74176532 16
-0.52852821 0.72665179 0.61341739 10
-0.53178 0.73139083 0.50548828 10
-0.53896546 0.74154562 0.40802279 4
nan nan nan 0
nan nan nan 0
nan nan nan 0
-0.018077482 0.025773894 2.0141969 24
-0.18168271 0.25308314 1.9810666 65
-0.24272001 0.33647797 2.0180943 71
-0.36019346 0.49864677 2.0125027 84
-0.48805633 0.6754328 2.0227277 95
-0.50265414 0.69538891 1.6390787 38
-0.51471901 0.71208477 1.3630853 17
-0.51570684 0.71345592 1.1302452 19
-0.07213717 0.10250244 2.0010643 89
-0.12585469 0.18079676 2.0082631 95
-0.30022949 0.41730371 2.0154345 96
-0.42098603 0.58475119 2.0136113 91
-0.50380141 0.69928288 1.8450943 39
-0.50407588 0.69966823 1.4806986 34
-0.51424193 0.7137838 1.2392559 26
-0.51790267 0.71886951 1.0387872 19
-0.52331907 0.72239268 0.95638841 23
-0.52706045 0.72756171 0.80654544 17
-0.52856648 0.72990876 0.67546082 11
-0.52831721 0.7295689 0.55787534 10
-0.53056741 0.73294562 0.45389229 7
nan nan nan 0
nan nan nan 0
nan nan nan 0
-0.52246857 0.72334671 0.87560934 21
-0.52917296 0.73289829 0.74176532 15
-0.5234648 0.72499686 0.61088496 10
-0.52922374 0.73324257 0.50548828 9
nan nan nan 0
nan nan nan 0
nan nan nan 0
nan nan nan 0
-0.017962974 0.025800686 2.009197 24
-0.18079816 0.25371578 1.9810666 65
-0.24154399 0.33732316 2.0180943 69
-0.35845065 0.49990106 2.0125027 84
-0.48569569 0.67713231 2.0227277 95
-0.50162035 0.69908577 1.6434673 38
-0.51058972 0.71159083 1.3589523 17
-0.51321334 0.71525168 1.1302452 24
-0.071778931 0.10275363 2.0010643 89
-0.12491986 0.18079533 2.0032918 95
-0.29877099 0.41834918 2.0154345 95
-0.41894233 0.58621716 2.0136113 91
-0.50389099 0.70458001 1.8540961 39
-0.50466472 0.7056663 1.4892305 34
-0.51174724 0.71557444 1.2392559 25
-0.51539016 0.72067291 1.0387872 20
-0.51871222 0.72131968 0.95288384 24
-0.52224481 0.72623658 0.80340767 17
-0.52357483 0.72835416 0.6727193 11
-0.52318144 0.7278114 0.55555731 10
-0.52800572 0.73479319 0.45389229 6
nan nan nan 0
nan nan nan 0
nan nan nan 0
-0.51994044 0.72516608 0.87560934 21
-0.52661133 0.73474097 0.74176532 15
-0.52093083 0.72681963 0.61088496 10
-0.52401775 0.73139614 0.50339025 9
nan nan nan 0
nan nan nan 0
nan nan nan 0
nan nan nan 0
-0.017848499 0.025826994 2.0041974 27
-0.17991143 0.25434536 1.9810666 70
-0.23977524 0.33733431 2.0131991 69
-0.35670352 0.50114924 2.0125027 84
-0.48332912 0.67882359 2.0227277 95
-0.5019567 0.70473528 1.6522447 38
-0.50810272 0.71336877 1.3589523 15
-0.51257336 0.71965009 1.1340821 20
-0.071419813 0.10300355 2.0010643 89
-0.12428802 0.18123028 2.0032918 95
-0.29730883 0.41938952 2.0154345 95
-0.41689351 0.58767593 2.0136113 91
-0.50394964 0.70988613 1.8630977 39
-0.50521779 0.71167696 1.4977623 34
-0.51099092 0.71981406 1.2432455 22
-0.51483387 0.72523201 1.0424625 17
-0.51619124 0.72312593 0.95288384 23
-0.51970661 0.72805512 0.80340767 17
-0.5186004 0.72677356 0.66997784 11
-0.52063769 0.72963315 0.55555731 10
-0.52812964 0.74040592 0.45576534 6
nan nan nan 0
nan nan nan 0
nan nan nan 0
-0.51740605 0.72697657 0.87560934 19
-0.5240435 0.73657471 0.74176532 16
-0.5183906 0.72863358 0.61088496 10
-0.52409184 0.7369194 0.50548828 9
-0.52022541 0.73175323 0.40145203 4
nan nan nan 0
nan nan nan 0
nan nan nan 0
-0.017758235 0.02588914 2.0041974 28
-0.17857616 0.25433579 1.9761273 61
-0.23859625 0.33816925 2.0131991 71
-0.35495198 0.50239128 2.0125027 84
-0.48095664 0.68050659 2.0227277 95
-0.50225979 0.71039569 1.6610219 38
-0.50560951 0.71513808 1.3589523 13
-0.51005822 0.72143501 1.1340821 16
-0.071059838 0.10325223 2.0010643 88
-0.12395453 0.18210477 2.0082631 95
-0.29584306 0.42042476 2.0154345 93
-0.41483957 0.5891276 2.0136113 93
-0.50397736 0.71520126 1.8720994 39
-0.50423265 0.71556807 1.5020282 36
-0.51021123 0.72405714 1.2472349 18
-0.51229918 0.72702467 1.0424625 14
-0.51572567 0.72783315 0.95638841 18
-0.51491141 0.7266885 0.8002699 15
-0.51606035 0.7285794 0.66997784 13
-0.51808763 0.73144609 0.55555731 10
-0.5255419 0.74224496 0.45576534 6
-0.52400678 0.74035072 0.35638034 3
nan nan nan 0
nan nan nan 0
-0.51701993 0.73182821 0.8789342 16
-0.5191375 0.73509783 0.73882216 16
-0.51584405 0.73043865 0.61088496 12
-0.51628149 0.7313289 0.50129217 10
-0.51222217 0.72584766 0.39816666 5
-0.510019 0.72299343 0.30411482 3
nan nan nan 0
nan nan nan 0
-0.017667759 0.02595097 2.0041974 31
-0.17768729 0.25495759 1.9761273 61
-0.23741436 0.33900005 2.0131991 69
-0.35319617 0.50362724 2.0125027 86
-0.47857824 0.68218124 2.0227277 95
-0.50252938 0.7160666 1.6697993 37
-0.50472653 0.71920198 1.3630853 13
-0.51121992 0.72845936 1.1417559 14
-0.070698984 0.10349965 2.0010643 89
-0.1233181 0.18253635 2.0082631 95
-0.29437375 0.42145488 2.0154345 93
-0.41278058 0.590572 2.0136113 93
-0.50397414 0.72052526 1.8811011 39
-0.5047214 0.72159815 1.5105602 38
-0.51113552 0.73077327 1.255214 17
-0.51170135 0.73158669 1.0461376 14
-0.51523358 0.73254591 0.95989293 15
-0.51237166 0.72848141 0.8002699 10
-0.51351392 0.73037642 0.66997784 10
-0.51298326 0.72962594 0.55323929 9
-0.51228511 0.72890341 0.44827321 8
-0.51038814 0.72647369 0.35074356 5
-0.50829476 0.72349405 0.25934377 4
nan nan nan 0
-0.51660633 0.73668599 0.88225901 11
-0.51656842 0.73690546 0.73882216 11
-0.51576591 0.73576516 0.61341739 8
-0.52153897 0.74427706 0.5075863 5
-0.51510423 0.73536718 0.40145203 4
-0.50470424 0.7207877 0.30294251 5
nan nan nan 0
nan nan nan 0
-0.017600987 0.026048973 2.009197 32
-0.17679623 0.25557628 1.9761273 72
-0.23622958 0.3398267 2.0131991 69
-0.35143605 0.50485706 2.0125027 86
-0.47619414 0.68384767 2.0227277 95
-0.50276548 0.72174805 1.6785766 38
-0.50542986 0.72557753 1.3713511 16
-0.51050645 0.73286998 1.1455929 15
-0.070337266 0.10374581 2.0010643 89
-0.12268019 0.18296568 2.0082631 95
-0.2929008 0.4224799 2.0154345 95
-0.41071662 0.59200931 2.0136113 91
-0.50393975 0.72585779 1.8901027 39
-0.50517404 0.72764027 1.519092 39
-0.51201916 0.7375046 1.2631929 17
-0.51301116 0.73893797 1.0534879 15
-0.51471478 0.73726416 0.9633975 15
-0.51205409 0.73345745 0.80340767 6
-0.51096141 0.73216444 0.66997784 5
-0.51803935 0.74231124 0.56019336 5
-0.53095704 0.7611044 0.46325746 4
-0.52705765 0.7557959 0.36060795 6
-0.50014651 0.71720535 0.25747854 5
nan nan nan 0
-0.51616508 0.74154979 0.88558388 11
-0.51399297 0.73870409 0.73882216 7
-0.51565677 0.74109989 0.61594981 4
nan nan nan 0
-0.51253408 0.73716074 0.40145203 4
-0.54656953 0.78640586 0.32169959 6
-0.54243952 0.78075427 0.2246452 7
-0.53847051 0.77533019 0.13175476 7
-0.017509952 0.026110254 2.009197 34
-0.17546339 0.25555122 1.9711881 83
-0.2356201 0.34148735 2.0180943 71
-0.3496716 0.50608069 2.0125027 84
-0.47380412 0.68550575 2.0227277 95
-0.50296801 0.72743994 1.687354 38
-0.50609475 0.73196673 1.379617 25
-0.51159161 0.73992157 1.1532668 15
-0.069974698 0.1039907 2.0010643 89
-0.12204076 0.18339281 2.0082631 95
-0.29142427 0.42349973 2.0154345 95
-0.4086476 0.5934394 2.0136113 91
-0.5038743 0.73119885 1.8991044 39
-0.50559074 0.73369426 1.5276239 39
-0.51115185 0.74176913 1.2671825 29
-0.51235229 0.74351579 1.0571631 18
-0.51416934 0.74198765 0.96690202 15
-0.51170796 0.7384401 0.80654544 6
-0.51078355 0.73738086 0.6727193 5
nan nan nan 0
nan nan nan 0
-0.57083166 0.82468843 0.38456425 5
-0.57312495 0.82800162 0.28265926 6
-0.56377119 0.81479186 0.18172713 6
-0.51569605 0.74641937 0.88890874 13
-0.51141125 0.74049383 0.73882216 7
-0.51551664 0.74644279 0.61848223 4
nan nan nan 0
-0.52068704 0.75449234 0.40802279 3
-0.54106104 0.78430796 0.32052726 4
-0.55657899 0.80710381 0.22878408 4
-0.54710269 0.79365838 0.13256088 7
-0.017418705 0.026171215 2.009197 35
-0.17457028 0.25616214 1.9711881 93
-0.23442666 0.34230772 2.0180943 71
-0.34790292 0.50729823 2.0125027 82
-0.4714084 0.68715543 2.0227277 95
-0.50178128 0.73116648 1.6917425 38
-0.50672114 0.73836929 1.3878829 33
-0.51263368 0.74698949 1.1609406 29
-0.069611274 0.10423432 2.0010643 89
-0.12139986 0.18381768 2.0082631 95
-0.2899442 0.42451438 2.0154345 95
-0.40657362 0.59486228 2.0136113 91
-0.50377768 0.73654836 1.908106 39
-0.50597119 0.73976004 1.5361557 39
-0.51196247 0.74852449 1.2751615 35
-0.51358151 0.75089628 1.0645134 34
-0.51561815 0.74965453 0.97391111 18
-0.51133323 0.74342918 0.80968326 11
-0.5129444 0.74605054 0.67820227 7
nan nan nan 0
nan nan nan 0
-0.56794953 0.82667601 0.38456425 5
-0.54519659 0.79355794 0.27426568 4
-0.56092364 0.81675476 0.18172713 4
-0.51731133 0.75437462 0.89555842 22
-0.513394 0.74894232 0.74470848 12
-0.51778311 0.7553497 0.62354708 6
nan nan nan 0
-0.52071893 0.76020133 0.40966547 3
-0.53832 0.78619188 0.32052726 4
-0.55935246 0.81721497 0.23016369 4
-0.55279225 0.80793285 0.13316546 7
-0.017327243 0.026231859 2.009197 36
-0.17367506 0.25676993 1.9711881 93
-0.23323035 0.34312394 2.0180943 71
-0.34613001 0.50850958 2.0125027 84
-0.46790737 0.68718195 2.0181251 95
-0.50327206 0.73885381 1.7049085 38
-0.50730896 0.74478513 1.3961488 36
-0.5136326 0.75407374 1.1686146 35
-0.069247007 0.10447668 2.0010643 89
-0.12075748 0.18424034 2.0082631 95
-0.28846064 0.42552391 2.0154345 95
-0.40449473 0.59627783 2.0136113 89
-0.50487298 0.74370772 1.9216086 40
-0.50631547 0.74583733 1.5446875 39
-0.51103926 0.75280058 1.279151 37
-0.51286143 0.75548935 1.0681885 36
-0.51500893 0.75439525 0.97741562 33
-0.51312482 0.75163984 0.8159588 28
-0.512694 0.75129032 0.68094373 11
-0.51023763 0.74769533 0.56019336 8
-0.51773286 0.75896329 0.4595114 8
-0.54614139 0.80090892 0.37469989 6
-0.53965569 0.79139769 0.27333307 4
-0.55806917 0.81870782 0.18172713 4
-0.51677614 0.75926292 0.89888322 35
-0.51305026 0.75407165 0.74765164 31
-0.51756841 0.76071697 0.6260795 13
-0.51875347 0.7627449 0.51388049 7
-0.52337229 0.76982516 0.41295084 9
-0.53557241 0.78806615 0.32052726 5
-0.51197129 0.75362092 0.21912666 5
-0.53874189 0.79332542 0.13235934 7
-0.017235572 0.026292183 2.009197 36
-0.17277768 0.25737461 1.9711881 93
-0.2320312 0.34393597 2.0180943 71
-0.34435284 0.50971472 2.0125027 86
-0.46550584 0.688811 2.0181251 95
-0.5033735 0.74457556 1.7136859 37
-0.50785816 0.75121397 1.4044147 38
-0.5145883 0.76117384 1.1762885 37
-0.068881892 0.10471775 2.0010643 89
-0.12011362 0.18466073 2.0082631 95
-0.28697351 0.42652822 2.0154345 93
-0.40241081 0.59768611 2.0136113 91
-0.50470746 0.74907762 1.9306103 40
-0.50516617 0.74976307 1.5489535 39
-0.51009244 0.75707948 1.2831405 39
-0.51400965 0.76289809 1.0755389 38
-0.51637328 0.76209301 0.98442471 36
-0.51486522 0.75987184 0.82223433 34
-0.51475817 0.75999957 0.68642664 32
-0.51756209 0.764144 0.56946546 25
-0.51767957 0.76460469 0.46138442 9
-0.53527576 0.79089153 0.37047231 8
-0.53413671 0.78920847 0.27240044 7
-0.53288341 0.78765285 0.17815745 7
-0.51830339 0.76725113 0.90553302 37
-0.51267695 0.75920773 0.75059479 36
-0.51973522 0.76966482 0.63114434 34
-0.52370548 0.77583617 0.52017468 31
-0.52332336 0.77556199 0.41459352 22
-0.53010023 0.78590125 0.31935495 14
-0.5287171 0.78414577 0.22395536 7
-0.54155397 0.80348682 0.1327624 8
-0.017143689 0.026352186 2.009197 38
-0.17187822 0.25797614 1.9711881 95
-0.23082922 0.34474382 2.0180943 71
-0.34257153 0.51091355 2.0125027 86
-0.46309859 0.69043171 2.0181251 93
-0.50344098 0.75030708 1.7224631 38
-0.50836855 0.75765574 1.4126806 39
-0.51371431 0.76562774 1.1801254 38
-0.068673819 0.10520029 2.0060561 89
-0.11946831 0.18507887 2.0082631 95
-0.28548291 0.42752737 2.0154345 93
-0.40032208 0.59908718 2.0136113 91
-0.50572121 0.75626582 1.9441129 40
-0.50544536 0.75585783 1.5574853 39
-0.51079732 0.76386625 1.2911195 40
-0.51322794 0.76750582 1.0792141 39
-0.51570004 0.76685017 0.98792928 38
-0.51438195 0.76489478 0.8253721 37
-0.51676774 0.76873225 0.69190961 37
-0.51736319 0.76962262 0.57178348 35
-0.52276433 0.77795076 0.46700355 32
-0.52716184 0.78479064 0.36765391 10
-0.52863955 0.78699052 0.27146783 13
-0.53845918 0.80191153 0.17949608 11
-0.51770163 0.77215737 0.90885788 39
-0.5145244 0.767708 0.75648111 38
-0.51944572 0.77505571 0.63367677 37
-0.52099407 0.77765954 0.52017468 34
-0.52324069 0.78130788 0.41623619 22
-0.52464974 0.78370768 0.31818265 22
-0.52046835 0.7777552 0.22257572 20
-0.53596818 0.80121976 0.13256088 18
-0.0170516 0.026411869 2.009197 38
-0.17097668 0.25857455 1.9711881 95
-0.22962444 0.34554744 2.0180943 71
-0.34078601 0.5121063 2.0125027 86
-0.46068567 0.69204408 2.0181251 91
-0.50347465 0.75604802 1.7312406 38
-0.50728041 0.7617678 1.4168135 39
-0.51459247 0.772753 1.1877993 39
-0.068306178 0.10543936 2.0060561 89
-0.1185341 0.18504483 2.0032918 93
-0.2839888 0.42852128 2.0154345 93
-0.39822844 0.60048091 2.0136113 91
-0.50548667 0.76165545 1.9531145 39
-0.50568807 0.76196361 1.5660173 39
-0.50979447 0.76815587 1.295109 42
-0.51429504 0.7749421 1.0865644 40
-0.51499981 0.77161199 0.9914338 39
-0.51603091 0.77316153 0.83164763 38
-0.51640183 0.77400982 0.69465107 38
-0.51713228 0.77510923 0.57410151 36
-0.52004564 0.77977079 0.46700355 32
-0.52175814 0.78263438 0.3662447 13
-0.52316439 0.78474373 0.2705352 22
-0.53289497 0.79964209 0.17904988 22
-0.51707184 0.77706879 0.91218269 39
-0.51407993 0.77286482 0.75942427 38
-0.51912469 0.78045386 0.63620919 37
-0.51827639 0.77947342 0.52017468 35
-0.52312434 0.78706253 0.41787887 24
-0.51922113 0.7814858 0.31701031 21
-0.52049011 0.78369248 0.22326556 28
-0.53316814 0.80308574 0.13256088 17
-0.016959302 0.026471229 2.009197 39
-0.17007305 0.25916982 1.9711881 93
-0.22841688 0.34634688 2.0180943 71
-0.33899635 0.51329267 2.0125027 86
-0.45826718 0.69364792 2.0181251 93
-0.50479525 0.76379699 1.7444066 37
-0.50772136 0.76822931 1.4250795 38
-0.51542711 0.77989376 1.1954732 39
-0.067937709 0.10567716 2.0060561 89
-0.11788745 0.18545745 2.0032918 93
-0.28249127 0.42950997 2.0154345 93
-0.39612994 0.60186732 2.0136113 91
-0.50522059 0.76705265 1.9621161 39
-0.50589436 0.76808035 1.5745492 39
-0.51042557 0.77496487 1.3030879 40
-0.51345152 0.7795639 1.0902396 40
-0.51427257 0.7763781 0.99493837 39
-0.51547867 0.77820361 0.83478546 38
-0.51831388 0.78278053 0.70013404 38
-0.51931512 0.78429729 0.57873756 36
-0.52243805 0.78931302 0.47074959 33
-0.519023 0.78445089 0.3662447 24
-0.51771134 0.78246844 0.2696026 21
-0.53284764 0.80565113 0.17949608 21
-0.51641411 0.7819851 0.91550756 39
-0.51360583 0.77802789 0.76236743 38
-0.51877236 0.78585917 0.63874161 37
-0.52055168 0.78885394 0.52437073 35
-0.52297407 0.79282582 0.41952157 25
-0.51649004 0.78329343 0.31701031 23
-0.51775134 0.78550458 0.22326556 28
-0.53311026 0.8091138 0.1327624 24
-0.0168439 0.026493125 2.0041974 40
-0.16916734 0.25976187 1.9711881 93
-0.22664896 0.34629011 2.0131991 71
-0.33720258 0.5144729 2.0125027 84
-0.45584309 0.69524336 2.0181251 93
-0.50475389 0.76956105 1.7531838 37
-0.50658 0.77235001 1.4292125 38
-0.51445991 0.78436893 1.1993101 38
-0.067568414 0.10591366 2.0060561 89
-0.11723937 0.18586783 2.0032918 93
-0.2809903 0.43049344 2.0154345 95
-0.39402658 0.60324639 2.0136113 93
-0.50492299 0.7724573 1.9711179 39
-0.50749087 0.77639067 1.587347 39
-0.51101536 0.78178751 1.311067 40
-0.5144369 0.78702682 1.09759 40
-0.51547742 0.78412855 1.0019475 39
-0.51489753 0.78325111 0.83792323 38
-0.51787466 0.78807956 0.70287549 38
-0.51900721 0.78980762 0.58105558 36
-0.52222484 0.79500651 0.47262263 33
-0.51891476 0.79026794 0.36765391 24
-0.51497686 0.78427082 0.2696026 21
-0.53003216 0.80750614 0.17949608 22
-0.51572829 0.7869063 0.91883242 39
-0.5153169 0.78657806 0.76825374 38
-0.51838863 0.79127151 0.64127403 37
-0.52028143 0.79446298 0.52646881 35
-0.52278996 0.79859769 0.42116427 25
-0.5137527 0.78509158 0.31701031 21
-0.51771712 0.79145133 0.22395536 28
-0.53028268 0.81096977 0.1327624 28
-0.016751319 0.026551757 2.0041974 42
-0.16825958 0.26035082 1.9711881 93
-0.22543879 0.34707916 2.0131991 73
-0.33540466 0.51564682 2.0125027 84
-0.45341346 0.69683033 2.0181251 93
-0.50467837 0.77533406 1.7619612 38
-0.50695115 0.77883041 1.4374783 38
-0.51521659 0.79153371 1.206984 38
-0.067198299 0.10614888 2.0060561 89
-0.11658985 0.18627594 2.0032918 95
-0.27948585 0.43147168 2.0154345 95
-0.39191851 0.60461813 2.0136113 93
-0.50459373 0.77786916 1.9801195 40
-0.50761628 0.78253347 1.5958788 39
-0.51156366 0.78862363 1.3190459 40
-0.51537639 0.79450619 1.1049403 40
-0.51468575 0.78890997 1.005452 39
-0.5164144 0.7915644 0.84419876 38
-0.51740474 0.79338491 0.70561695 38
-0.51866716 0.7953254 0.58337361 36
-0.52197826 0.80070823 0.47449565 33
-0.51877218 0.7960937 0.36906311 24
-0.51491803 0.79017919 0.2705352 17
-0.52992839 0.81352431 0.17994229 21
-0.51501441 0.79183221 0.92215723 39
-0.51477134 0.79176086 0.7711969 38
-0.5203234 0.80030519 0.64633894 37
-0.52245134 0.80388522 0.53066492 35
-0.52257186 0.80437779 0.42280695 26
-0.51365638 0.79095656 0.31818265 20
-0.51495135 0.79325366 0.22395536 28
-0.53016818 0.81700671 0.13296393 28
-0.016635899 0.026572768 1.9991974 42
-0.16734976 0.26093656 1.9711881 95
-0.22422589 0.34786397 2.0131991 73
-0.3336027 0.51681447 2.0125027 84
-0.45097834 0.69840878 2.0181251 95
-0.50586861 0.7831282 1.7751272 38
-0.50728309 0.78532284 1.4457443 39
-0.51418996 0.79602027 1.2108209 38
-0.066673748 0.10613734 2.0010643 89
-0.11593892 0.18668179 2.0032918 95
-0.27797803 0.43244463 2.0154345 95
-0.38980561 0.60598254 2.0136113 91
-0.50423288 0.783288 1.9891212 45
-0.50911653 0.79087943 1.6086767 38
-0.5104391 0.79293877 1.3230355 40
-0.51443493 0.79915094 1.1086154 40
-0.5138669 0.79369533 1.0089566 39
-0.51576388 0.79662997 0.84733653 38
-0.51690394 0.79869658 0.70835841 38
-0.51829475 0.80085027 0.58569163 36
-0.52169818 0.80641776 0.4763687 33
-0.5212003 0.80595642 0.37188148 23
-0.51215667 0.7919718 0.2705352 16
-0.52978909 0.81955141 0.18038851 21
-0.51629746 0.79990023 0.92880696 39
-0.51638722 0.80034578 0.77708322 38
-0.51986396 0.80573922 0.64887136 38
-0.522102 0.8095181 0.53276294 36
-0.52231979 0.81016618 0.42444962 27
-0.51352537 0.79683042 0.31935495 19
-0.51486111 0.79920954 0.2246452 28
-0.53272277 0.82725304 0.133367 28
-0.016543042 0.026630674 1.9991974 45
-0.16643789 0.26151913 1.9711881 93
-0.22301026 0.34864455 2.0131991 73
-0.33179662 0.51797581 2.0125027 86
-0.44853771 0.69997877 2.0181251 93
-0.50571764 0.7889232 1.7839044 38
-0.50909448 0.79419607 1.4581431 39
-0.51486826 0.80320829 1.2184948 38
-0.066302851 0.10636943 2.0010643 89
-0.11528658 0.18708536 2.0032918 95
-0.27646682 0.43341231 2.0154345 93
-0.38768792 0.6073395 2.0136113 91
-0.50384027 0.78871381 1.9981228 47
-0.5091607 0.79704756 1.6172085 39
-0.51091307 0.79979563 1.3310144 40
-0.51529223 0.80665582 1.1159657 40
-0.51494861 0.801485 1.0159657 39
-0.51718837 0.80497581 0.85361207 38
-0.51863205 0.80753261 0.71384132 38
-0.51789016 0.8063823 0.58800966 36
-0.52138466 0.8121351 0.47824171 33
-0.52097481 0.81180829 0.37329069 26
-0.51469517 0.80202299 0.27240044 17
-0.52961397 0.82558739 0.18083471 20
-0.51551634 0.80484217 0.93213177 39
-0.51576972 0.80554742 0.78002638 38
-0.52169758 0.81481063 0.65393627 38
-0.52171963 0.81515831 0.53486103 35
-0.52457863 0.81994045 0.427735 28
-0.51335949 0.80271292 0.32052726 20
-0.51473564 0.80517429 0.225335 29
-0.53252208 0.83331734 0.13356853 29
-0.016449982 0.026688259 1.9991974 45
-0.16552401 0.26209852 1.9711881 93
-0.22233747 0.35028055 2.0180943 75
-0.32998651 0.51913083 2.0125027 86
-0.44609156 0.70154017 2.0181251 93
-0.50553232 0.79472661 1.7926818 38
-0.50933975 0.800717 1.466409 39
-0.51550281 0.81041074 1.2261688 39
-0.065931149 0.10660022 2.0010643 89
-0.11463282 0.18748663 2.0032918 95
-0.27495223 0.43437472 2.0154345 93
-0.38556558 0.60868907 2.0136113 89
-0.50341594 0.79414642 2.0071244 40
-0.50916803 0.80322552 1.6257403 39
-0.51134545 0.80666536 1.3389934 40
-0.51428837 0.81131285 1.1196409 40
-0.51406503 0.80628461 1.0194702 39
-0.51646811 0.81005859 0.85674983 38
-0.51805735 0.8128643 0.71658283 38
-0.51745313 0.81192112 0.59032768 36
-0.5210374 0.81786001 0.48011476 33
-0.52329165 0.82171488 0.37610909 24
-0.51453108 0.80795819 0.27333307 16
-0.52940327 0.83163214 0.18128091 22
-0.51671004 0.81294006 0.9387815 39
-0.51512235 0.81075454 0.78296953 38
-0.52116221 0.82026559 0.65646869 38
-0.52130419 0.82080555 0.53695905 35
-0.52424437 0.82575339 0.42937768 29
-0.5131588 0.80860394 0.32169959 19
-0.51457471 0.81114787 0.22602481 29
-0.53228557 0.83939028 0.13377005 30
-0.016356722 0.026745519 1.9991974 45
-0.16460811 0.26267469 1.9711881 95
-0.22111343 0.35105455 2.0180943 83
-0.32817245 0.52027953 2.0125027 84
-0.44364002 0.70309305 2.0181251 95
-0.50531274 0.80053824 1.8014591 38
-0.50954574 0.80724937 1.4746748 38
-0.51609319 0.81762731 1.2338426 39
-0.065558642 0.10682972 2.0010643 89
-0.11397767 0.18788563 2.0032918 95
-0.27343431 0.43533185 2.0154345 93
-0.3834385 0.61003125 2.0136113 91
-0.50180024 0.79774219 2.0116253 40
-0.50913835 0.80941319 1.6342722 38
-0.51013124 0.81099659 1.3429829 40
-0.51506329 0.81884253 1.1269913 40
-0.51506078 0.81410164 1.0264792 38
-0.51779997 0.81843615 0.86302549 38
-0.5196867 0.82173574 0.72206575 38
-0.51698387 0.81746668 0.5926457 36
-0.52065659 0.82359236 0.48198777 33
-0.52554566 0.83164734 0.37892747 25
-0.51695597 0.8180545 0.27519831 15
-0.52915668 0.83768541 0.18172713 22
-0.51586145 0.81789732 0.94210631 39
-0.51660049 0.81938612 0.78885585 38
-0.52059501 0.82572675 0.65900111 37
-0.52085572 0.82645988 0.53905714 35
-0.52639312 0.83556962 0.43266305 29
-0.51292324 0.81450331 0.32287189 20
-0.51437825 0.81713003 0.22671464 29
-0.52935225 0.84124321 0.13377005 30
-0.016263263 0.02680245 1.9991974 49
-0.16369018 0.2632477 1.9711881 93
-0.21988665 0.35182419 2.0180943 93
-0.32714665 0.52268791 2.0172744 84
-0.44118309 0.70463729 2.0181251 93
-0.50633025 0.80838835 1.814625 38
-0.50971222 0.81379282 1.4829408 39
-0.5149377 0.82214087 1.2376796 39
-0.065185338 0.10705791 2.0010643 89
-0.11332113 0.18828234 2.0032918 95
-0.27191308 0.43628368 2.0154345 91
-0.38130677 0.61136597 2.0136113 91
-0.50016558 0.80133635 2.0161262 45
-0.50907153 0.81561035 1.642804 39
-0.51048887 0.81788599 1.3509619 39
-0.51579183 0.82638729 1.1343416 40
-0.51411206 0.81891501 1.0299839 38
-0.51700979 0.82353562 0.86616325 38
-0.51903772 0.82708651 0.7248072 38
-0.51648206 0.82301879 0.59496373 37
-0.52024209 0.82933199 0.48386082 34
-0.5277366 0.84160542 0.38174587 25
-0.51670688 0.82401574 0.27613091 15
-0.52887428 0.84374708 0.18217334 23
-0.51696551 0.82602406 0.94875604 39
-0.51588088 0.82461101 0.79179901 39
-0.51999605 0.83119386 0.66153353 38
-0.52037406 0.83212101 0.54115516 35
-0.52597642 0.84140646 0.43430573 29
-0.5126527 0.82041079 0.32404423 20
-0.51414633 0.82312077 0.22740445 29
-0.52905852 0.84732366 0.13397159 31
-0.016169608 0.026859056 1.9991974 55
-0.16277029 0.26381746 1.9711881 95
-0.21919379 0.35345501 2.0229895 95
-0.32532012 0.52382672 2.0172744 86
-0.43872073 0.706173 2.0181251 93
-0.50603449 0.81422049 1.8234024 38
-0.50983906 0.82034719 1.4912066 38
-0.51544923 0.82937914 1.2453535 39
-0.064811237 0.10728479 2.0010643 89
-0.11266322 0.18867677 2.0032918 95
-0.27038848 0.43723014 2.0154345 91
-0.37917036 0.61269325 2.0136113 91
-0.49851191 0.80492878 2.020627 68
-0.50896776 0.82181698 1.651336 39
-0.51080447 0.82478774 1.3589408 40
-0.51468903 0.831065 1.1380167 40
-0.51502162 0.82675862 1.036993 39
-0.51824856 0.83194369 0.87243879 38
-0.52056801 0.83599234 0.73029011 38
-0.51828957 0.83233815 0.59959984 37
-0.52224356 0.83901441 0.48760688 34
-0.52986431 0.8515889 0.38456425 23
-0.51642245 0.82998526 0.27706355 14
-0.52855605 0.8498168 0.18261954 23
-0.51801914 0.83416843 0.95540571 39
-0.51726282 0.83327508 0.79768533 39
-0.52163893 0.84032971 0.66659838 38
-0.52225214 0.84164524 0.54535127 36
-0.52552545 0.84725046 0.4359484 30
-0.51234716 0.82632631 0.32521653 20
-0.51387882 0.82911974 0.22809425 29
-0.52872872 0.85341209 0.13417313 32
-0.016075753 0.026915334 1.9991974 56
-0.16184841 0.26438403 1.9711881 95
-0.21795866 0.35421801 2.0229895 95
-0.32348964 0.52495909 2.0172744 86
-0.43625307 0.70770019 2.0181251 95
-0.50696176 0.82209963 1.8365685 38
-0.5099265 0.82691234 1.4994725 39
-0.51591635 0.83663088 1.2530273 39
-0.064436354 0.10751037 2.0010643 89
-0.11200393 0.18906888 2.0032918 95
-0.26886061 0.43817133 2.0154345 95
-0.37702936 0.61401308 2.0136113 91
-0.4956992 0.80666399 2.020627 81
-0.51019222 0.83025467 1.6641337 39
-0.51107824 0.83170146 1.3669199 40
-0.51533473 0.8386333 1.145367 40
-0.51400757 0.83158487 1.0404975 39
-0.51738811 0.83705908 0.87557656 38
-0.51984453 0.84136164 0.73303157 38
-0.51770961 0.83791107 0.60191786 37
-0.52174777 0.84477657 0.4894799 34
-0.53192878 0.86159736 0.38738266 22
-0.51610267 0.83596265 0.27799615 14
-0.53081727 0.86013269 0.18351197 23
-0.51706308 0.83915085 0.95873052 39
-0.51647073 0.83851719 0.80062848 39
-0.52096349 0.84581625 0.6691308 37
-0.52169055 0.84732783 0.54744929 36
-0.52503997 0.85310155 0.43759111 30
-0.51455349 0.8363896 0.32756117 18
-0.51616985 0.83934516 0.22947389 30
-0.52836287 0.85950863 0.13437465 33
-0.015959986 0.026933443 1.9941976 60
-0.16092455 0.26494738 1.9711881 95
-0.21672086 0.35497665 2.0229895 95
-0.32165524 0.52608508 2.0172744 84
-0.4337801 0.70921862 2.0181251 95
-0.50658977 0.82795143 1.8453457 38
-0.50997424 0.83348805 1.5077385 39
-0.51633924 0.84389603 1.2607013 39
-0.064060681 0.10773464 2.0010643 89
-0.11134327 0.1894587 2.0032918 95
-0.26798353 0.44018155 2.0202737 95
-0.37488371 0.61532539 2.0136113 91
-0.49288034 0.80838937 2.020627 95
-0.51000625 0.83648413 1.6726656 39
-0.51130986 0.83862722 1.3748989 40
-0.51593375 0.84621626 1.1527174 40
-0.51483047 0.83945423 1.0475066 39
-0.51853335 0.84549695 0.88185215 39
-0.52127528 0.85030079 0.73851454 37
-0.51941246 0.84726703 0.60655391 37
-0.52121806 0.85054541 0.49135295 34
-0.53142387 0.8675397 0.38879183 23
-0.51574737 0.84194791 0.27892879 13
-0.5304122 0.86622745 0.18395817 24
-0.51802647 0.84732282 0.96538025 40
-0.51775604 0.84721273 0.8065148 39
-0.52025598 0.85130829 0.67166322 37
-0.52109563 0.85301679 0.54954737 36
-0.5245201 0.8589595 0.43923378 31
-0.51416314 0.84232938 0.3287335 19
-0.51581621 0.84536928 0.23016369 30
-0.52796084 0.86561292 0.13457619 35
-0.015865874 0.026988989 1.9941976 58
-0.15999873 0.26550752 1.9711881 95
-0.21495298 0.35486004 2.0180943 95
-0.31981689 0.52720469 2.0172744 78
-0.43130177 0.71072847 2.0181251 95
-0.5074262 0.83585852 1.8585117 38
-0.50998223 0.84007406 1.5160043 39
-0.51505399 0.84843367 1.2645382 39
-0.063684218 0.1079576 2.0010643 89
-0.11068126 0.1898462 2.0032918 95
-0.26644534 0.44111434 2.0202737 95
-0.37273359 0.61663026 2.0136113 89
-0.49005556 0.81010497 2.020627 95
-0.50978303 0.84272236 1.6811975 39
-0.51149929 0.8455646 1.3828779 40
-0.51648611 0.85381353 1.1600677 40
-0.51375091 0.8442927 1.0510112 39
-0.51760244 0.85062736 0.88498992 39
-0.520477 0.85568768 0.741256 37
-0.51875407 0.85286003 0.60887194 37
-0.52065438 0.85632086 0.49322596 34
-0.53088397 0.87348896 0.39020103 25
-0.5153566 0.84794092 0.27986142 13
-0.52997094 0.87232977 0.18440439 24
-0.51893914 0.85551167 0.97202992 40
-0.5168913 0.85247123 0.80945796 39
-0.51951647 0.85680568 0.67419565 37
-0.52281976 0.86259323 0.55374354 36
-0.52641267 0.86886317 0.44251916 32
-0.51625562 0.85243422 0.33107814 18
-0.51799142 0.85563737 0.23154333 31
-0.52752262 0.87172484 0.13477771 37
-0.015771568 0.027044207 1.9941976 62
-0.15907095 0.26606438 1.9711881 95
-0.21371298 0.35560817 2.0180943 95
-0.31720454 0.52703816 2.0125027 80
-0.42881829 0.71222967 2.0181251 95
-0.5069775 0.84172928 1.8672891 39
-0.5099504 0.84667033 1.5242703 39
-0.51539731 0.85571891 1.272212 39
-0.063306995 0.10817924 2.0010643 89
-0.1100179 0.1902314 2.0032918 95
-0.26490396 0.4420417 2.0202737 95
-0.37057886 0.61792761 2.0136113 89
-0.48722476 0.81181067 2.020627 95
-0.51086444 0.85120541 1.6939954 39
-0.51164651 0.85251343 1.390857 40
-0.51524717 0.858518 1.1637428 40
-0.51448703 0.85218692 1.0580202 39
-0.51865399 0.8590942 0.89126545 39
-0.52180785 0.86465931 0.74673891 38
-0.52035189 0.86225164 0.61350799 36
-0.52245128 0.86607218 0.49697202 35
-0.5303089 0.87944502 0.39161023 25
-0.51746678 0.85814792 0.28172666 14
-0.52949357 0.87843961 0.1848506 25
-0.51980072 0.86371714 0.9786796 40
-0.5159961 0.85773396 0.81240118 39
-0.52096719 0.86600244 0.67926049 38
-0.52214438 0.86830235 0.55584157 36
-0.52580947 0.87474298 0.44416183 32
-0.51828378 0.86256385 0.33342275 18
-0.51755136 0.86168557 0.23223317 30
-0.52704817 0.87784421 0.13497925 36
-0.015677068 0.027099095 1.9941976 64
-0.15814126 0.26661804 1.9711881 95
-0.21247038 0.35635203 2.0180943 95
-0.3153629 0.52814221 2.0125027 84
-0.42632949 0.71372223 2.0181251 93
-0.50649399 0.84760696 1.8760663 39
-0.50987875 0.85327643 1.5325361 39
-0.51569605 0.86301684 1.279886 39
-0.06292899 0.10839957 2.0010643 91
-0.10935319 0.19061425 2.0032918 95
-0.26335934 0.44296369 2.0202737 95
-0.36841965 0.6192174 2.0136113 89
-0.48438805 0.81350642 2.020627 95
-0.51055855 0.85746521 1.7025272 39
-0.51175135 0.85947359 1.3988359 42
-0.51571596 0.86613715 1.1710931 42
-0.51517409 0.86009651 1.0650294 39
-0.51765233 0.86423904 0.89440322 39
-0.5209344 0.87006313 0.74948037 39
-0.51961464 0.86786383 0.61582601 36
-0.5218057 0.87186849 0.49884507 34
-0.52969873 0.88540751 0.39301944 27
-0.51699007 0.86416447 0.28265926 13
-0.52898008 0.88455665 0.1852968 26
-0.51869708 0.86873263 0.98200446 40
-0.51507044 0.86300075 0.81534433 38
-0.52015066 0.87151778 0.68179291 38
-0.5237608 0.87791479 0.56003767 36
-0.52759039 0.88468486 0.44744721 32
-0.52273619 0.87689298 0.33693972 17
-0.51961035 0.87199527 0.23361278 30
-0.5265373 0.88397074 0.13518077 37
-0.01558238 0.027153652 1.9941976 66
-0.15720962 0.2671684 1.9711881 95
-0.21122518 0.35709152 2.0180943 95
-0.31351742 0.52923977 2.0125027 84
-0.42483154 0.71688682 2.0227277 95
-0.5059756 0.85349149 1.8848437 38
-0.50976717 0.85989237 1.5408021 39
-0.51595008 0.87032723 1.2875599 39
-0.062550217 0.10861857 2.0010643 89
-0.10895064 0.19145922 2.0082631 95
-0.26181149 0.44388029 2.0202737 95
-0.36625594 0.62049961 2.0136113 91
-0.48154548 0.81519228 2.020627 95
-0.51021522 0.86373323 1.7110591 39
-0.51181394 0.86644477 1.4068149 44
-0.51441371 0.87085104 1.1747683 44
