# .PCD v0.7 - Point Cloud Data file format
VERSION 0.7
FIELDS x y z intensity
SIZE 4 4 4 4
TYPE F F F F
COUNT 1 1 1 1
WIDTH 1337
HEIGHT 1
VIEWPOINT 0 0 0 1 0 0 0
POINTS 1337
DATA ascii
-1.4823058 -0.6234169 2.0012317 74
-0.11641232 -0.047237348 2.0060561 56
-0.20404951 -0.081582554 2.0032918 55
-0.10294238 -0.043050177 0.46688879 5
-0.48162842 -0.20149186 1.4739432 36
-0.86327899 -0.36148834 1.9981228 83
-1.0889087 -0.45596114 2.0011425 91
-1.4008422 -0.58657092 2.0850296 35
-1.6365447 -0.68526131 2.0016804 86
-1.7945299 -0.7569406 1.9937341 69
-2.2015409 -0.92861497 2.0083144 33
-2.6875587 -1.1330646 1.9968475 61
-3.3773429 -1.4238708 2.004324 52
-1.4959965 -0.63039869 0.74421239 22
-1.6317195 -0.6872555 0.61003554 34
nan nan nan 0
-1.5833254 -0.6665473 0.24687377 56
-1.993196 -0.83745885 2.006058 38
-2.4210417 -1.0167236 1.9955517 31
-3.0186491 -1.2676865 2.0087843 38
-3.8175786 -1.6024137 2.0013998 51
-1.5159652 -0.636011 0.6609962 28
-1.3493599 -0.56583649 0.44362059 53
-1.4888045 -0.6240049 0.3170805 21
-1.4005723 -0.5867368 0.1549308 27
-0.029068202 -0.011626313 1.9941976 66
-0.29086092 -0.12002427 2.0008237 78
-0.38503292 -0.15991865 2.0278847 16
-0.48381293 -0.20131791 1.7214276 38
-0.54386055 -0.22640684 1.447412 38
-0.97565073 -0.40633801 2.0033376 44
-1.2111555 -0.50441468 1.9995594 82
-1.4874324 -0.61947143 2.0050688 76
-0.1165765 -0.046830706 2.0060561 56
-0.20433307 -0.080869786 2.0032918 55
-0.10309203 -0.042690575 0.46688879 5
-0.48073453 -0.19914906 1.4692504 34
-0.86453563 -0.35847273 1.9981228 83
-1.0904938 -0.45215732 2.0011425 91
-1.4000973 -0.58052313 2.0810401 31
-1.6389267 -0.67954445 2.0016804 86
-1.8004519 -0.75204635 1.9972385 67
-2.2047689 -0.92092448 2.0083144 33
-2.6914976 -1.1236763 1.9968475 64
-3.3822927 -1.412073 2.004324 50
-1.5153015 -0.63231397 0.75170451 32
-1.6429639 -0.68524891 0.61285394 34
nan nan nan 0
-1.5856425 -0.6610164 0.24687377 48
-1.9961071 -0.83049613 2.006058 38
-2.428308 -1.0098184 1.9984947 34
-3.0230556 -1.2571417 2.0087843 46
-3.823149 -1.5890781 2.0013998 52
-1.5356206 -0.63796252 0.66756696 28
-1.3558159 -0.56298685 0.44479293 69
-1.4909735 -0.61880416 0.3170805 21
-1.4026119 -0.58184439 0.1549308 27
-0.029108608 -0.011524774 1.9941976 64
-0.29199746 -0.11930196 2.0057628 83
-0.38653055 -0.15896086 2.0327799 17
-0.48451272 -0.19962786 1.7214276 38
-0.54464751 -0.22450703 1.447412 38
-0.97706318 -0.40292987 2.0033376 67
-1.212909 -0.50018388 1.9995594 82
-1.4895856 -0.61427552 2.0050688 78
-0.11673926 -0.046423491 2.0060561 53
-0.20511147 -0.080350175 2.0082631 60
-0.10324042 -0.042330455 0.46688879 5
-0.48142678 -0.19746977 1.4692504 33
-0.86578161 -0.35545278 1.9981228 83
-1.0920655 -0.44834805 2.0011425 91
-1.4021151 -0.57563239 2.0810401 28
-1.6412889 -0.67381948 2.0016804 86
-1.803066 -0.74575704 1.9972385 58
-2.2079701 -0.91322279 2.0083144 33
-2.6954033 -1.1142745 1.9968475 64
-3.3831069 -1.3985655 2.0020061 45
-1.5174992 -0.62702078 0.75170451 34
-1.658648 -0.6850034 0.61708152 34
nan nan nan 0
-1.5971466 -0.6592778 0.2477662 40
-1.998994 -0.8235234 2.006058 38
-2.431818 -1.0013359 1.9984947 37
-3.0274253 -1.2465817 2.0087843 54
-3.8286726 -1.5757233 2.0013998 52
-1.5553075 -0.63978451 0.67413771 27
-1.3532773 -0.55640244 0.44362059 69
-1.5022855 -0.61736059 0.31846014 22
-1.4000131 -0.57504666 0.15472928 29
-0.029148661 -0.011423096 1.9941976 64
-0.2924121 -0.11828197 2.0057628 86
-0.38425383 -0.15645894 2.0180943 20
-0.48382372 -0.1973713 1.7166559 38
-0.54542792 -0.2226045 1.447412 38
-0.97846371 -0.39951685 2.0033376 83
-1.2146475 -0.495947 1.9995594 84
-1.4917208 -0.60907215 2.0050688 78
-0.11690059 -0.046015713 2.0060561 53
-0.20539071 -0.079633705 2.0082631 60
-0.10455312 -0.042442635 0.47172797 5
-0.48051432 -0.19513884 1.4645576 30
-0.86701709 -0.35242847 1.9981228 81
-1.0936238 -0.44453329 2.0011425 91
-1.4013237 -0.56959963 2.0770507 25
-1.6436309 -0.66808617 2.0016804 85
-1.8089585 -0.74081016 2.0007432 40
-2.2111444 -0.90550995 2.0083144 33
-2.6992767 -1.1048589 1.9968475 63
-3.3879683 -1.3867476 2.0020061 37
-1.5325511 -0.62698609 0.75732362 36
-1.66991 -0.68284088 0.61989993 33
nan nan nan 0
-1.6178778 -0.66123503 0.24955103 35
-2.0053141 -0.81795084 2.0093827 38
-2.4352984 -0.99284118 1.9984947 44
-3.0357504 -1.2376339 2.0113168 63
-3.8341491 -1.5623491 2.0013998 52
-1.5750258 -0.64147669 0.68070847 27
-1.3642149 -0.55534041 0.44596523 40
-1.5181923 -0.6177119 0.32052958 23
-1.4112676 -0.57392025 0.15513234 21
-0.029188357 -0.011321278 1.9941976 64
-0.2928232 -0.11726055 2.0057628 88
-0.38385326 -0.1547361 2.0131991 27
-0.48450971 -0.19568124 1.7166559 38
-0.54620159 -0.22069922 1.447412 38
-0.97985232 -0.39609894 2.0033376 81
-1.2163712 -0.49170405 1.9995594 82
-1.4938377 -0.60386133 2.0050688 78
-0.1170605 -0.045607377 2.0060561 53
-0.20566744 -0.078916267 2.0082631 60
-0.10586784 -0.042546161 0.47656718 5
-0.47959137 -0.1928167 1.459865 27
-0.86824208 -0.34939986 1.9981228 83
-1.0975884 -0.44168675 2.0054085 83
-1.4005075 -0.5635795 2.0730612 25
-1.6459529 -0.66234475 2.0016804 86
-1.8115335 -0.73449123 2.0007432 38
-2.2142918 -0.89778608 2.0083144 33
-2.7031167 -1.09543 1.9968475 63
-3.3927879 -1.3749131 2.0020061 34
-1.5261365 -0.61815184 0.75357759 45
-1.6811768 -0.68060809 0.62271833 33
nan nan nan 0
nan nan nan 0
-2.0081568 -0.81094605 2.0093827 38
-2.4350011 -0.98282152 1.9955517 54
-3.0400519 -1.2270296 2.0113168 65
-3.8395796 -1.5489559 2.0013998 51
-1.5903949 -0.64127296 0.68563652 27
nan nan nan 0
-1.5341198 -0.61795956 0.32259902 24
-1.408628 -0.56712466 0.1549308 15
-0.029227696 -0.011219323 1.9941976 66
-0.29323074 -0.11623769 2.0057628 88
-0.38439107 -0.15339525 2.0131991 32
-0.48518983 -0.1939888 1.7166559 38
-0.5469687 -0.21879129 1.447412 38
-0.97900462 -0.39178607 1.9989488 81
-1.2180803 -0.48745513 1.9995594 82
-1.4959365 -0.59864324 2.0050688 78
-0.11721899 -0.045198478 2.0060561 53
-0.20594165 -0.078197874 2.0082631 62
-0.10601571 -0.042176355 0.47656718 5
-0.47865811 -0.19050337 1.4551722 25
-0.86945635 -0.346367 1.9981228 83
-1.0991235 -0.43785274 2.0054085 71
-1.3996662 -0.55757195 2.0690715 24
-1.648255 -0.65659523 2.0016804 86
-1.8140862 -0.7281633 2.0007432 34
-2.2137995 -0.88860118 2.0051763 32
-2.7069242 -1.0859877 1.9968475 63
-3.397567 -1.3630617 2.0020061 29
-1.528285 -0.61282086 0.75357759 49
-1.6879953 -0.67652017 0.62412751 33
-1.7189928 -0.68894345 0.44306993 52
-4.4054623 -1.7647387 0.5181694 39
-2.0109754 -0.80393136 2.0093827 38
-2.4384172 -0.97431582 1.9955517 62
-3.0443168 -1.2164104 2.0113168 65
-3.8449633 -1.5355438 2.0013998 51
-1.6364832 -0.65322453 0.70206332 26
-7.3047504 -2.9143033 1.9875627 27
-1.5500677 -0.61810356 0.32466847 24
-1.4430856 -0.5751518 0.15634152 14
-0.029266682 -0.011117231 1.9941976 66
-0.29363468 -0.11521341 2.0057628 92
-0.38492417 -0.15205254 2.0131991 35
-0.4844752 -0.19174442 1.711884 38
-0.54772913 -0.21688068 1.447412 38
-0.98036623 -0.38836628 1.9989488 83
-1.2197742 -0.48320025 1.9995594 80
-1.4950365 -0.59223706 2.0012317 80
-0.11737605 -0.044789035 2.0060561 51
-0.20621336 -0.077478528 2.0082631 64
-0.1108441 -0.043648358 0.495924 5
-0.4793202 -0.18883137 1.4551722 25
-0.87066019 -0.34332991 1.9981228 83
-1.1006452 -0.4340134 2.0054085 52
-1.3988001 -0.55157733 2.0650823 24
-1.6505369 -0.65083778 2.0016804 86
-1.816617 -0.72182655 2.0007432 27
-2.2168877 -0.8808682 2.0051763 32
-2.7106984 -1.0765321 1.9968475 63
-3.4023042 -1.3511935 2.0020061 26
-1.5347238 -0.60919279 0.75545061 39
-1.6992649 -0.67416215 0.62694591 33
-1.712255 -0.67931581 0.4412047 54
-4.4023371 -1.7456784 0.51727694 40
-2.0137694 -0.79690683 2.0093827 38
-2.4418035 -0.9657982 1.9955517 69
-3.0485444 -1.2057762 2.0113168 67
-3.8502996 -1.522113 2.0013998 51
-1.6607136 -0.65618515 0.71027678 29
-7.3058367 -2.8852162 1.985218 27
-1.5614283 -0.61632538 0.32604811 23
-1.5798573 -0.623281 0.16218591 20
-0.029305309 -0.011015004 1.9941976 64
-0.29403508 -0.11418773 2.0057628 93
-0.38545257 -0.15070799 2.0131991 35
-0.48514155 -0.19005211 1.711884 38
-0.54848278 -0.21496743 1.447412 38
-0.98171592 -0.38494185 1.9989488 81
-1.2214535 -0.4789395 1.9995594 76
-1.4970946 -0.58701485 2.0012317 80
-0.11753169 -0.044379041 2.0060561 53
-0.20648254 -0.076758236 2.0082631 64
-0.10630757 -0.041435201 0.47656718 5
-0.47836864 -0.18653023 1.4504794 25
-0.87185329 -0.34028867 1.9981228 83
-1.104583 -0.43111706 2.0096743 28
-1.400717 -0.54669124 2.0650823 23
-1.6527985 -0.64507246 2.0016804 86
-1.8191255 -0.71548098 2.0007432 24
-2.2199492 -0.87312442 2.0051763 33
-2.7183309 -1.0685931 1.999589 56
-3.4069998 -1.3393091 2.0020061 26
nan nan nan 0
-1.7060732 -0.66997999 0.62835509 34
-1.7054712 -0.6697436 0.43933943 52
-4.4084034 -1.7303008 0.51727694 42
-2.0165389 -0.78987265 2.0093827 38
-2.4451597 -0.95726877 1.9955517 69
-3.0527349 -1.1951275 2.0113168 65
-3.8555894 -1.5086638 2.0013998 51
-1.7245669 -0.67446476 0.73327434 37
-7.3203907 -2.8614664 1.9863904 27
-1.5774081 -0.61627758 0.32811755 24
-1.6006383 -0.62503135 0.16299203 27
-0.029343581 -0.010912642 1.9941976 64
-0.2944319 -0.11316066 2.0057628 95
-0.38502669 -0.14899421 2.0083039 39
-0.48440948 -0.18781765 1.7071123 38
-0.5492298 -0.21305156 1.447412 38
-0.98528719 -0.38237944 2.0033376 81
-1.2231179 -0.47467291 1.9995594 67
-1.4991347 -0.58178544 2.0012317 78
-0.11768587 -0.04396851 2.0060561 55
-0.20674923 -0.076037012 2.0082631 64
-0.10293064 -0.039706673 0.46204957 5
-0.47901681 -0.18485928 1.4504794 27
-0.87506723 -0.33802792 2.0026236 85
-1.1060811 -0.4272587 2.0096743 17
-1.3998051 -0.54071242 2.0610926 23
-1.6550403 -0.63929915 2.0016804 86
-1.821612 -0.70912671 2.0007432 21
-2.2229834 -0.86537009 2.0051763 33
-2.7220445 -1.0590979 1.999589 56
-3.4116542 -1.3274083 2.0020061 27
-4.3862891 -1.7057376 1.9897792 12
-1.7128729 -0.66575855 0.62976426 35
-1.7032201 -0.66200674 0.43840683 40
-4.4144168 -1.7149019 0.51727694 36
-2.0192838 -0.78282881 2.0093827 38
-2.4522552 -0.95018816 1.9984947 69
-3.0568879 -1.1844642 2.0113168 67
-3.8608322 -1.495196 2.0013998 50
-1.7357188 -0.6718502 0.73655969 37
-7.3303342 -2.8358958 1.9863904 27
-1.5887876 -0.61433965 0.32949719 24
-1.6307708 -0.6302461 0.16420123 27
-0.029381495 -0.010810148 1.9941976 64
-0.29482511 -0.11213221 2.0057628 95
-0.38554445 -0.1476493 2.0083039 39
-0.48506215 -0.18612559 1.7071123 38
-0.54997021 -0.21113309 1.447412 38
-0.9866159 -0.37893781 2.0033376 81
-1.2247673 -0.47040054 1.9995594 55
-1.5011562 -0.57654893 2.0012317 78
-0.1181104 -0.043657381 2.0110476 55
-0.20701338 -0.075314857 2.0082631 67
-0.10541903 -0.040243734 0.47172797 4
-0.47804704 -0.18257046 1.4457866 29
-0.87624186 -0.33497131 2.0026236 86
-1.1075658 -0.42339513 2.0096743 17
-1.401684 -0.53582293 2.0610926 23
-1.6572618 -0.63351804 2.0016804 86
-1.827404 -0.70404583 2.0042477 21
-2.2259905 -0.85760516 2.0051763 32
-2.7257249 -1.0495898 1.999589 66
-3.4162667 -1.3154913 2.0020061 31
-4.4138494 -1.6987419 1.9991444 24
-1.7151862 -0.65977544 0.62976426 37
-1.7009357 -0.65429378 0.43747419 32
nan nan nan 0
-2.0220041 -0.77577537 2.0093827 38
-2.4555571 -0.94162238 1.9984947 73
-3.0610037 -1.1737864 2.0113168 67
-3.8660278 -1.48171 2.0013998 49
-1.7248236 -0.66071945 0.7316317 22
-7.340189 -2.8102906 1.9863904 27
-1.6001726 -0.61232972 0.3308768 27
-1.6422932 -0.62811911 0.16460429 26
-0.02941905 -0.010707522 1.9941976 67
-0.29521471 -0.11110239 2.0057628 95
-0.38510531 -0.14594185 2.0034087 44
-0.48431256 -0.18390116 1.7023406 39
-0.55070382 -0.20921205 1.447412 39
-0.98793274 -0.37549159 2.0033376 83
-1.226402 -0.46612245 1.9995594 39
-1.5031596 -0.57130539 2.0012317 78
-0.11826207 -0.043244831 2.0110476 56
-0.20727502 -0.074591786 2.0082631 69
nan nan nan 0
-0.47868139 -0.18090066 1.4457866 32
-0.87740576 -0.33191061 2.0026236 88
-1.109037 -0.41952643 2.0096743 18
-1.400727 -0.52986056 2.0571032 23
-1.659463 -0.62772924 2.0016804 86
-1.8298504 -0.69766265 2.0042477 25
-2.2289705 -0.84982973 2.0051763 32
-2.729372 -1.0400689 1.999589 66
-3.424978 -1.305136 2.004324 32
-4.4110875 -1.6800243 1.9953983 16
-1.717479 -0.65378433 0.62976426 36
nan nan nan 0
nan nan nan 0
-2.0246997 -0.76871258 2.0093827 38
-2.4588289 -0.93304515 1.9984947 73
-3.0691133 -1.1646239 2.0138493 68
-3.8711765 -1.468206 2.0013998 49
-5.1140704 -1.9385719 1.9915709 14
-7.3544993 -2.7863739 1.9875627 26
-1.6115627 -0.61024773 0.33225644 52
-1.6444758 -0.62238264 0.16460429 26
-0.029456247 -0.010604763 1.9941976 66
-0.29560074 -0.11007123 2.0057628 93
-0.3856124 -0.14459671 2.0034087 48
-0.48495156 -0.18220948 1.7023406 38
-0.55143076 -0.20728847 1.447412 39
-0.98923743 -0.37204075 2.0033376 81
-1.2280215 -0.46183866 1.9995594 37
-1.5051447 -0.56605488 2.0012317 78
-0.11841231 -0.042831752 2.0110476 56
-0.20753415 -0.073867813 2.0082631 71
-0.48157907 -0.17989369 2.0154345 27
-0.47769356 -0.1786243 1.4410939 34
-0.87855899 -0.32884589 2.0026236 90
-1.108052 -0.41473842 2.0054085 33
-1.402568 -0.52496791 2.0571032 23
-1.6616441 -0.6219328 2.0016804 86
-1.8322744 -0.69127107 2.0042477 26
-2.2319236 -0.842044 2.0051763 32
-2.7368987 -1.0320106 2.0023305 64
-3.429513 -1.2931726 2.004324 39
-4.416925 -1.6646166 1.9953983 14
-1.7197505 -0.64778519 0.62976426 35
-9.3869696 -3.5358145 1.9958825 24
nan nan nan 0
-2.0273707 -0.76164037 2.0093827 38
-2.4620709 -0.92445654 1.9984947 73
-3.0731599 -1.1539037 2.0138493 68
-3.8762777 -1.4546841 2.0013998 50
-5.1252279 -1.922367 1.9932135 47
-7.364181 -2.760685 1.9875627 26
-1.6275952 -0.60983121 0.33432591 56
-1.6185664 -0.60612619 0.16339511 40
-0.029493084 -0.010501878 1.9941976 64
-0.29598317 -0.10903873 2.0057628 92
-0.38611478 -0.14324978 2.0034087 50
-0.48418468 -0.17999521 1.6975689 38
-0.55215096 -0.20536233 1.447412 39
-0.98828459 -0.36774987 1.9989488 81
-1.2296262 -0.45754924 1.9995594 34
-1.5071114 -0.56079751 2.0012317 80
-0.1185611 -0.04241816 2.0110476 56
-0.20779072 -0.073142931 2.0082631 71
-0.48220408 -0.17821157 2.0154345 27
-0.47831419 -0.17695576 1.4410939 35
-0.87970155 -0.32577711 2.0026236 92
-1.109493 -0.41086808 2.0054085 40
-1.4015656 -0.51902211 2.0531137 24
-1.663805 -0.6161288 2.0016804 85
-1.8346764 -0.68487102 2.0042477 33
-2.234849 -0.83424807 2.0051763 32
-2.7404842 -1.0224507 2.0023305 63
-3.434006 -1.2811934 2.004324 44
-4.4444275 -1.6572872 2.0047636 12
-1.7175059 -0.6401028 0.62835509 30
-9.390048 -3.4995952 1.9940171 23
-1.6051817 -0.59792155 0.24642757 44
-2.0300167 -0.75455886 2.0093827 38
-2.4652827 -0.91585666 1.9984947 73
-3.0771689 -1.1431693 2.0138493 67
-3.8813322 -1.4411446 2.0013998 51
-5.1363344 -1.906108 1.9948562 47
-7.3737726 -2.7349622 1.9875627 24
-1.6482875 -0.61103147 0.33708516 35
-1.6300418 -0.60394406 0.16379815 38
-0.029529564 -0.010398864 1.9941976 64
-0.29636198 -0.10800488 2.0057628 92
-0.38661245 -0.14190112 2.0034087 50
-0.48481005 -0.17830399 1.6975689 38
-0.55286449 -0.20343372 1.447412 39
-0.98956221 -0.3642979 1.9989488 83
-1.2312158 -0.45325428 1.9995594 31
-1.5090598 -0.55553329 2.0012317 80
-0.11870844 -0.042004045 2.0110476 55
-0.20804477 -0.072417162 2.0082631 71
-0.48400456 -0.17695913 2.0202737 33
-0.47730842 -0.174692 1.4364011 37
-0.88083333 -0.3227044 2.0026236 92
-1.1109204 -0.40699267 2.0054085 60
-1.4005387 -0.51308984 2.0491242 24
-1.6691287 -0.61148345 2.0053556 88
-1.8370557 -0.67846262 2.0042477 36
-2.2377474 -0.82644182 2.0051763 32
-2.7440367 -1.0128783 2.0023305 64
-3.4384573 -1.2691987 2.004324 52
-4.4762821 -1.6513907 2.0160019 12
-1.7107278 -0.63078445 0.62553668 19
-9.388382 -3.4616988 1.9912194 19
-1.6212776 -0.59748089 0.2477662 40
-2.0361435 -0.74875712 2.0127075 38
-2.4684646 -0.9072457 1.9984947 73
-3.0811408 -1.132421 2.0138493 67
-3.8863392 -1.4275874 2.0013998 52
-5.1473894 -1.8897946 1.9964989 46
-7.3878374 -2.7108808 1.9887351 25
-1.669008 -0.6120947 0.33984444 24
nan nan nan 0
-0.029565681 -0.010295724 1.9941976 64
-0.29673716 -0.10696972 2.0057628 92
-0.38806254 -0.14089814 2.0083039 54
-0.48402596 -0.17610002 1.6927972 38
-0.55357116 -0.20150264 1.447412 38
-0.99082786 -0.36084145 1.9989488 81
-1.2327905 -0.44895378 1.9995594 27
-1.5140022 -0.55135936 2.0050688 78
-0.11858088 -0.041494239 2.0060561 55
-0.20829628 -0.071690507 2.0082631 73
-0.48343647 -0.17484081 2.0154345 37
-0.47791529 -0.17302482 1.4364011 38
-0.88195443 -0.31962776 2.0026236 90
-1.1123343 -0.40311241 2.0054085 81
-1.3994875 -0.50717103 2.0451348 26
-1.671253 -0.60565335 2.0053556 86
-1.8394128 -0.67204595 2.0042477 39
-2.2442751 -0.81996155 2.0083144 32
-2.7475555 -1.0032938 2.0023305 64
-3.4470282 -1.258708 2.0066421 54
-4.4994388 -1.642113 2.023494 12
-1.7039056 -0.62152123 0.62271833 14
-9.4188662 -3.4356387 1.9949498 18
nan nan nan 0
-2.0387447 -0.74164504 2.0127075 38
-2.4716165 -0.89862365 1.9984947 73
-3.0850749 -1.1216589 2.0138493 67
-3.8912985 -1.4140129 2.0013998 53
-5.153955 -1.8718154 1.9964989 45
-7.3972549 -2.6850758 1.9887351 24
-1.6944109 -0.61470932 0.34329349 24
-3.0056632 -1.0898182 0.22264519 3
-0.02960144 -0.010192457 1.9941976 64
-0.29710877 -0.10593327 2.0057628 93
-0.38855201 -0.13954271 2.0083039 60
-0.48463768 -0.17440939 1.6927972 38
-0.55427122 -0.19956906 1.447412 38
-0.9920814 -0.3573806 1.9989488 81
-1.2343502 -0.44464776 1.9995594 27
-1.5159175 -0.54607105 2.0050688 80
-0.11872499 -0.041080061 2.0060561 53
-0.20854525 -0.07096298 2.0082631 73
-0.48404384 -0.17315225 2.0154345 38
-0.47851634 -0.17135553 1.4364011 39
-0.88306481 -0.31654721 2.0026236 88
-1.1137347 -0.39922714 2.0054085 89
-1.3984122 -0.50126588 2.0411453 26
-1.673357 -0.59981591 2.0053556 86
-1.8383938 -0.66440904 2.0007432 44
-2.247124 -0.81212258 2.0083144 32
-2.7510409 -0.99369687 2.0023305 64
-3.451401 -1.2466681 2.0066421 59
-4.5356669 -1.6374162 2.0366051 12
-1.7060647 -0.61556971 0.62271833 14
-9.4308014 -3.40274 1.9949498 17
-9.5426359 -3.4412086 1.0018609 12
-2.0413213 -0.73452401 2.0127075 38
-2.4747384 -0.88999063 1.9984947 73
-3.0889711 -1.1108832 2.0138493 67
-3.8962107 -1.4004211 2.0013998 52
-5.1604571 -1.8538133 1.9964989 46
-7.4111576 -2.6608808 1.9899074 25
-1.7058687 -0.61213619 0.34467313 25
-3.0376649 -1.0894392 0.22385439 3
-0.029636838 -0.010089066 1.9941976 64
-0.29747671 -0.10489552 2.0057628 92
-0.38903672 -0.13818555 2.0083039 62
-0.48524356 -0.17271663 1.6927972 38
-0.55496448 -0.1976331 1.447412 38
-0.99332285 -0.35391545 1.9989488 81
-1.2358947 -0.44033641 1.9995594 26
-1.5178146 -0.54077625 2.0050688 74
-0.11886766 -0.040665384 2.0060561 51
-0.2087917 -0.070234589 2.0082631 73
-0.48345944 -0.17104211 2.0105951 38
-0.47911158 -0.16968416 1.4364011 40
-0.88416439 -0.31346285 2.0026236 88
-1.1151215 -0.39533707 2.0054085 91
-1.4001534 -0.49638146 2.0411453 26
-1.6754405 -0.59397113 2.0053556 86
-1.8407017 -0.65798783 2.0007432 54
-2.2499449 -0.80427372 2.0083144 32
-2.7544928 -0.98408794 2.0023305 64
-3.4557316 -1.2346128 2.0066421 60
-4.5500865 -1.6246916 2.0403512 12
-1.7262758 -0.61606032 0.62835509 19
-9.4518747 -3.3731019 1.9968151 17
-9.5358267 -3.4011855 1.0000761 43
-2.0438728 -0.72739404 2.0127075 38
-2.4778299 -0.8813467 1.9984947 71
-3.0928304 -1.1000938 2.0138493 67
-3.9010754 -1.3868122 2.0013998 50
-5.1713471 -1.8373698 1.9981416 44
-7.4204006 -2.6349947 1.9899074 23
-1.7453309 -0.61942852 0.35019165 27
-3.0649917 -1.0871798 0.22486204 3
-0.029671876 -0.0099855531 1.9941976 64
-0.29784107 -0.10385649 2.0057628 90
-0.39047742 -0.13716409 2.0131991 66
-0.4844346 -0.17052589 1.6880255 38
-0.55565095 -0.1956947 1.447412 39
-0.99681187 -0.35124215 2.0033376 81
-1.2374243 -0.43601966 1.9995594 25
-1.5196929 -0.53547478 2.0050688 74
-0.11900889 -0.040250212 2.0060561 51
-0.20903558 -0.069505341 2.0082631 73
-0.48405358 -0.16935349 2.0105951 38
-0.47807226 -0.16744035 1.4317083 46
-0.88525319 -0.31037459 2.0026236 83
-1.1164948 -0.39144215 2.0054085 89
-1.3990333 -0.49049377 2.0371556 24
-1.6775037 -0.58811915 2.0053556 86
-1.8429874 -0.65155858 2.0007432 56
-2.2527387 -0.79641509 2.0083144 31
-2.7579112 -0.97446692 2.0023305 64
-3.4600201 -1.2225426 2.0066421 62
-4.560101 -1.6103425 2.0422242 12
-1.7238921 -0.60843414 0.62694591 8
-9.4682245 -3.341723 1.9977478 17
-9.5288553 -3.3612518 0.99829119 40
-2.0463994 -0.72025514 2.0127075 38
-2.4808912 -0.87269205 1.9984947 73
-3.0966513 -1.0892912 2.0138493 68
-3.9058924 -1.3731866 2.0013998 50
-5.1777291 -1.8193072 1.9981416 45
-7.4295535 -2.6090767 1.9899074 23
-1.7334642 -0.60841233 0.34812221 5
-3.0734823 -1.0781281 0.22506356 4
-0.029706551 -0.0098819183 1.9941976 62
-0.29820177 -0.1028162 2.0057628 90
-0.39095384 -0.13580021 2.0131991 71
-0.48502693 -0.16883387 1.6880255 38
-0.55633068 -0.19375393 1.447412 38
-0.99803185 -0.34776047 2.0033376 83
-1.2389388 -0.43169758 1.9995594 25
-1.5215528 -0.5301668 2.0050688 78
-0.11914866 -0.039834544 2.0060561 49
-0.20927693 -0.068775252 2.0082631 75
-0.48464176 -0.16766277 2.0105951 38
-0.47865385 -0.16577055 1.4317083 46
-0.8863312 -0.30728263 2.0026236 83
-1.1178542 -0.38754249 2.0054085 89
-1.4007368 -0.48560727 2.0371556 24
-1.6795464 -0.58226001 2.0053556 86
-1.8486167 -0.64629829 2.0042477 54
-2.2555051 -0.78854662 2.0083144 31
-2.7612958 -0.96483403 2.0023305 64
-3.4642665 -1.2104574 2.0066421 64
-4.5656943 -1.5944148 2.0422242 13
nan nan nan 0
-9.4844694 -3.3102713 1.9986804 19
-9.5358276 -3.3263295 0.99784499 40
-2.0489011 -0.71310747 2.0127075 38
-2.4839225 -0.86402684 1.9984947 71
-3.1004348 -1.0784754 2.0138493 67
-3.9106619 -1.3595439 2.0013998 50
-5.1840477 -1.8012224 1.9981416 44
-7.4386158 -2.5831268 1.9899074 24
-9.7356939 -3.3789034 1.5277071 71
-3.0866671 -1.0706675 0.22546661 5
-0.029740866 -0.0097781625 1.9941976 62
-0.29855883 -0.10177466 2.0057628 86
-0.39142549 -0.13443471 2.0131991 73
-0.48420107 -0.16665378 1.6832538 38
-0.55700356 -0.19181077 1.447412 39
-0.99923968 -0.34427461 2.0033376 83
-1.2430985 -0.42828682 2.0036924 25
-1.5233941 -0.52485234 2.0050688 78
-0.11928698 -0.039418396 2.0060561 49
-0.20951574 -0.06804432 2.0082631 73
-0.48522407 -0.16597004 2.0105951 39
-0.47922957 -0.16409872 1.4317083 46
-0.88739842 -0.30418688 2.0026236 81
-1.1192002 -0.38363811 2.0054085 89
-1.3995723 -0.47973758 2.0331662 24
-1.6815685 -0.57639378 2.0053556 85
-1.8508615 -0.63984144 2.0042477 42
-2.2582436 -0.78066862 2.0083144 31
-2.764647 -0.95518941 2.0023305 64
-3.4684708 -1.1983575 2.0066421 62
-4.5756149 -1.5799813 2.0440972 13
-6.1858578 -2.1347964 2.0121851 14
-9.5052528 -3.2803488 2.0005455 21
-9.5285492 -3.2865276 0.99606007 39
-2.0513778 -0.70595115 2.0127075 37
-2.4869232 -0.85535103 1.9984947 73
-3.1041808 -1.0676461 2.0138493 67
-3.9153838 -1.345885 2.0013998 50
-5.1858373 -1.7815814 1.9964989 37
-7.4475875 -2.5571456 1.9899074 24
-9.728693 -3.3384697 1.524948 93
-3.0809338 -1.0566449 0.22506356 7
-0.029774815 -0.0096742883 1.9941976 62
-0.29891229 -0.10073188 2.0057628 73
-0.39092818 -0.13274029 2.0083039 75
-0.48477986 -0.16496259 1.6832538 38
-0.5576697 -0.18986531 1.447412 39
-1.0004354 -0.34078449 2.0033376 83
-1.244586 -0.42394498 2.0036924 25
-1.5221822 -0.51849782 2.0012317 78
-0.11942386 -0.03900177 2.0060561 51
-0.20975198 -0.067312554 2.0082631 75
-0.48580047 -0.16427529 2.0105951 39
-0.47979945 -0.16242489 1.4317083 50
-0.88845479 -0.30108744 2.0026236 81
-1.1205326 -0.37972903 2.0054085 89
-1.4012384 -0.47484922 2.0331662 24
-1.6835704 -0.57052052 2.0053556 88
-1.8564583 -0.63453025 2.0077524 40
-2.2609551 -0.77278113 2.0083144 31
-2.7679644 -0.94553328 2.0023305 64
-3.4726326 -1.1862429 2.0066421 62
-4.5811019 -1.5639998 2.0440972 14
-6.1796508 -2.1085432 2.0079575 14
-9.5305929 -3.2519083 2.0033436 21
-9.5305357 -3.2500319 0.99516767 41
-2.0538297 -0.6987862 2.0127075 37
-2.4898939 -0.84666491 1.9984947 71
-3.1078882 -1.0568041 2.0138493 67
-3.920058 -1.3322096 2.0013998 49
-5.1920247 -1.7634686 1.9964989 16
-7.461071 -2.5326955 1.9910797 24
-9.721529 -3.2981255 1.5221887 88
-3.0798724 -1.0442799 0.22486204 8
-0.029808402 -0.0095702959 1.9941976 62
-0.29926208 -0.099687859 2.0057628 74
-0.39138916 -0.13137488 2.0083039 75
-0.48393711 -0.16279325 1.6784821 38
-0.55832911 -0.18791752 1.447412 39
-1.0016189 -0.33729023 2.0033376 81
-1.2487253 -0.42049608 2.0078254 25
-1.523983 -0.51318127 2.0012317 76
-0.11955927 -0.038584664 2.0060561 51
-0.20998566 -0.066579975 2.0082631 75
-0.48637092 -0.16257852 2.0105951 39
-0.48036349 -0.16074911 1.4317083 52
-0.88950038 -0.29798427 2.0026236 80
-1.1218512 -0.3758153 2.0054085 89
-1.4000297 -0.46899778 2.0291767 25
-1.6855516 -0.56464016 2.0053556 88
-1.8620405 -0.62918782 2.0112567 40
-2.2636387 -0.76488429 2.0083144 31
-2.7712481 -0.93586546 2.0023305 63
-3.4725547 -1.1726965 2.004324 60
-4.5865331 -1.5479993 2.0440972 14
-6.1778817 -2.0838928 2.0051391 13
-9.55585 -3.223331 2.0061414 23
-9.5276661 -3.2119718 0.99382907 41
-2.0562563 -0.69161278 2.0127075 38
-2.4928341 -0.83796835 1.9984947 73
-3.1115584 -1.0459491 2.0138493 67
-3.9246843 -1.3185179 2.0013998 49
-5.1981487 -1.7453344 1.9964989 16
-7.4698658 -2.5066359 1.9910797 25
-9.7329817 -3.2641711 1.5221887 83
-3.0787621 -1.0319351 0.22466049 9
-0.029841628 -0.0094661871 1.9941976 64
-0.29960823 -0.098642632 2.0057628 76
-0.39184538 -0.13000786 2.0083039 79
-0.48450243 -0.16110301 1.6784821 38
-0.55898166 -0.18596745 1.447412 39
-1.0027901 -0.33379188 2.0033376 81
-1.2528554 -0.41702333 2.0119584 25
-1.5257649 -0.50785851 2.0012317 78
-0.11969323 -0.038167089 2.0060561 51
-0.21021679 -0.065846585 2.0082631 77
-0.48693547 -0.16087979 2.0105951 38
-0.48092169 -0.15907134 1.4317083 56
-0.89053506 -0.29487753 2.0026236 78
-1.1231563 -0.37189701 2.0054085 89
-1.4016582 -0.4641079 2.0291767 25
-1.6875123 -0.55875307 2.0053556 86
-1.8676081 -0.62381399 2.0147614 39
-2.266295 -0.75697798 2.0083144 31
-2.7744977 -0.92618632 2.0023305 63
-3.4766271 -1.1605679 2.004324 62
-4.5875111 -1.5305126 2.0422242 15
-6.1851182 -2.0623152 2.0051391 12
-9.5856838 -3.1961701 2.0098717 24
-9.5293694 -3.1755455 0.99293667 41
-2.0586579 -0.68443084 2.0127075 38
-2.495744 -0.82926166 1.9984947 73
-3.1192818 -1.0364406 2.0163815 67
-3.9335697 -1.3062403 2.0034976 49
-5.2042098 -1.7271789 1.9964989 25
-7.4785705 -2.480546 1.9910797 25
-9.7396154 -3.2286184 1.5214988 76
-3.0776031 -1.0196109 0.22445896 10
-0.029874489 -0.0093619628 1.9941976 62
-0.29995075 -0.097596206 2.0057628 76
-0.39229679 -0.12863928 2.0083039 85
-0.48506182 -0.15941079 1.6784821 38
-0.55962741 -0.18401511 1.447412 39
-1.0039492 -0.33028945 2.0033376 81
-1.2569766 -0.41352689 2.0160913 26
-1.5305737 -0.50353128 2.0050688 78
-0.11982573 -0.037749048 2.0060561 51
-0.21044536 -0.06511239 2.0082631 78
-0.48629838 -0.15878871 2.0057559 38
-0.48147401 -0.15739164 1.4317083 60
-0.891559 -0.29176721 2.0026236 78
-1.1244476 -0.36797422 2.0054085 89
-1.400405 -0.45827499 2.025187 26
-1.6894524 -0.55285925 2.0053556 86
-1.8697742 -0.61729103 2.0147614 39
-2.2689235 -0.7490626 2.0083144 32
-2.777714 -0.91649586 2.0023305 58
-3.4806571 -1.1484251 2.004324 62
-4.5928259 -1.5144898 2.0422242 15
-6.1922793 -2.0407126 2.0051391 12
-9.6107788 -3.1673033 2.0126698 25
-9.5309353 -3.1391463 0.99204421 40
-2.0610344 -0.67724061 2.0127075 37
-2.4986234 -0.82054478 1.9984947 73
-3.1228807 -1.025546 2.0163815 67
-3.9381056 -1.2925016 2.0034976 49
-5.2102065 -1.7090023 1.9964989 45
-7.4918022 -2.45594 1.9922521 25
-9.7461224 -3.1930597 1.5208091 73
-3.0811434 -1.0088617 0.22445896 10
-0.029906986 -0.0092576239 1.9941976 62
-0.3002896 -0.096548587 2.0057628 74
-0.39371207 -0.12758292 2.0131991 91
-0.48419479 -0.15725537 1.6737103 38
-0.55840832 -0.18145683 1.4428096 39
-1.0050958 -0.326783 2.0033376 81
-1.2637646 -0.41087678 2.0243571 27
-1.532322 -0.49818552 2.0050688 76
-0.11995677 -0.037330545 2.0060561 51
-0.21118216 -0.064532794 2.0132346 82
-0.4868497 -0.15709025 2.0057559 38
-0.4820205 -0.15571003 1.4317083 66
-0.8946442 -0.28932339 2.0071244 78
-1.1257253 -0.36404693 2.0054085 89
-1.4019963 -0.45338386 2.025187 26
-1.691372 -0.54695857 2.0053556 86
-1.8753078 -0.61186671 2.018266 39
-2.2715242 -0.74113798 2.0083144 31
-2.7808962 -0.90679425 2.0023305 58
-3.4846447 -1.1362683 2.004324 62
-4.5936766 -1.4970121 2.0403512 15
-6.1948037 -2.0175993 2.0037298 13
-9.6217756 -3.1337359 2.0126698 26
-9.5323658 -3.1027756 0.99115187 43
-2.063386 -0.67004216 2.0127075 37
-2.5014725 -0.811818 1.9984947 73
-3.1264415 -1.0146389 2.0163815 67
-3.9425931 -1.2787472 2.0034976 51
-5.220633 -1.692261 1.9981416 46
-7.500329 -2.4297738 1.9922521 26
-9.7572088 -3.1590199 1.5208091 67
-3.084646 -0.9981004 0.22445896 10
-0.029939121 -0.0091531724 1.9941976 62
-0.30062479 -0.095499799 2.0057628 73
-0.394155 -0.12620783 2.0131991 91
-0.48474076 -0.15556425 1.6737103 38
-0.55903834 -0.17950651 1.4428096 39
-1.0062305 -0.32327259 2.0033376 83
-1.2732286 -0.40904501 2.0367558 27
-1.5340518 -0.4928337 2.0050688 76
-0.12008634 -0.036911596 2.0060561 51
-0.21140616 -0.063795239 2.0132346 84
-0.4861967 -0.1550079 2.0009167 38
-0.48256108 -0.15402651 1.4317083 64
-0.89564866 -0.28619871 2.0071244 78
-1.1269891 -0.3601152 2.0054085 89
-1.4006994 -0.44756988 2.0211978 28
-1.6932709 -0.54105121 2.0053556 86
-1.8774321 -0.60531694 2.018266 39
-2.2740974 -0.73320442 2.0083144 31
-2.7840447 -0.89708155 2.0023305 64
-3.4885898 -1.1240978 2.004324 54
-4.594461 -1.479547 2.0384781 15
-6.2018085 -1.9959632 2.0037298 14
-9.6279802 -3.0986257 2.0117371 27
-9.5336571 -3.066433 0.99025941 41
-2.0657122 -0.66283548 2.0127075 38
-2.5042911 -0.80308133 1.9984947 73
-3.1258588 -1.0024029 2.0138493 67
-3.9470325 -1.2649772 2.0034976 50
-5.2310052 -1.6754676 1.9997842 45
-7.5133939 -2.4050593 1.9934242 27
-9.7681761 -3.1249418 1.5208091 66
-3.0928698 -0.98884833 0.22466049 14
-0.029970888 -0.00904861 1.9941976 62
-0.30095631 -0.094449833 2.0057628 73
-0.39459315 -0.12483121 2.0131991 89
-0.48385715 -0.1534199 1.6689386 38
-0.55966151 -0.17755401 1.4428096 40
-1.0073528 -0.31975821 2.0033376 83
-1.2800131 -0.40630081 2.0450218 28
-1.5357627 -0.48747584 2.0050688 76
-0.12021445 -0.036492188 2.0060561 53
-0.21162754 -0.063056901 2.0132346 88
-0.48553506 -0.15293197 1.9960775 38
-0.48309579 -0.15234111 1.4317083 64
-0.89664221 -0.28307056 2.0071244 78
-1.1282393 -0.35617906 2.0054085 89
-1.4022532 -0.4426778 2.0211978 28
-1.6951492 -0.5351373 2.0053556 86
-1.8795338 -0.59875977 2.018266 39
-2.2766433 -0.72526181 2.0083144 31
-2.787159 -0.88735801 2.0023305 64
-3.4967136 -1.1132575 2.0066421 54
-4.59518 -1.4620948 2.0366051 17
-6.2041669 -1.9728489 2.0023208 17
-9.6387367 -3.0649986 2.0117371 28
-9.5348091 -3.0301187 0.98936695 41
-2.0680134 -0.65562075 2.0127075 37
-2.5070789 -0.79433477 1.9984947 73
-3.1293387 -0.99148554 2.0138493 67
-3.9557509 -1.2525618 2.0055959 50
-5.2368221 -1.6571978 1.9997842 45
-7.5217433 -2.3788183 1.9934242 26
-9.7790251 -3.0908256 1.5208091 62
-3.1010666 -0.9795509 0.22486204 10
-0.030000728 -0.0089491727 1.9941976 60
-0.30201003 -0.093681335 2.0107021 69
-0.39500493 -0.12352201 2.0131991 91
-0.48436323 -0.15181451 1.6689386 38
-0.56024718 -0.17569713 1.4428096 42
-1.0084076 -0.31641594 2.0033376 83
-1.2894082 -0.40458125 2.0574207 28
-1.5373709 -0.48238039 2.0050688 76
-0.12032851 -0.036114346 2.0060561 53
-0.2118246 -0.062391747 2.0132346 89
-0.48601311 -0.15140589 1.9960775 38
-0.48357201 -0.15082267 1.4317083 60
-0.89757597 -0.28009567 2.0071244 80
-1.1294142 -0.35243574 2.0054085 89
-1.4008362 -0.43712756 2.0172081 30
-1.6968219 -0.52980918 2.0053556 86
-1.8815089 -0.59252369 2.018266 39
-2.2790356 -0.71770817 2.0083144 31
-2.7900863 -0.87811059 2.0023305 64
-3.5003862 -1.1016557 2.0066421 64
-4.5953288 -1.4462596 2.0347321 17
-6.2103338 -1.9533484 2.0023208 19
-9.6441622 -3.0315456 2.0108044 32
-9.5353031 -2.9954987 0.98847455 41
-2.0701761 -0.64875942 2.0127075 37
-2.5096993 -0.78601664 1.9984947 69
-3.1324384 -0.98164958 2.0138493 68
-3.9596665 -1.2401283 2.0055959 50
-5.2465091 -1.6421485 2.0014269 45
-7.5338187 -2.3566275 1.9945965 24
-9.7934113 -3.0615654 1.5214988 60
-3.1136661 -0.97278345 0.22526509 3
-0.030033328 -0.0088391546 1.9941976 60
-0.30235136 -0.092573784 2.0107021 68
-0.39545503 -0.12207341 2.0131991 93
-0.48491639 -0.15003821 1.6689386 38
-0.56275368 -0.17422025 1.447412 44
-1.0095606 -0.31271783 2.0033376 81
-1.2962584 -0.40151784 2.0656867 28
-1.5391285 -0.47674242 2.0050688 78
-0.12046628 -0.035652053 2.0060561 55
-0.21206261 -0.061577935 2.0132346 91
-0.48538855 -0.14916919 1.9912384 38
-0.48414758 -0.14896479 1.4317083 56
-0.8986448 -0.27664715 2.0071244 80
-1.1307591 -0.34809649 2.0054085 89
-1.3996239 -0.43085879 2.0132186 32
-1.698935 -0.52299351 2.0053556 88
-1.8836679 -0.58562368 2.018266 38
-2.2816508 -0.70935029 2.0083144 31
-2.7932861 -0.8678785 2.0023305 64
-3.5044005 -1.0888189 2.0066421 64
-4.5964208 -1.4272296 2.0328591 17
-6.2132072 -1.9280663 2.0009115 22
-9.6557312 -2.9944928 2.0108044 37
-9.537221 -2.955915 0.98758215 41
-2.0726519 -0.64080572 2.0127075 37
-2.5126989 -0.77637434 1.9984947 73
-3.1363535 -0.96906722 2.0138493 68
-3.964613 -1.2242231 2.0055959 50
-5.2530589 -1.6210744 2.0014269 44
-7.547863 -2.3277984 1.9957689 24
-9.8145599 -3.0268583 1.5228784 56
-3.1269267 -0.96376371 0.22566816 3
-0.030064 -0.0087342653 1.9941976 62
-0.30267265 -0.091517814 2.0107021 62
-0.39587876 -0.12069228 2.0131991 93
-0.48400885 -0.14790821 1.6641669 38
-0.56335837 -0.1722548 1.447412 47
-1.010646 -0.30919191 2.0033376 81
-1.3030339 -0.398637 2.0739524 28
-1.5407833 -0.47136697 2.0050688 76
-0.12059 -0.03523133 2.0060561 56
-0.21227625 -0.060837328 2.0132346 91
-0.48590627 -0.14747396 1.9912384 38
-0.48466462 -0.14727388 1.4317083 56
-0.89955723 -0.27366561 2.0071244 80
-1.1319072 -0.34434485 2.0054085 89
-1.4010448 -0.42621511 2.0132186 34
-1.7006601 -0.51735669 2.0053556 88
-1.8857007 -0.57904488 2.018266 38
-2.2878344 -0.70252424 2.011452 31
-2.8002958 -0.85934949 2.0050719 64
-3.5081799 -1.0765796 2.0066421 64
-4.5969424 -1.4098171 2.0309861 19
-6.2198992 -1.9063663 2.0009115 23
-9.6656084 -2.9624565 2.0108044 41
-9.537447 -2.9213552 0.98668975 43
-2.0747654 -0.63392907 2.0127075 37
-2.5152597 -0.76803762 1.9984947 73
-3.13955 -0.95866144 2.0138493 67
-3.9686506 -1.2110693 2.0055959 49
-5.2584057 -1.6036457 2.0014269 45
-7.5601902 -2.304173 1.9969412 22
-9.8345413 -2.9954665 1.5242581 53
-3.1254923 -0.95138794 0.22546661 13
-0.030094303 -0.008629269 1.9941976 62
-0.30299029 -0.090460733 2.0107021 54
-0.3962976 -0.11930966 2.0131991 93
-0.48452222 -0.14621781 1.6641669 38
-0.56582654 -0.17085196 1.4520147 51
-1.0117191 -0.30566218 2.0033376 79
-1.3098052 -0.39571378 2.0822184 27
-1.5424192 -0.46598572 2.0050688 74
-0.12071225 -0.034810174 2.0060561 55
-0.21248731 -0.060095977 2.0132346 95
-0.48641813 -0.14577694 1.9912384 38
-0.48517573 -0.1455812 1.4317083 52
-0.90050709 -0.27052391 2.0071244 80
-1.1331023 -0.34039167 2.0054085 89
-1.3996376 -0.42045486 2.0092292 35
-1.7024558 -0.51141715 2.0053556 83
-1.8877105 -0.57245898 2.018266 38
-2.2902727 -0.69453394 2.011452 31
-2.8032784 -0.84956944 2.0050719 66
-3.5119164 -1.0643271 2.0066421 63
-4.6018357 -1.3937622 2.0309861 19
-6.2265158 -1.8846432 2.0009115 24
-9.675889 -2.9286993 2.0108044 45
-9.5380526 -2.8851616 0.98579729 42
-2.0769656 -0.62668288 2.0127075 37
-2.5179253 -0.75925303 1.9984947 73
-3.1428769 -0.94769651 2.0138493 67
-3.9728537 -1.1972089 2.0055959 49
-5.2639713 -1.5852807 2.0014269 47
-7.5728416 -2.2791698 1.9981135 22
-9.8496799 -2.9625456 1.524948 53
-3.1622858 -0.95053917 0.22687733 80
-0.030124243 -0.0085241683 1.9941976 62
-0.3033042 -0.089402549 2.0107021 50
-0.39671165 -0.11792559 2.0131991 91
-0.48359829 -0.14409919 1.6593952 38
-0.56829172 -0.16943394 1.4566172 53
-1.01278 -0.30212876 2.0033376 81
-1.3138751 -0.39194369 2.0863512 27
-1.5440365 -0.46059886 2.0050688 76
-0.12083302 -0.034388602 2.0060561 55
-0.21269581 -0.059353888 2.0132346 95
-0.48571786 -0.14372131 1.9863992 38
-0.48568094 -0.14388673 1.4317083 52
-0.90144587 -0.2673789 2.0071244 80
-1.1342837 -0.3364343 2.0054085 89
-1.3982073 -0.41470963 2.0052397 37
-1.7042304 -0.50547135 2.0053556 83
-1.8896973 -0.56586623 2.018266 38
-2.2926831 -0.68653518 2.011452 31
-2.8062267 -0.83977896 2.0050719 64
-3.5156102 -1.0520618 2.0066421 63
-4.6022315 -1.3763621 2.0291131 19
-6.2330565 -1.8628972 2.0009115 26
-9.6860542 -2.8949063 2.0108044 54
-9.5385227 -2.8489995 0.98490483 41
-2.0791404 -0.61942911 2.0127075 37
-2.5205603 -0.75045925 1.9984947 69
-3.1461661 -0.93672001 2.0138493 67
-3.9770088 -1.1833338 2.0055959 48
-5.2694731 -1.5668964 2.0014269 47
-7.5854106 -2.2541063 1.9992859 20
-9.8694553 -2.9309654 1.5263276 52
-3.2182686 -0.95513076 0.22909418 59
-0.030153815 -0.0084189624 1.9941976 60
-0.30361441 -0.088343278 2.0107021 50
-0.39712089 -0.11654009 2.0131991 89
-0.48409832 -0.14241023 1.6593952 38
-0.57075387 -0.1680008 1.4612198 55
-1.0138283 -0.29859167 2.0033376 81
-1.3179345 -0.38815001 2.0904844 29
-1.5456347 -0.45520633 2.0050688 66
-0.12095232 -0.033966605 2.0060561 55
-0.2129017 -0.05861108 2.0132346 95
-0.48621657 -0.14202496 1.9863992 39
-0.48618022 -0.1421905 1.4317083 50
-0.90237373 -0.26423064 2.0071244 80
-1.1354511 -0.33247289 2.0054085 89
-1.3967538 -0.40897948 2.00125 38
-1.7059845 -0.49951938 2.0053556 85
-1.8916609 -0.55926645 2.018266 38
-2.2950656 -0.67852801 2.011452 31
-2.8091412 -0.82997835 2.0050719 64
-3.5192611 -1.0397837 2.0066421 63
-4.6025615 -1.3589759 2.02724 19
-6.2395215 -1.8411283 2.0009115 29
-9.6961002 -2.8610778 2.0108044 58
-9.5436325 -2.8142779 0.98445863 45
-2.08129 -0.61216778 2.0127075 37
-2.5231643 -0.7416563 1.9984947 73
-3.1494164 -0.9257322 2.0138493 67
-3.9811151 -1.1694442 2.0055959 47
-5.2749109 -1.5484929 2.0014269 47
-7.6025605 -2.2303512 2.0016305 19
-9.8843784 -2.8978901 1.5270175 52
-3.293499 -0.96496159 0.23211715 10
-0.030181568 -0.0083189225 1.9941976 60
-0.30390573 -0.087335967 2.0107021 43
-0.39750516 -0.11522256 2.0131991 89
-0.48313364 -0.14038743 1.6546235 38
-0.57318383 -0.16665258 1.4658222 56
-1.0148129 -0.29522803 2.0033376 81
-1.3219163 -0.38456345 2.0946171 30
-1.5471358 -0.45007831 2.0050688 57
-0.12105843 -0.033586457 2.0060561 55
-0.21308477 -0.057941936 2.0132346 95
-0.48666036 -0.14049676 1.9863992 39
-0.48662454 -0.14066243 1.4317083 50
-0.90115297 -0.26063174 2.0026236 80
-1.1365473 -0.32870576 2.0054085 89
-1.3952072 -0.40350816 1.9972607 40
-1.7075454 -0.49415746 2.0053556 85
-1.8935052 -0.55299044 2.018266 38
-2.2973032 -0.67091364 2.011452 31
-2.8118782 -0.82065827 2.0050719 64
-3.5226901 -1.0281076 2.0066421 63
-4.6068077 -1.34451 2.02724 21
-6.2452745 -1.8215173 2.0009115 29
-9.7055349 -2.8289089 2.0108044 63
-9.5433502 -2.7798293 0.98356628 45
-2.0833087 -0.60526258 2.0127075 37
-2.5294917 -0.73441201 2.0014381 73
-3.1564493 -0.91703618 2.0163815 67
-3.9847693 -1.1569313 2.0055959 46
-5.2797494 -1.5319138 2.0014269 46
-7.6141977 -2.2078094 2.0028028 18
-9.8981886 -2.8682015 1.5277071 51
-3.3013129 -0.95599973 0.23231867 7
-0.030211855 -0.008208246 1.9941976 56
-0.3049714 -0.086433202 2.0156415 39
-0.39792481 -0.11376484 2.0131991 91
-0.48364496 -0.13861571 1.6546235 38
-0.57754678 -0.16562763 1.4750273 62
-1.0158882 -0.29150659 2.0033376 81
-1.326022 -0.38049194 2.0987501 31
-1.5487751 -0.44440475 2.0050688 39
-0.12118072 -0.033142529 2.0060561 51
-0.21329571 -0.05716056 2.0132346 96
-0.48717201 -0.13871212 1.9863992 39
-0.48713684 -0.13887791 1.4317083 50
-0.90210217 -0.25732714 2.0026236 80
-1.1377444 -0.3245379 2.0054085 89
-1.3966767 -0.39839175 1.9972607 46
-1.7093451 -0.4878957 2.0053556 85
-1.8955193 -0.54604661 2.018266 38
-2.2997468 -0.662489 2.011452 31
-2.814867 -0.81034672 2.0050719 64
-3.5264344 -1.0151894 2.0066421 63
-4.6072497 -1.3263336 2.0253668 21
-6.2472982 -1.7972887 1.9995023 19
-9.7111158 -2.7919598 2.0098717 67
-9.539115 -2.7407067 0.98222762 41
-2.0855131 -0.59762281 2.0127075 38
-2.5321665 -0.72513604 2.0014381 73
-3.1597893 -0.90546101 2.0163815 67
-3.9889832 -1.1423186 2.0055959 44
-5.2853284 -1.512552 2.0014269 45
-7.6315851 -2.1825602 2.0051475 17
-9.9133968 -2.8332641 1.528397 49
-3.3047948 -0.94389331 0.23231867 7
-0.030238908 -0.0081080142 1.9941976 56
-0.30525634 -0.085421413 2.0156415 38
-0.39829987 -0.11244466 2.0131991 91
-0.48410198 -0.13701114 1.6546235 38
-0.58185226 -0.16477604 1.4842323 67
-1.0168493 -0.28813618 2.0033376 81
-1.3272765 -0.37609261 2.0987501 32
-1.5471557 -0.43839243 2.0012317 23
-0.12128996 -0.032740496 2.0060561 51
-0.21348408 -0.056452926 2.0132346 96
-0.48762932 -0.13709584 1.9863992 40
-0.48759469 -0.13726176 1.4317083 50
-0.90295053 -0.25433424 2.0026236 80
-1.1388144 -0.32076323 2.0054085 87
-1.395089 -0.39294091 1.9932711 42
-1.7109536 -0.48222461 2.0053556 86
-1.8973197 -0.53975791 2.018266 38
-2.3019309 -0.65485913 2.011452 31
-2.8175387 -0.80100787 2.0050719 63
-3.5297816 -1.0034899 2.0066421 62
-4.6071644 -1.3097806 2.023494 22
-6.2532239 -1.776562 1.9995023 14
-9.7203226 -2.7597411 2.0098717 73
-9.5433598 -2.7076993 0.98178142 21
-2.0874834 -0.59070373 2.0127075 37
-2.5345571 -0.71673512 2.0014381 73
-3.1627746 -0.89497787 2.0163815 67
-3.9927492 -1.1290845 2.0055959 40
-5.2948594 -1.4963012 2.0030696 45
-7.6481366 -2.1598833 2.0074921 16
-9.9227381 -2.8003747 1.528397 50
-3.3079066 -0.93292898 0.23231867 7
-0.030267026 -0.0080024116 1.9941976 60
-0.30555266 -0.084355339 2.0156415 37
-0.39868996 -0.11105365 2.0131991 93
-0.48457727 -0.13532047 1.6546235 38
-0.58618712 -0.1637954 1.4934374 73
-1.0178488 -0.28458497 2.0033376 81
-1.3285812 -0.37145728 2.0987501 32
-1.5486765 -0.43298921 2.0012317 23
-0.12140916 -0.032295726 2.0060561 51
-0.21368957 -0.05567009 2.0132346 97
-0.48691642 -0.13497174 1.9815599 40
-0.48809451 -0.13547371 1.4317083 52
-0.90383279 -0.2511808 2.0026236 81
-1.1399271 -0.31678605 2.0054085 87
-1.3964522 -0.38806877 1.9932711 39
-1.7127095 -0.47595039 2.0053556 85
-1.8991921 -0.53313172 2.018266 38
-2.3042028 -0.64681989 2.011452 31
-2.8203177 -0.79116797 2.0050719 61
-3.533263 -0.99116248 2.0066421 62
-4.6119342 -1.2928857 2.023494 24
-6.2643127 -1.754925 2.0009115 14
-9.7251654 -2.7244692 2.008939 76
-9.5431623 -2.671685 0.98088896 14
-2.0895324 -0.58341348 2.0127075 37
-2.5331502 -0.70679718 1.9984947 73
-3.1660333 -0.8833797 2.0163815 67
-3.9968605 -1.1144427 2.0055959 39
-5.3003082 -1.4768846 2.0030696 47
-7.6700492 -2.1357484 2.0110092 15
-9.937706 -2.7653146 1.5290868 48
-3.2968638 -0.91678321 0.23171407 71
-0.030294776 -0.0078967111 1.9941976 60
-0.30584523 -0.083288245 2.0156415 36
-0.39907518 -0.10966128 2.0131991 93
-0.48504671 -0.13362816 1.6546235 38
-0.59240556 -0.16330564 1.5072449 82
-1.018836 -0.28103027 2.0033376 81
-1.3271568 -0.36606911 2.0946171 32
-1.553269 -0.42843306 2.0050688 32
-0.12152114 -0.031871732 2.0060561 51
-0.2138826 -0.054923836 2.0132346 98
-0.48738459 -0.13327126 1.9815599 40
-0.48856443 -0.13376912 1.4317083 54
-0.90470409 -0.24802433 2.0026236 83
-1.141026 -0.31280509 2.0054085 87
-1.3977983 -0.38319185 1.9932711 37
-1.7143606 -0.46996903 2.0053556 83
-1.9044784 -0.52745098 2.0217705 38
-2.3064466 -0.63877285 2.011452 30
-2.8230622 -0.78131843 2.0050719 55
-3.5367012 -0.97882301 2.0066421 63
-4.6119504 -1.2755432 2.021621 24
-6.2704005 -1.7330478 2.0009115 33
-9.7298832 -2.6891971 2.0080066 77
-9.5428295 -2.6357057 0.97999662 46
-2.0915563 -0.57611614 2.0127075 37
-2.5356021 -0.6979506 1.9984947 71
-3.1690977 -0.8723228 2.0163815 67
-4.0007262 -1.1004843 2.0055959 37
-5.3054314 -1.458374 2.0030696 46
-7.686831 -2.1115365 2.0133536 16
-9.947298 -2.7306089 1.5290868 53
-3.2904077 -0.90262616 0.23131102 85
-0.030322157 -0.0077909147 1.9941976 60
-0.30688456 -0.082421511 2.0205805 36
-0.39945555 -0.10826758 2.0131991 87
-0.4840689 -0.13154262 1.6498517 38
-0.59674239 -0.16226184 1.5164499 90
-1.0198108 -0.27747214 2.0033376 81
-1.3284265 -0.36143422 2.0946171 32
-1.5547551 -0.42300853 2.0050688 38
-0.12163166 -0.031447351 2.0060561 51
-0.21407302 -0.054176912 2.0132346 99
-0.48784682 -0.13156918 1.9815599 42
-0.48902839 -0.1320629 1.4317083 54
-0.90556431 -0.24486479 2.0026236 86
-1.1421109 -0.30882022 2.0054085 87
-1.4020368 -0.37909696 1.9972607 36
-1.7159905 -0.46398193 2.0053556 80
-1.9063081 -0.52079982 2.0217705 38
-2.3086622 -0.63071793 2.011452 30
-2.8257723 -0.77145928 2.0050719 50
-3.5400963 -0.96647167 2.0066421 64
-4.6119022 -1.2582166 2.0197477 26
-6.2810402 -1.7124112 2.0023208 32
-9.7344713 -2.6539247 2.0070741 82
-9.5423632 -2.599761 0.97910416 43
-2.0935547 -0.56881171 2.0127075 37
-2.538023 -0.68909538 1.9984947 69
-3.1721234 -0.86125517 2.0163815 67
-4.0089235 -1.0877008 2.007694 35
-5.3104897 -1.4398458 2.0030696 45
-7.7035384 -2.0872343 2.0156984 15
-9.956769 -2.6958694 1.5290868 59
-3.2838933 -0.88852525 0.23090795 85
-0.030349165 -0.0076850229 1.9941976 58
-0.30717042 -0.081349783 2.0205805 35
-0.399831 -0.10687257 2.0131991 89
-0.48452511 -0.1298521 1.6498517 38
-0.60485321 -0.16220175 1.53486 96
-1.0207732 -0.27391064 2.0033376 81
-1.3296801 -0.35679498 2.0946171 32
-1.5562222 -0.41757888 2.0050688 49
-0.12174068 -0.031022586 2.0060561 53
-0.2142608 -0.053429328 2.0132346 99
-0.48708755 -0.12954223 1.9767207 40
-0.4894864 -0.13035506 1.4317083 54
-0.90641356 -0.2417023 2.0026236 88
-1.143182 -0.30483162 2.0054085 87
-1.4033517 -0.37420064 1.9972607 36
-1.7175996 -0.45798919 2.0053556 69
-1.9081143 -0.51414245 2.0217705 38
-2.3108499 -0.62265533 2.011452 31
-2.8284481 -0.76159072 2.0050719 38
-3.5434484 -0.95410848 2.0066421 63
-4.6162663 -1.2421105 2.0197477 26
-6.2869792 -1.6904758 2.0023208 32
-9.7341881 -2.617378 2.0052087 86
-9.5465698 -2.5651433 0.97865796 43
-2.0991342 -0.5624668 2.0160325 37
-2.5404129 -0.68023187 1.9984947 73
-3.1751106 -0.85017723 2.0163815 65
-4.0126958 -1.0737004 2.007694 32
-5.3154831 -1.4213001 2.0030696 45
-7.7154727 -2.0615859 2.0168707 14
-9.9613342 -2.6598201 1.528397 61
-3.2821481 -0.87576902 0.23070642 86
-0.030375807 -0.0075790379 1.9941976 58
-0.3074525 -0.080277056 2.0205805 35
-0.40020165 -0.10547625 2.0131991 95
-0.48497543 -0.12816 1.6498517 38
-0.6148594 -0.16258633 1.5578727 97
-1.0217232 -0.27034584 2.0033376 81
-1.3309176 -0.35215136 2.0946171 32
-1.5576704 -0.41214409 2.0050688 74
-0.12184823 -0.030597443 2.0060561 53
-0.21444601 -0.052681092 2.0132346 100
-0.48753679 -0.1278412 1.9767207 40
-0.48993841 -0.12864563 1.4317083 50
-0.90725178 -0.23853686 2.0026236 90
-1.1442391 -0.30083933 2.0054085 87
-1.4075639 -0.37006611 2.00125 35
-1.7191879 -0.45199084 2.0053556 50
-1.9098974 -0.50747877 2.0217705 38
-2.3130093 -0.61458522 2.011452 31
-2.8310893 -0.75171298 2.0050719 37
-3.5467572 -0.94173366 2.0066421 63
-4.6160927 -1.2248001 2.0178747 28
-6.2974782 -1.6697491 2.0037298 33
-9.7385168 -2.5821242 2.004276 89
-9.5458384 -2.5292532 0.9777655 44
-2.1010849 -0.55513597 2.0160325 37
-2.5427718 -0.67136002 1.9984947 69
-3.1780586 -0.83908886 2.0163815 65
-4.0208087 -1.060845 2.0097921 31
-5.3204122 -1.4027368 2.0030696 45
-7.7320232 -2.0371182 2.0192153 14
-9.9705582 -2.6250322 1.528397 63
-3.2851851 -0.86430681 0.23070642 86
-0.030402075 -0.0074729603 1.9941976 56
-0.30773085 -0.07920336 2.0205805 35
-0.40056738 -0.10407863 2.0131991 93
-0.48397455 -0.12608986 1.64508 38
-0.62865663 -0.16388859 1.5900904 98
-1.0226605 -0.26677769 2.0033376 81
-1.3321387 -0.34750342 2.0946171 32
-1.5590996 -0.40670428 2.0050688 76
-0.12195429 -0.030171927 2.0060561 51
-0.21462859 -0.051932216 2.0132346 100
-0.48798007 -0.12613861 1.9767207 40
-0.49038449 -0.12693466 1.4317083 50
-0.91018695 -0.23591487 2.0071244 92
-1.1452823 -0.29684335 2.0054085 87
-1.4088471 -0.36515051 2.00125 35
-1.7207551 -0.44598699 2.0053556 20
-1.9116572 -0.50080884 2.0217705 38
-2.3189063 -0.60749406 2.0145898 31
-2.8336961 -0.74182612 2.0050719 34
-3.5500228 -0.92934757 2.0066421 52
-4.6158552 -1.2075063 2.0160019 30
-6.3032684 -1.6477567 2.0037298 33
-9.7379656 -2.54563 2.0024109 90
-9.5449696 -2.4933989 0.97687304 45
-2.1030099 -0.54779845 2.0160325 37
-2.5490112 -0.66349816 2.0014381 71
-3.1809683 -0.82799029 2.0163815 67
-4.0288787 -1.0479456 2.0118899 29
-5.3252764 -1.3841565 2.0030696 46
-7.7437911 -2.0113378 2.0203876 14
-9.9748669 -2.5889685 1.5277071 66
-3.2833459 -0.85157984 0.2305049 86
