# .PCD v0.7 - Point Cloud Data file format
VERSION 0.7
FIELDS x y z intensity
SIZE 4 4 4 4
TYPE F F F F
COUNT 1 1 1 1
WIDTH 1301
HEIGHT 1
VIEWPOINT 0 0 0 1 0 0 0
POINTS 1301
DATA ascii
0.01331594 -0.9292798 1.9846202 93
0.016795566 -1.1725738 1.9883448 89
0.02058005 -1.4371676 1.9773132 89
0.025156442 -1.7570906 1.9833045 86
0.03267727 -1.9295307 1.9762113 75
0.03959794 -2.3384316 1.9675231 71
0.048101146 -2.8702443 1.9666914 69
0.053172171 -3.1730232 1.747023 66
0.052359968 -3.157449 1.3641863 40
0.051872563 -3.1613388 1.0187023 44
0.051739592 -3.1532347 0.69021428 48
0.051245768 -3.1567254 0.37582842 53
0.033122826 -2.1318502 1.979459 79
0.039713256 -2.58514 1.96612 71
0.048763283 -3.1744967 1.9505385 74
0.048189033 -3.1731751 1.5545145 77
0.047501128 -3.1642513 1.1899408 45
0.046946 -3.1640666 0.85393173 46
0.046247184 -3.1540773 0.53161323 59
0.045809008 -3.1618381 0.22123447 68
-5.5456287e-05 -0.031350631 1.9991974 80
0.0028683841 -0.31386194 1.9958843 97
0.0047310852 -0.4138408 2.0131991 105
0.0073409486 -0.60762036 1.9886441 88
0.010031519 -0.81957471 1.99051 96
0.012990548 -1.0472209 1.9857829 85
0.016128464 -1.3006393 1.9830275 84
0.019854708 -1.6015319 1.9935577 40
-2.9274088e-05 -0.12505206 1.9960728 89
-0.0011762732 -0.21921715 1.9983203 91
0.005194013 -0.51028192 2.0009167 95
0.0074754697 -0.71186227 1.9901476 93
0.010072067 -0.92932063 1.9846202 92
0.012702418 -1.1726253 1.9883448 89
0.015563274 -1.4372308 1.9773132 89
0.019022899 -1.7571676 1.9833045 85
0.025941748 -1.929633 1.9762113 75
0.031435046 -2.3385556 1.9675231 71
0.038081832 -2.8703945 1.9666914 69
0.042095933 -3.1731896 1.747023 72
0.041338094 -3.1576128 1.3641863 39
0.040837113 -3.1615007 1.0187023 41
0.040732432 -3.1533961 0.69021428 49
0.040226422 -3.1568849 0.37582842 53
0.02568108 -2.1319528 1.979459 79
0.030689193 -2.5852628 1.96612 73
0.037681926 -3.1746473 1.9505385 74
0.037059214 -3.1687856 1.5524164 77
0.036455542 -3.164398 1.1899408 45
0.0359562 -3.1690712 0.85510403 45
0.035237119 -3.1542194 0.53161323 59
0.034826789 -3.1669745 0.22143602 68
-0.0001703617 -0.031350218 1.9991974 82
0.0017180032 -0.31387034 1.9958843 97
0.003214251 -0.41385534 2.0131991 105
0.005126371 -0.6091367 1.9934158 88
0.0070442678 -0.82155967 1.9951125 95
0.0091522047 -1.0472615 1.9857829 87
0.011361276 -1.3006896 1.9830275 82
0.013984667 -1.6015939 1.9935577 42
-0.00048761253 -0.12505111 1.9960728 88
-0.0019797361 -0.21921137 1.9983203 93
0.0033237017 -0.51029754 2.0009167 95
0.0048663141 -0.71188486 1.9901476 93
0.0065036672 -0.9293524 1.9846202 92
0.0081997784 -1.1726654 1.9883448 89
0.010044604 -1.4372799 1.9773132 89
0.012275737 -1.7572278 1.9833045 86
0.018903973 -1.9332815 1.9797159 73
0.0228636 -2.3386552 1.9675231 73
0.027561054 -2.8705149 1.9666914 69
0.030465329 -3.1733227 1.747023 72
0.029808283 -3.1623788 1.3660593 39
0.029249359 -3.161629 1.0187023 41
0.028623989 -3.1535292 0.69021428 48
0.028148919 -3.1619961 0.37627462 53
0.017494798 -2.1320357 1.979459 77
0.020762293 -2.5853617 1.96612 73
0.025491906 -3.1747687 1.9505385 74
0.024891708 -3.1689043 1.5524164 77
0.024304885 -3.1645143 1.1899408 45
0.023787605 -3.1691861 0.85510403 45
0.02367609 -3.1543276 0.53161323 59
0.023219012 -3.1670809 0.22143602 71
-0.00027979334 -0.031349428 1.9991974 80
0.00062238082 -0.31387439 1.9958843 97
0.0017696067 -0.41386408 2.0131991 106
0.0030000559 -0.60915089 1.9934158 86
0.0041764467 -0.82157928 1.9951125 95
0.0054965238 -1.0472871 1.9857829 87
0.0068209525 -1.3007213 1.9830275 82
0.0083939759 -1.601633 1.9935577 42
-0.00092411943 -0.12504864 1.9960728 89
-0.0027449147 -0.21920311 1.9983203 95
0.0015424105 -0.51030606 2.0009167 96
0.0023813422 -0.71189755 1.9901476 93
0.0034217881 -0.92936891 1.9846202 95
0.004311034 -1.1726862 1.9883448 89
0.0052783568 -1.4373053 1.9773132 89
0.0064484929 -1.7572588 1.9833045 85
0.012155446 -1.9333355 1.9797159 73
0.014724492 -2.3426135 1.9706609 71
0.017566461 -2.8747749 1.9694327 67
0.019415243 -3.1778398 1.749341 76
0.018769339 -3.1624637 1.3660593 40
0.018213037 -3.1617119 1.0187023 43
0.018166354 -3.1536069 0.69021428 46
0.017663205 -3.1620719 0.37627462 49
0.010424618 -2.132082 1.979459 79
0.01218881 -2.5854163 1.96612 73
0.014984171 -3.179147 1.9530709 74
0.014383106 -3.1689694 1.5524164 77
0.013810845 -3.1645775 1.1899408 45
0.013278072 -3.1692476 0.85510403 46
0.012665286 -3.1543911 0.53161323 59
0.012163696 -3.1671426 0.22143602 71
-0.00038922153 -0.031348266 1.9991974 80
-0.00047324915 -0.31387466 1.9958843 96
0.00032494089 -0.41386771 2.0131991 108
0.00087370432 -0.60915762 1.9934158 86
0.0013085747 -0.82158875 1.9951125 95
0.0018407762 -1.0473 1.9857829 85
0.0022805461 -1.3007371 1.9830275 76
0.0028031827 -1.6016524 1.9935577 42
-0.0013606151 -0.12504466 1.9960728 89
-0.0035100598 -0.21919221 1.9983203 95
-0.00023889937 -0.51030833 2.0009167 95
-0.0001036583 -0.71190149 1.9901476 93
0.00017766442 -0.92937517 1.9846202 95
0.00021756925 -1.1726941 1.9883448 89
0.00026119273 -1.437315 1.9773132 87
0.00031447588 -1.7572706 1.9833045 86
0.0054067713 -1.9333664 1.9797159 75
0.0065471553 -2.3426507 1.9706609 71
0.0075315177 -2.8748188 1.9694327 67
0.0083223935 -3.1778884 1.749341 76
0.0077301664 -3.1625099 1.3660593 40
0.0071764919 -3.1617563 1.0187023 41
0.0071581011 -3.153651 0.69021428 46
0.0066254078 -3.1621144 0.37627462 49
0.0029821992 -2.1321056 1.979459 79
0.0031639489 -2.5854433 1.96612 73
0.0038867856 -3.1791799 1.9530709 74
0.0033260058 -3.1735392 1.5545145 77
0.0027643228 -3.1646066 1.1899408 47
0.0022152534 -3.1692746 0.85510403 46
0.0016543301 -3.1544158 0.53161323 59
0.0011082315 -3.1671658 0.22143602 68
-0.00049864501 -0.031346716 1.9991974 80
-0.0015688733 -0.31387112 1.9958843 96
-0.001119729 -0.41386634 2.0131991 109
-0.001252658 -0.60915697 1.9934158 86
-0.0015593133 -0.82158834 1.9951125 95
-0.001814994 -1.0473 1.9857829 85
-0.002259888 -1.3007371 1.9830275 76
-0.0027876447 -1.6016524 1.9935577 42
-0.001797094 -0.12503915 1.9960728 88
-0.0042751622 -0.21917863 1.9983203 93
-0.0020202063 -0.51030439 2.0009167 93
-0.0025886574 -0.71189678 1.9901476 93
-0.0030664613 -0.92937016 1.9846202 95
-0.0038758984 -1.1726878 1.9883448 89
-0.0047559743 -1.4373072 1.9773132 89
-0.0058307871 -1.7606512 1.9869798 85
-0.0013419689 -1.9333733 1.9797159 75
-0.001630261 -2.3426592 1.9706609 71
-0.0025035182 -2.8748276 1.9694327 67
-0.0027705573 -3.1778979 1.749341 76
-0.0033090999 -3.1625175 1.3660593 40
-0.0038601409 -3.161762 1.0187023 41
-0.0038502389 -3.1536567 0.69021428 46
-0.0044124709 -3.1621182 0.37627462 53
-0.0044602556 -2.1321027 1.979459 79
-0.0058609513 -2.5854385 1.96612 73
-0.0072106468 -3.1791742 1.9530709 76
-0.0077517331 -3.1735315 1.5545145 79
-0.0082822321 -3.164597 1.1899408 47
-0.0088475924 -3.1692631 0.85510403 48
-0.0093566468 -3.1544025 0.53161323 60
-0.0099315513 -3.1621544 0.22123447 68
-0.00060806243 -0.031344779 1.9991974 80
-0.0026644783 -0.31386372 1.9958843 96
-0.0025643853 -0.4138599 2.0131991 109
-0.003379005 -0.60914886 1.9934158 88
-0.004427182 -0.82157791 1.9951125 95
-0.005470742 -1.0472872 1.9857829 85
-0.0068002944 -1.3007214 1.9830275 84
-0.0083784377 -1.6016331 1.9935577 40
-0.0022335509 -0.12503211 1.9960728 88
-0.0050402121 -0.21916236 1.9983203 91
-0.0038014888 -0.51029426 2.0009167 93
-0.0050736256 -0.71188337 1.9901476 93
-0.00631055 -0.92935371 1.9846202 93
-0.007969318 -1.172667 1.9883448 89
-0.009773084 -1.4372817 1.9773132 89
-0.011976571 -1.76062 1.9869798 85
-0.0080906935 -1.9333569 1.9797159 73
-0.0097913509 -2.3387465 1.9675231 71
-0.012538524 -2.8748014 1.9694327 67
-0.013844144 -3.1734388 1.747023 75
-0.014348325 -3.1624868 1.3660593 42
-0.014896726 -3.1617293 1.0187023 43
-0.014858532 -3.1536241 0.69021428 45
-0.015450295 -3.1620836 0.37627462 53
-0.011902656 -2.1320741 1.979459 79
-0.01488578 -2.5854023 1.96612 73
-0.018307993 -3.1791296 1.9530709 76
-0.018829377 -3.173485 1.5545145 77
-0.019328685 -3.1645489 1.1899408 47
-0.01991033 -3.1692128 0.85510403 48
-0.02039949 -3.1593029 0.53230304 60
-0.020969471 -3.1621006 0.22123447 67
-0.00071747246 -0.031342469 1.9991974 80
-0.0037600512 -0.31385252 1.9958843 96
-0.0040090103 -0.41384846 2.0131991 110
-0.0055053108 -0.60913336 1.9934158 89
-0.0072949971 -0.8215574 1.9951125 95
-0.0091264229 -1.0472617 1.9857829 87
-0.011340617 -1.3006897 1.9830275 84
-0.013969129 -1.601594 1.9935577 40
-0.0026699812 -0.12502356 1.9960728 89
-0.0058052004 -0.21914342 1.9983203 91
-0.0055827247 -0.51027787 2.0009167 93
-0.0075585307 -0.71186137 1.9901476 93
-0.0095545603 -0.92932612 1.9846202 93
-0.012062642 -1.1726321 1.9883448 91
-0.014790073 -1.4372389 1.9773132 89
-0.018122207 -1.7605675 1.9869798 85
-0.014839319 -1.9333168 1.9797159 75
-0.017955041 -2.3386977 1.9675231 71
-0.022573376 -2.8747399 1.9694327 69
-0.024921427 -3.1733711 1.747023 73
-0.025387375 -3.1624172 1.3660593 40
-0.025933128 -3.161658 1.0187023 41
-0.025866641 -3.153553 0.69021428 46
-0.026487933 -3.1620104 0.37627462 52
-0.019344911 -2.1320198 1.979459 79
-0.023910426 -2.5853348 1.96612 73
-0.029405111 -3.1790464 1.9530709 77
-0.029906794 -3.1733999 1.5545145 77
-0.030374905 -3.1644619 1.1899408 45
-0.030972827 -3.1691239 0.85510403 47
-0.031427391 -3.1592124 0.53230304 60
-0.032007132 -3.1620078 0.22123447 61
-0.0008268737 -0.031339772 1.9991974 75
-0.0048555778 -0.3138375 1.9958843 96
-0.0054535861 -0.41383192 2.0131991 110
-0.0076315501 -0.60911041 1.9934158 89
-0.010162724 -0.821527 1.9951125 95
-0.012781993 -1.0472236 1.9857829 83
-0.015880805 -1.3006423 1.9830275 82
-0.019559652 -1.6015356 1.9935577 45
-0.0031063785 -0.12501347 1.9960728 88
-0.0065701185 -0.21912183 1.9983203 91
-0.0073638926 -0.51025528 2.0009167 95
-0.010043345 -0.71183062 1.9901476 93
-0.012798456 -0.92928702 1.9846202 95
-0.016155818 -1.1725829 1.9883448 89
-0.019806884 -1.4371785 1.9773132 89
-0.024267627 -1.7604935 1.9869798 86
-0.021587763 -1.9332533 1.9797159 75
-0.026118509 -2.3386209 1.9675231 71
-0.03260795 -2.8746436 1.9694327 69
-0.035998404 -3.1732645 1.747023 73
-0.036426116 -3.1623094 1.3660593 40
-0.036969218 -3.1615484 1.0187023 41
-0.03687444 -3.1534436 0.69021428 49
-0.037525244 -3.1618986 0.37627462 52
-0.026786933 -2.1319392 1.979459 79
-0.032934785 -2.5852354 1.96612 73
-0.040501878 -3.1789243 1.9530709 76
-0.041042458 -3.1778142 1.5566125 76
-0.041420754 -3.1643367 1.1899408 47
-0.042034943 -3.1689966 0.85510403 45
-0.04245491 -3.1590836 0.53230304 59
-0.043044403 -3.1618769 0.22123447 60
-0.00093626493 -0.031336695 1.9991974 75
-0.0059659611 -0.31459543 2.0008237 96
-0.0068980963 -0.41381034 2.0131991 110
-0.0097576957 -0.60908008 1.9934158 88
-0.013030326 -0.82148653 1.9951125 95
-0.016437409 -1.0471725 1.9857829 83
-0.020420795 -1.3005788 1.9830275 82
-0.025149934 -1.6014575 1.9935577 47
-0.0035427378 -0.12500188 1.9960728 88
-0.0073349564 -0.21909757 1.9983203 91
-0.0091449711 -0.51022643 2.0009167 96
-0.012528037 -0.71179122 1.9901476 93
-0.016042195 -0.92923677 1.9846202 95
-0.020248797 -1.1725193 1.9883448 89
-0.024875529 -1.4401143 1.9813027 89
-0.030412747 -1.7603981 1.9869798 86
-0.028335944 -1.9331661 1.9797159 69
-0.03428166 -2.3385155 1.9675231 71
-0.042642131 -2.8745124 1.9694327 67
-0.04700923 -3.16869 1.744705 70
-0.047533996 -3.1667981 1.3679323 40
-0.048004854 -3.1613998 1.0187023 41
-0.047881786 -3.1532955 0.69021428 46
-0.048562102 -3.1617484 0.37627462 51
-0.034228623 -2.1318326 1.979459 79
-0.041958738 -2.5851047 1.96612 73
-0.051668122 -3.1830742 1.9556034 74
nan nan nan 0
-0.052466098 -3.1641729 1.1899408 47
-0.05317799 -3.1736906 0.85627633 45
-0.05348191 -3.158916 0.53230304 59
-0.054166604 -3.1667027 0.22143602 67
-0.0010456447 -0.031333238 1.9991974 82
-0.0070640678 -0.31457272 2.0008237 96
-0.0083425213 -0.41378376 2.0131991 109
-0.011883723 -0.60904235 1.9934158 88
-0.015859922 -0.81948268 1.99051 95
-0.020092621 -1.0471088 1.9857829 87
-0.024960537 -1.3004997 1.9830275 84
-0.030678365 -1.5981548 1.9897208 49
-0.0039790543 -0.12498874 1.9960728 89
-0.008099705 -0.21907063 1.9983203 91
-0.010925938 -0.51019138 2.0009167 96
-0.015012575 -0.71174318 1.9901476 93
-0.01928574 -0.92917508 1.9846202 95
-0.024341531 -1.1724415 1.9883448 89
-0.029902315 -1.4400187 1.9813027 89
-0.036557496 -1.7602813 1.9869798 86
-0.035083786 -1.9330554 1.9797159 69
-0.042515054 -2.3422737 1.9706609 71
-0.052675799 -2.874346 1.9694327 67
-0.05774501 -3.150789 1.7354329 38
-0.058244847 -3.1480727 1.3604401 38
-0.059039909 -3.1612134 1.0187023 43
-0.058888555 -3.1531096 0.69021428 46
-0.059598371 -3.1615596 0.37627462 51
-0.041742887 -2.1354337 1.9827838 77
-0.050982185 -2.5849426 1.96612 73
-0.062778808 -3.1828744 1.9556034 59
-0.057899151 -2.9097302 1.4328274 15
-0.063700363 -3.1734135 1.1932261 45
-0.064255916 -3.1734855 0.85627633 47
-0.064508259 -3.15871 0.53230304 59
-0.065220125 -3.1664944 0.22143602 67
-0.0011550117 -0.031329393 1.9991974 80
-0.0081620887 -0.31454614 2.0008237 96
-0.0097868461 -0.41375211 2.0131991 109
-0.014009605 -0.60899717 1.9934158 88
-0.018720353 -0.8194223 1.99051 95
-0.023747589 -1.0470324 1.9857829 87
-0.029499976 -1.3004047 1.9830275 84
-0.036256779 -1.598038 1.9897208 50
-0.0044153221 -0.12497409 1.9960728 89
-0.0088643553 -0.21904102 1.9983203 91
-0.012706772 -0.51015013 2.0009167 96
-0.01749693 -0.71168643 1.9901476 93
-0.022529047 -0.92910206 1.9846202 95
-0.028370697 -1.1697419 1.9840788 91
-0.034928735 -1.4399055 1.9813027 87
-0.042701803 -1.7601428 1.9869798 86
-0.041831192 -1.9329213 1.9797159 75
-0.050690856 -2.3421111 1.9706609 69
-0.062800035 -2.8783252 1.9721743 66
nan nan nan 0
-0.06648092 -3.0227103 1.3098683 17
-0.070074245 -3.1609879 1.0187023 41
-0.070003472 -3.1577954 0.69114685 46
-0.070633911 -3.1613324 0.37627462 51
-0.04919669 -2.1352749 1.9827838 79
-0.060005005 -2.5847487 1.96612 73
-0.072587855 -3.126605 1.9226818 25
-0.066888176 -2.8596005 1.4097489 16
-0.074665986 -3.1684504 1.1915834 45
-0.075333051 -3.1732419 0.85627633 48
-0.075533822 -3.1584659 0.53230304 59
-0.076272853 -3.1662474 0.22143602 67
-0.0012643647 -0.031325176 1.9991974 80
-0.0092369597 -0.31373909 1.9958843 96
-0.01123105 -0.41371542 2.0131991 109
-0.016135314 -0.60894454 1.9934158 86
-0.021580556 -0.81935197 1.99051 95
-0.027402271 -1.0469431 1.9857829 87
-0.034039054 -1.3002937 1.9830275 84
-0.041834753 -1.5979017 1.9897208 54
-0.0048515359 -0.12495792 1.9960728 89
-0.0096288966 -0.21900874 1.9983203 93
-0.014487451 -0.51010269 2.0009167 93
-0.019981073 -0.71162105 1.9901476 93
-0.025772082 -0.92901772 1.9846202 95
-0.032453682 -1.1696358 1.9840788 89
-0.039871097 -1.4367619 1.9773132 89
-0.048845585 -1.7599831 1.9869798 85
-0.048578091 -1.9327636 1.9797159 75
-0.058866039 -2.3419201 1.9706609 71
-0.072846882 -2.8780885 1.9721743 53
-0.059000764 -2.3309829 1.3065979 10
-0.075259961 -2.9529438 1.2817727 12
-0.081107721 -3.1607239 1.0187023 41
-0.081025802 -3.157532 0.69114685 48
-0.08179722 -3.166045 0.37672085 52
-0.05664989 -2.1350904 1.9827838 79
-0.069027096 -2.5845237 1.96612 73
nan nan nan 0
-0.080650769 -2.9999931 1.4747885 22
-0.085597754 -3.16345 1.1899408 42
-0.086409271 -3.1729596 0.85627633 47
-0.086558461 -3.1581829 0.53230304 57
-0.087324657 -3.165962 0.22143602 65
-0.0013737022 -0.031320568 1.9991974 78
-0.010332057 -0.31370494 1.9958843 96
-0.012675119 -0.4136737 2.0131991 109
-0.018260831 -0.60888451 1.9934158 86
-0.024498798 -0.82122451 1.9951125 95
-0.031056616 -1.046841 1.9857829 85
-0.038577721 -1.300167 1.9830275 84
-0.047412213 -1.5977459 1.9897208 57
-0.005287691 -0.12494022 1.9960728 89
-0.010393321 -0.21897379 1.9983203 93
-0.016267953 -0.51004905 2.0009167 93
-0.02246497 -0.71154696 1.9901476 93
-0.029014802 -0.92892218 1.9846202 95
-0.03653628 -1.1695154 1.9840788 89
-0.04488609 -1.436614 1.9773132 89
-0.054988779 -1.7598019 1.9869798 86
-0.055324394 -1.9325821 1.9797159 75
-0.06704051 -2.3417003 1.9706609 71
-0.080725648 -2.8025823 1.922828 28
-0.068667799 -2.383903 1.3344142 17
-0.085567199 -2.9526629 1.2817727 12
-0.092280008 -3.1652164 1.0201114 40
-0.092047155 -3.1572297 0.69114685 48
-0.092848279 -3.16574 0.37672085 49
-0.064102404 -2.1348796 1.9827838 79
-0.078048348 -2.5842669 1.96612 64
-0.062135387 -2.0573208 1.2946401 12
-0.090846591 -2.9906204 1.4705924 24
-0.09317854 -3.0498459 1.1505163 17
-0.097335152 -3.1677802 0.85510403 48
-0.09758205 -3.1578615 0.53230304 57
-0.098375395 -3.1656377 0.22143602 66
-0.0014830231 -0.031315584 1.9991974 78
-0.011427029 -0.31366694 1.9958843 97
-0.014119031 -0.41362691 2.0131991 109
-0.020386122 -0.60881704 1.9934158 84
-0.02736526 -0.82113397 1.9951125 95
-0.034710586 -1.0467262 1.9857829 85
-0.043115914 -1.3000244 1.9830275 84
-0.052989103 -1.5975705 1.9897208 57
-0.0057237819 -0.12492099 1.9960728 88
-0.011157619 -0.21893618 1.9983203 93
-0.018048257 -0.50998914 2.0009167 95
-0.024948599 -0.71146417 1.9901476 91
-0.032257166 -0.92881525 1.9846202 95
-0.040618423 -1.1693807 1.9840788 89
-0.049900535 -1.4364486 1.9773132 89
-0.061131299 -1.7595992 1.9869798 86
-0.062070031 -1.9323772 1.9797159 73
-0.075214162 -2.3414519 1.9706609 71
-0.077684045 -2.4052544 1.6623886 7
-0.075844593 -2.3482256 1.31587 19
-0.091961168 -2.831876 1.2330739 12
-0.10332811 -3.1648753 1.0201114 40
-0.10306738 -3.1568892 0.69114685 46
-0.1038982 -3.1653967 0.37672085 49
-0.071554132 -2.1346426 1.9827838 79
-0.086524129 -2.5678198 1.9543474 46
-0.069606788 -2.0657089 1.2997049 18
-0.099134266 -2.9267821 1.4412197 25
-0.10125284 -2.9739864 1.1242334 13
-0.10839218 -3.1674211 0.85510403 47
-0.10860445 -3.1575015 0.53230304 59
-0.10925233 -3.1602821 0.22123447 61
-0.0015923257 -0.031310216 1.9991974 77
-0.012521861 -0.31362519 1.9958843 97
-0.015562774 -0.41357514 2.0131991 109
-0.022455918 -0.60724968 1.9886441 84
-0.030231383 -0.82103348 1.9951125 95
-0.038364131 -1.0465986 1.9857829 87
-0.047653582 -1.299866 1.9830275 84
-0.058565337 -1.5973759 1.9897208 59
-0.0061598029 -0.12490026 1.9960728 89
-0.01192178 -0.2188959 1.9983203 93
-0.019828342 -0.50992298 2.0009167 95
-0.02743192 -0.71137279 1.9901476 93
-0.035499144 -0.92869699 1.9846202 93
-0.044700082 -1.1692318 1.9840788 89
-0.05491437 -1.4362656 1.9773132 89
-0.067273073 -1.7593751 1.9869798 86
-0.068814911 -1.9321488 1.9797159 73
-0.083664052 -2.3489561 1.9769365 69
-0.065737091 -1.8366579 1.2895492 12
-0.081505366 -2.2771084 1.2787815 24
-0.099179432 -2.7574112 1.2031054 12
-0.11454825 -3.1692894 1.0215206 39
-0.11408636 -3.1565101 0.69114685 46
-0.11476612 -3.160038 0.37627462 49
-0.079004988 -2.1343801 1.9827838 79
-0.082717516 -2.2241693 1.7041787 13
-0.07825917 -2.104228 1.3224968 23
-0.096978411 -2.5953374 1.2880619 20
-0.11181053 -2.9783337 1.1258759 13
-0.11944789 -3.1670237 0.85510403 47
-0.11981302 -3.1620517 0.53299284 59
-0.12047314 -3.1648741 0.22143602 61
-0.0017070728 -0.031304169 1.9991974 77
-0.013671272 -0.31357718 1.9958843 97
-0.017078497 -0.4135153 2.0131991 109
-0.024681447 -0.60716331 1.9886441 88
-0.033240419 -0.82091713 1.9951125 95
-0.042199846 -1.046451 1.9857829 85
-0.052417509 -1.2996825 1.9830275 84
-0.06441962 -1.5971504 1.9897208 61
-0.0066175433 -0.12487684 1.9960728 89
-0.012723994 -0.21885072 1.9983203 93
-0.021697171 -0.50984693 2.0009167 96
-0.030039046 -0.71126741 1.9901476 93
-0.039064813 -0.92855388 1.9846202 95
-0.049189266 -1.1690515 1.9840788 89
-0.060428817 -1.4360442 1.9773132 89
-0.074028075 -1.7591039 1.9869798 88
-0.075896122 -1.9318835 1.9797159 75
-0.091661505 -2.3330741 1.9643854 54
-0.072468325 -1.8364046 1.2895492 19
-0.088278525 -2.2369535 1.2579194 22
-0.10396013 -2.6226926 1.1487875 14
nan nan nan 0
-0.12659818 -3.1658657 0.69301212 45
-0.12709877 -3.1645501 0.37672085 52
-0.087199815 -2.1340606 1.9827838 79
-0.070705675 -1.7230481 1.339227 18
-0.08598467 -2.0952969 1.3174319 27
-0.099654414 -2.4180934 1.2062378 20
-0.1201211 -2.9023881 1.099593 15
-0.13180931 -3.1713979 0.85627633 45
-0.1314017 -3.1615913 0.53299284 59
-0.13207218 -3.1644111 0.22143602 60
-0.0018108718 -0.031298339 1.9991974 78
-0.014674454 -0.31275398 1.9909451 97
-0.018495148 -0.41447359 2.0180943 109
-0.026694739 -0.60707814 1.9886441 88
-0.035962496 -0.82080239 1.9951125 95
-0.045669772 -1.0463053 1.9857829 85
-0.056727123 -1.2995017 1.9830275 84
-0.069715604 -1.5969281 1.9897208 61
-0.0070098224 -0.12485544 1.9960728 89
-0.01341147 -0.21880968 1.9983203 93
-0.023298791 -0.50977623 2.0009167 96
-0.032273408 -0.71116954 1.9901476 93
-0.041981753 -0.9284265 1.9846202 93
-0.052861702 -1.1688913 1.9840788 91
-0.064939976 -1.4358473 1.9773132 89
-0.07924711 -1.7588764 1.9869798 88
-0.082302064 -1.9316213 1.9797159 73
nan nan nan 0
-0.078021422 -1.8236213 1.2813249 19
-0.093234099 -2.1791086 1.227785 20
-0.1080374 -2.5250881 1.1094538 13
-0.12726399 -2.9623425 0.96092522 10
-0.1344264 -3.1163752 0.6836859 36
-0.13725533 -3.1691103 0.37716705 51
-0.093903728 -2.1337762 1.9827838 69
-0.073798917 -1.6703227 1.3009658 25
-0.091063812 -2.06919 1.3022374 30
-0.10322246 -2.3361733 1.1684729 24
-0.12517428 -2.821816 1.0716674 15
-0.14056969 -3.1564255 0.85275936 38
-0.12474408 -2.7901196 0.48125663 9
-0.14178877 -3.1589894 0.22123447 53
-0.0019201123 -0.031291828 1.9991974 78
-0.015766079 -0.31270084 1.9909451 97
-0.019941818 -0.41440648 2.0180943 109
-0.028813677 -0.60698122 1.9886441 88
-0.038827412 -0.82067186 1.9951125 95
-0.049321782 -1.0461395 1.9857829 87
-0.061395448 -1.3021066 1.9871606 84
-0.07528951 -1.596675 1.9897208 62
-0.0074673938 -0.1248289 1.9960728 89
-0.014213357 -0.21875906 1.9983203 93
-0.025167057 -0.50968742 2.0009167 96
-0.034879755 -0.71104652 1.9901476 93
-0.045222308 -0.92827427 1.9846202 93
-0.056941569 -1.1686996 1.9840788 91
-0.069951624 -1.4356118 1.9773132 89
-0.085693181 -1.7585741 1.9869798 85
-0.089044176 -1.9313222 1.9797159 75
nan nan nan 0
-0.083226621 -1.7982761 1.264876 21
-0.099201411 -2.1433663 1.2092408 21
-0.11040682 -2.3764856 1.0495168 13
-0.13856761 -2.9714403 0.96374363 11
-0.14141367 -3.0324697 0.66783142 29
nan nan nan 0
-0.1008198 -2.1222456 1.9728094 58
-0.078088842 -1.6377555 1.2774205 28
-0.096183062 -2.0171661 1.2718483 30
-0.10918077 -2.2813795 1.1432962 24
-0.12849212 -2.6751106 1.0207442 14
nan nan nan 0
-0.13449089 -2.7797506 0.479877 9
nan nan nan 0
-0.0020293295 -0.031284932 1.9991974 78
-0.016857512 -0.31264389 1.9909451 97
-0.021388246 -0.41433436 2.0180943 109
-0.030932259 -0.60687697 1.9886441 88
-0.041691855 -0.82053131 1.9951125 95
-0.052973188 -1.0459609 1.9857829 87
-0.065940276 -1.3018843 1.9871606 84
-0.080862485 -1.5964024 1.9897208 64
-0.0079030823 -0.12480208 1.9960728 89
-0.014976882 -0.21870811 1.9983203 88
-0.026946045 -0.50959647 2.0009167 96
-0.037361562 -0.71092039 1.9901476 93
-0.048462316 -0.92811078 1.9846202 93
-0.061156794 -1.1710984 1.9883448 91
-0.075119644 -1.4383688 1.9813027 87
-0.09183123 -1.7582642 1.9869798 85
-0.095785208 -1.9309996 1.9797159 75
-0.07536909 -1.5193983 1.3085898 18
-0.08867164 -1.7812696 1.2539102 25
-0.10492035 -2.107609 1.1906966 25
-0.11523195 -2.3066335 1.0214213 16
-0.1414928 -2.8224082 0.92005849 11
-0.13797858 -2.7523103 0.61467206 36
-0.13935888 -2.7701745 0.34147027 38
nan nan nan 0
-0.083805196 -1.637473 1.2774205 28
-0.1007996 -1.9694566 1.2439916 30
-0.11435023 -2.226594 1.1181196 23
-0.13005197 -2.5237277 0.96817827 15
-0.14508106 -2.8058407 0.76835257 11
-0.14291029 -2.7545369 0.47642794 37
-0.14413163 -2.7687383 0.20551506 54
-0.0021439807 -0.031277284 1.9991974 78
-0.018003296 -0.31258002 1.9909451 97
-0.022850407 -0.41323656 2.0131991 109
-0.033156369 -0.60675955 1.9886441 88
-0.044698972 -0.820373 1.9951125 95
-0.056806471 -1.0457598 1.9857829 85
-0.070711479 -1.301634 1.9871606 78
-0.086713046 -1.5960954 1.9897208 66
-0.0083406055 -0.12448339 1.9910811 89
-0.015778389 -0.21865173 1.9983203 88
-0.028813628 -0.50949425 2.0009167 96
-0.039966963 -0.71077865 1.9901476 91
-0.052025642 -0.9279179 1.9846202 93
-0.065653026 -1.1708548 1.9883448 89
-0.080642007 -1.4380698 1.9813027 87
-0.098581783 -1.7578988 1.9869798 85
-0.10267227 -1.9270743 1.9762113 60
-0.080108933 -1.5035625 1.2960387 26
-0.09363725 -1.7517043 1.2347199 26
-0.11075248 -2.0718193 1.1721524 29
-0.12070604 -2.2506444 0.99894488 16
-0.1505477 -2.7979188 0.91301256 11
-0.14854565 -2.7517602 0.61467206 36
-0.14972518 -2.7646458 0.34102404 38
nan nan nan 0
-0.088093027 -1.6008159 1.250932 28
-0.10575505 -1.9217027 1.2161349 31
-0.11914612 -2.158164 1.0866488 22
-0.13817453 -2.4949181 0.95832217 18
-0.15693215 -2.8246758 0.77304178 11
-0.1530052 -2.7539945 0.47642794 37
-0.15400058 -2.7632031 0.20531353 49
-0.0022531459 -0.03126961 1.9991974 78
-0.019141864 -0.3132908 1.9958843 97
-0.024292732 -0.41315427 2.0131991 109
-0.035360903 -0.60813105 1.9934158 88
-0.047562331 -0.82021195 1.9951125 95
-0.060456507 -1.0455551 1.9857829 85
-0.075254597 -1.3013792 1.9871606 78
-0.092283934 -1.595783 1.9897208 68
-0.0087750824 -0.12445352 1.9910811 89
-0.016541528 -0.21859533 1.9983203 91
-0.03059192 -0.50939059 2.0009167 95
-0.04234485 -0.70891225 1.9854547 93
-0.055102441 -0.92774028 1.9846202 93
-0.06953536 -1.1706307 1.9883448 87
-0.085410379 -1.4377944 1.9813027 87
-0.10441065 -1.7575622 1.9869798 83
-0.10919621 -1.9231435 1.9727067 54
-0.083370596 -1.4682944 1.2677988 26
-0.097135618 -1.7054454 1.2045637 26
-0.1157164 -2.0316124 1.1512902 32
-0.12485939 -2.1854124 0.97272241 17
-0.15811749 -2.7590609 0.901739 14
-0.15738894 -2.7463481 0.61373937 31
-0.15917809 -2.7691064 0.34147027 37
-0.080241814 -1.3791703 1.3111645 25
-0.092223585 -1.5803393 1.2362162 29
-0.10936412 -1.8739984 1.1882781 32
-0.12524137 -2.1396341 1.0782566 27
-0.13675991 -2.3294446 0.90082818 15
-0.17172703 -2.916332 0.79531586 14
-0.16378538 -2.7732179 0.47918719 38
-0.16394046 -2.7676361 0.20551506 45
-0.0023622834 -0.031261552 1.9991974 78
-0.020235337 -0.31322211 1.9958843 96
-0.025734764 -0.41306695 2.0131991 110
-0.037483461 -0.60800397 1.9934158 89
-0.05042512 -0.820041 1.9951125 95
-0.064105809 -1.0453377 1.9857829 83
-0.079796799 -1.3011086 1.9871606 84
-0.09785369 -1.5954511 1.9897208 64
-0.0092094531 -0.12442213 1.9910811 89
-0.017304465 -0.21853627 1.9983203 91
-0.032369841 -0.50928074 2.0009167 95
-0.044819158 -0.70876008 1.9854547 93
-0.05834052 -0.92754227 1.9846202 95
-0.073621206 -1.1703808 1.9883448 89
-0.090428695 -1.4374876 1.9813027 87
-0.11011931 -1.7504201 1.9796295 73
nan nan nan 0
-0.088495389 -1.4679945 1.2677988 27
-0.10106929 -1.6717057 1.1826321 24
-0.120401 -1.9913969 1.1304278 33
-0.13052297 -2.152571 0.95961118 18
-0.14911084 -2.4520304 0.81155044 12
-0.16637819 -2.7359757 0.61187416 21
-0.16914625 -2.7735045 0.34191647 37
-0.084595673 -1.3714273 1.3045148 30
-0.096241981 -1.555802 1.2185572 29
-0.11297676 -1.8262722 1.1604215 30
-0.13018011 -2.0984156 1.0593741 31
-0.1401986 -2.2535396 0.87454528 16
-0.17948459 -2.8769052 0.78593731 12
-0.17253706 -2.7578018 0.47711775 38
-0.17328748 -2.7620606 0.20531353 40
-0.0024713923 -0.031253114 1.9991974 77
-0.021328563 -0.31314954 1.9958843 97
-0.027176477 -0.41297463 2.0131991 110
-0.039605562 -0.60786945 1.9934158 89
-0.053287294 -0.81985992 1.9951125 95
-0.067754328 -1.0451076 1.9857829 85
-0.084338024 -1.3008221 1.9871606 84
-0.10342225 -1.5950998 1.9897208 64
-0.0096437121 -0.12438923 1.9910811 89
-0.018067196 -0.21847454 1.9983203 91
-0.034147363 -0.50916457 2.0009167 95
-0.047292922 -0.70859933 1.9854547 93
-0.06157789 -0.92733294 1.9846202 95
-0.077706143 -1.1701168 1.9883448 89
-0.095445909 -1.4371631 1.9813027 89
-0.11577936 -1.7432595 1.972279 64
nan nan nan 0
-0.09188433 -1.4404817 1.2458342 28
-0.10370093 -1.6212678 1.1497345 24
-0.12452349 -1.9467529 1.1072476 32
-0.13536535 -2.1104648 0.94275385 18
-0.15612955 -2.4275577 0.80450451 11
-0.17372049 -2.7010634 0.60534585 14
-0.1804291 -2.7977459 0.34414753 36
-0.088653512 -1.3599443 1.2945403 31
-0.10009023 -1.5312563 1.2008983 29
-0.11597632 -1.7742418 1.1300323 29
-0.13542631 -2.0662467 1.0446877 31
-0.14651564 -2.2294748 0.86633182 18
-0.19016495 -2.8859613 0.78828198 12
-0.18705966 -2.8313038 0.48746499 16
-0.19547653 -2.9508693 0.21297172 35
-0.0025804709 -0.0312443 1.9991974 77
-0.02242153 -0.31307319 1.9958843 97
-0.028688356 -0.41389298 2.0180943 112
-0.041727182 -0.60772747 1.9934158 88
-0.056148808 -0.81966895 1.9951125 95
-0.071402021 -1.0448648 1.9857829 87
-0.088878229 -1.3005197 1.9871606 84
-0.10898956 -1.5947291 1.9897208 69
-0.010077852 -0.12435481 1.9910811 89
-0.018829705 -0.21841013 1.9983203 91
-0.035924472 -0.50904232 2.0009167 95
-0.049766108 -0.70842987 1.9854547 93
-0.064814515 -0.92711234 1.9846202 95
-0.081790142 -1.1698384 1.9883448 89
-0.10046197 -1.4368212 1.9813027 89
nan nan nan 0
-0.08431153 -1.2529525 1.3138521 26
-0.095866457 -1.4246159 1.2332832 28
-0.10823362 -1.6042081 1.1387686 24
-0.12833582 -1.9021047 1.0840675 33
-0.14022829 -2.0729766 0.9277696 21
-0.15648688 -2.3073401 0.76927465 13
-0.18215072 -2.6857376 0.60254794 14
-0.20641087 -3.0355906 0.3655656 36
-0.092376292 -1.3447244 1.2812408 31
-0.1037683 -1.5067027 1.1832393 29
-0.11891031 -1.7265147 1.1021757 28
-0.13982427 -2.0250118 1.0258054 32
-0.15201415 -2.1959717 0.85483307 23
nan nan nan 0
-0.19694161 -2.8306336 0.48746499 16
-0.21342364 -3.059813 0.21740538 44
-0.0026895183 -0.031235103 1.9991974 75
-0.023514222 -0.31299302 1.9958843 97
-0.03013294 -0.41379035 2.0180943 112
-0.043848291 -0.6075781 1.9934158 86
-0.059009645 -0.81946796 1.9951125 95
-0.075048849 -1.0446091 1.9857829 87
-0.093417354 -1.3002017 1.9871606 84
-0.11501509 -1.6007342 1.9973947 68
-0.01051187 -0.12431888 1.9910811 89
-0.019591983 -0.21834308 1.9983203 93
-0.037701141 -0.50891382 2.0009167 95
-0.052365676 -0.70997298 1.9901476 93
-0.068050347 -0.92688048 1.9846202 95
-0.085873142 -1.1695457 1.9883448 91
-0.1054768 -1.4364618 1.9813027 89
nan nan nan 0
-0.087929003 -1.2419782 1.3033384 30
-0.099464007 -1.404857 1.2175943 28
-0.11235245 -1.5829659 1.1250613 26
-0.13277897 -1.8707116 1.0678412 34
-0.14450218 -2.0308566 0.91091233 25
-0.16215076 -2.2732837 0.75941026 15
-0.19292258 -2.7046843 0.60627842 14
-0.2269512 -3.173938 0.37805945 84
-0.095993914 -1.329495 1.2679415 32
-0.10756801 -1.4861741 1.1685236 30
-0.12120131 -1.6744891 1.0717866 26
-0.14393604 -1.9837717 1.0069228 34
-0.15659541 -2.1530375 0.84004885 25
-0.16930836 -2.3222234 0.65229309 11
-0.19671416 -2.6916368 0.46815017 16
-0.23249863 -3.1736488 0.22204059 91
-0.0027985326 -0.031225525 1.9991974 78
-0.024606628 -0.31290901 1.9958843 95
-0.031577151 -0.41368261 2.0180943 111
-0.045968868 -0.60742134 1.9934158 86
-0.061869767 -0.81925696 1.9951125 95
-0.078694761 -1.0443408 1.9857829 87
-0.097955339 -1.2998676 1.9871606 82
-0.11987919 -1.5907325 1.9858838 55
-0.01094576 -0.12428142 1.9910811 89
-0.020354023 -0.21827336 1.9983203 93
-0.039477352 -0.50877911 2.0009167 95
-0.054843623 -0.70978582 1.9901476 93
-0.071285345 -0.92663729 1.9846202 95
-0.089955091 -1.1692388 1.9883448 91
-0.11049034 -1.4360849 1.9813027 89
-0.087992243 -1.1436623 1.321775 27
-0.091735199 -1.234551 1.2963293 32
-0.10292479 -1.3850905 1.2019054 29
-0.1163243 -1.5617146 1.1113539 27
-0.13667546 -1.8348929 1.049297 34
-0.14848372 -1.9887321 0.89405501 25
-0.16650477 -2.224865 0.74531829 16
-0.2001629 -2.6746037 0.60068274 16
-0.21046165 -2.8056352 0.34503993 10
-0.099506341 -1.3142571 1.2546421 32
-0.11122568 -1.4656374 1.1538078 31
-0.12378311 -1.6310672 1.0464623 26
-0.14776166 -1.9425281 0.98804033 38
-0.16123785 -2.1148076 0.8269074 27
-0.17778376 -2.3264649 0.65346545 11
-0.20459571 -2.6711826 0.46539089 15
-0.2435753 -3.1728179 0.22204059 90
-0.0029075129 -0.031215563 1.9991974 77
-0.025698734 -0.31282124 1.9958843 95
-0.033020981 -0.41356987 2.0180943 111
-0.048088886 -0.60725719 1.9934158 88
-0.064729124 -0.81903601 1.9951125 95
-0.082339711 -1.0440596 1.9857829 85
-0.10249212 -1.2995176 1.9871606 82
-0.1244228 -1.5775204 1.970536 43
-0.011379516 -0.12424245 1.9910811 89
-0.021115815 -0.21820097 1.9983203 91
-0.041253082 -0.5086382 2.0009167 95
-0.057320904 -0.70959008 1.9901476 93
-0.074519478 -0.92638284 1.9846202 95
-0.094035946 -1.1689178 1.9883448 89
-0.11550254 -1.4356905 1.9813027 87
-0.091440059 -1.1365898 1.3144246 31
-0.095490634 -1.2271122 1.2893202 32
-0.10655087 -1.3691983 1.1893543 29
-0.12047436 -1.5446239 1.1003881 29
-0.14204608 -1.8211541 1.0423429 38
-0.15253434 -1.9512272 0.87907076 27
-0.17052275 -2.1764433 0.73122638 17
-0.19568454 -2.4975874 0.56710839 13
-0.228441 -2.9091434 0.35441035 10
-0.10291359 -1.2990111 1.2413427 32
-0.11570114 -1.4571817 1.1479214 32
-0.12776956 -1.6091363 1.0338001 26
-0.15130113 -1.9012825 0.96915787 39
-0.16486442 -2.0671568 0.81048059 28
-0.18319258 -2.291914 0.6452592 17
-0.21233687 -2.6507065 0.46263161 15
-0.25504881 -3.1769283 0.22224215 90
-0.0030164579 -0.031205226 1.9991974 77
-0.02685703 -0.31350374 2.0008237 97
-0.034464408 -0.41345209 2.0180943 112
-0.050208315 -0.60708559 1.9934158 88
-0.067587703 -0.8188051 1.9951125 95
-0.085983649 -1.043766 1.9857829 85
-0.10702766 -1.2991521 1.9871606 82
nan nan nan 0
-0.011813134 -0.12420198 1.9910811 89
-0.02187735 -0.21812594 1.9983203 93
-0.04302831 -0.5084911 2.0009167 95
-0.059797484 -0.70938563 1.9901476 93
-0.077752702 -0.926117 1.9846202 95
-0.09811566 -1.1685824 1.9883448 91
-0.12051333 -1.4352785 1.9813027 89
-0.095123269 -1.1328855 1.3107494 33
-0.098327905 -1.2089989 1.2717975 32
-0.11038284 -1.3571779 1.1799411 29
-0.12416681 -1.523356 1.0866808 30
-0.14372325 -1.7632449 1.0122086 36
-0.15594746 -1.9090981 0.86221343 30
-0.17459618 -2.1328032 0.71854359 18
-0.20039363 -2.4479308 0.55778223 13
-0.2438879 -2.9728522 0.36021107 12
-0.1062156 -1.2837573 1.2280432 32
-0.11978491 -1.4446844 1.139092 33
-0.13124816 -1.5829016 1.0186056 27
-0.15417863 -1.8555136 0.94817728 38
-0.16855222 -2.0242131 0.79569638 30
-0.18755405 -2.2476664 0.63470834 18
-0.21416031 -2.56112 0.45021492 12
-0.26363373 -3.1461477 0.22103295 24
-0.0031253663 -0.031194506 1.9991974 78
-0.027951198 -0.31340808 2.0008237 97
-0.035907418 -0.41332927 2.0180943 111
-0.05232713 -0.60690665 1.9934158 88
-0.070445448 -0.81856418 1.9951125 95
-0.089626551 -1.0434594 1.9857829 85
-0.11156189 -1.2987705 1.9871606 84
-0.092901416 -1.0815208 1.3758096 24
-0.012246608 -0.12415999 1.9910811 89
-0.022638619 -0.21804824 1.9983203 93
-0.044803012 -0.50833786 2.0009167 95
-0.062273342 -0.70917255 1.9901476 93
-0.080984987 -0.92583996 1.9846202 95
-0.10219418 -1.1682328 1.9883448 89
-0.12525997 -1.4318465 1.9773132 84
-0.098190784 -1.1224148 1.299724 34
-0.10134143 -1.1944343 1.2577794 32
-0.1141322 -1.3451474 1.1705276 31
-0.12806654 -1.5062479 1.0757149 31
-0.14462258 -1.7009327 0.97975618 31
-0.15946198 -1.8715887 0.84722918 32
-0.17836705 -2.0891614 0.70586079 22
-0.19849025 -2.3248551 0.53446668 15
-0.24492428 -2.8628204 0.35039446 11
-0.1094124 -1.2684966 1.2147439 33
-0.12378289 -1.4321766 1.1302625 36
-0.13491647 -1.5609578 1.0059435 27
-0.15673852 -1.8097481 0.92719686 35
-0.17153397 -1.9765646 0.77926958 31
-0.19287212 -2.2179439 0.6276744 23
-0.21751042 -2.4962213 0.44124731 12
-0.26461944 -3.0307374 0.21639773 15
-0.003234236 -0.031183407 1.9991974 78
-0.029045025 -0.3133086 2.0008237 97
-0.037258234 -0.41218734 2.0131991 110
-0.054445311 -0.60672033 1.9934158 86
-0.073302343 -0.8183133 1.9951125 95
-0.093268357 -1.0431403 1.9857829 85
-0.11609477 -1.2983733 1.9871606 84
-0.092963994 -1.0396789 1.3259294 26
-0.012679933 -0.12411648 1.9910811 89
-0.023399612 -0.2179679 1.9983203 93
-0.046692044 -0.50943089 2.0057559 96
-0.064748436 -0.70895094 1.9901476 93
-0.084216274 -0.92555171 1.9846202 95
-0.10627145 -1.1678689 1.9883448 89
-0.12998411 -1.4283991 1.9733237 84
-0.1008791 -1.1085603 1.2850233 34
-0.1042545 -1.1798637 1.2437612 31
-0.11779894 -1.3331075 1.1611143 32
-0.13147956 -1.4849658 1.0620075 32
-0.14587019 -1.6474621 0.95193982 30
-0.16271655 -1.8340784 0.83224493 33
-0.18183546 -2.0455198 0.69317806 23
-0.20399454 -2.2947903 0.528871 18
-0.23503347 -2.6387296 0.33031502 13
-0.1128379 -1.2569488 1.2047694 33
-0.12878136 -1.4317358 1.1302625 38
-0.13804697 -1.5347139 0.99074894 29
-0.15898083 -1.7639879 0.90621626 34
-0.17460988 -1.9336239 0.76448536 32
-0.19579506 -2.1640079 0.61477894 25
-0.2195159 -2.4214675 0.4309001 14
-0.27293745 -3.0049179 0.21539009 16
-0.0033430669 -0.031171929 1.9991974 78
-0.030138502 -0.3132053 2.0008237 97
-0.038696811 -0.41205481 2.0131991 109
-0.05656283 -0.60652661 1.9934158 86
-0.076158345 -0.81805241 1.9951125 95
-0.096909024 -1.0428083 1.9857829 85
-0.12062623 -1.2979602 1.9871606 84
-0.096592575 -1.0393481 1.3259294 27
-0.013113103 -0.12407147 1.9910811 89
-0.024160318 -0.21788487 1.9983203 93
-0.048470005 -0.50926477 2.0057559 97
-0.067222737 -0.70872056 1.9901476 93
-0.087446541 -0.92525202 1.9846202 95
-0.11034743 -1.1674908 1.9883448 89
-0.1344021 -1.4219354 1.9653447 84
-0.10379096 -1.0980761 1.2739978 34
-0.10739339 -1.1688387 1.2332475 32
-0.12173923 -1.3249352 1.1548387 35
-0.13512892 -1.4678426 1.0510417 33
-0.14512177 -1.5763581 0.91485143 27
-0.16528544 -1.7919524 0.81538767 31
-0.18500136 -2.0018799 0.68049532 23
-0.20748319 -2.2451501 0.51954478 21
-0.23643745 -2.5535929 0.32272944 12
-0.1161841 -1.2453927 1.1947948 34
-0.13076888 -1.3990817 1.1067171 37
-0.14139712 -1.5127599 0.97808683 29
-0.16090566 -1.7182349 0.88523579 33
-0.17694703 -1.8859847 0.74805856 30
-0.1974341 -2.1004004 0.5995388 25
-0.22100225 -2.3467309 0.42055288 16
-0.27075407 -2.869653 0.20994875 10
-0.0034518568 -0.031160068 1.9991974 78
-0.031154305 -0.31232506 1.9958843 97
-0.04013491 -0.41191721 2.0131991 109
-0.058679659 -0.60632539 1.9934158 88
-0.079013422 -0.81778157 1.9951125 95
-0.10054852 -1.0424638 1.9857829 85
-0.12515622 -1.2975311 1.9871606 84
-0.099296503 -1.0294311 1.3144184 27
-0.013546113 -0.12402494 1.9910811 89
-0.024920732 -0.21779922 1.9983203 93
-0.050247375 -0.50909251 2.0057559 96
-0.069696225 -0.70848161 1.9901476 91
-0.090675734 -0.92494112 1.9846202 95
-0.11442205 -1.1670985 1.9883448 91
-0.13877654 -1.4154586 1.9573658 91
-0.10630005 -1.0842112 1.2592971 34
-0.11045661 -1.1578063 1.2227339 32
-0.12525418 -1.3128765 1.1454254 35
-0.13826248 -1.4465497 1.0373343 33
-0.15020186 -1.5714318 0.9125334 27
-0.1680042 -1.754446 0.80040342 31
-0.18786488 -1.9582436 0.66781253 25
-0.21109697 -2.2004042 0.51115119 23
-0.24534971 -2.552752 0.32272944 12
-0.11981089 -1.2375456 1.1881452 35
-0.1337007 -1.3785011 1.0920014 36
-0.14459573 -1.4908016 0.96542466 29
-0.16251303 -1.6724902 0.86425525 30
-0.17941131 -1.8430533 0.73327434 30
-0.19910328 -2.0416462 0.58547103 24
-0.22678488 -2.3213015 0.41710377 20
-0.27006307 -2.7593026 0.20551506 10
-0.0035606048 -0.031147826 1.9991974 78
-0.032244332 -0.31221443 1.9958843 97
-0.041572526 -0.41177461 2.0131991 109
-0.060795773 -0.60611689 1.9934158 88
-0.081867531 -0.81750083 1.9951125 95
-0.10418678 -1.0421064 1.9857829 83
-0.12968469 -1.2970864 1.9871606 84
-0.10161342 -1.0163183 1.2990707 28
-0.013978959 -0.1239769 1.9910811 91
-0.025680842 -0.21771091 1.9983203 93
-0.052024134 -0.50891399 2.0057559 95
-0.072168864 -0.70823401 1.9901476 91
-0.09390384 -0.92461902 1.9846202 95
-0.11849529 -1.166692 1.9883448 89
-0.14310741 -1.4089684 1.9493867 95
-0.10905621 -1.0737151 1.2482716 34
-0.11344413 -1.1467668 1.2122202 33
-0.1290697 -1.3046833 1.1391499 37
-0.14124908 -1.4252529 1.023627 32
-0.15262777 -1.5400378 0.89630723 30
-0.17092116 -1.7215561 0.78729212 30
-0.1904261 -1.9146123 0.65512979 27
-0.21391474 -2.1507723 0.50182503 24
-0.24339645 -2.4428589 0.31291285 13
-0.12375716 -1.2334042 1.1848203 37
-0.13649046 -1.3579173 1.0772856 36
-0.14764279 -1.4688398 0.95276248 30
-0.16425778 -1.6312716 0.8453728 31
-0.18252602 -1.8095255 0.72177559 29
-0.20036475 -1.9829067 0.57140321 25
-0.22989909 -2.2712257 0.41020563 21
-0.2645731 -2.6092296 0.19946913 9
-0.0036693092 -0.031135209 1.9991974 78
-0.033333968 -0.31209996 1.9958843 96
-0.043009639 -0.41162696 2.0131991 110
-0.062911145 -0.605901 1.9934158 88
-0.084720641 -0.81721002 1.9951125 95
-0.10782378 -1.0417362 1.9857829 87
-0.13421157 -1.2966257 1.9871606 87
-0.10417011 -1.0063908 1.2875599 28
-0.014411633 -0.12392734 1.9910811 91
-0.026505705 -0.21814989 2.0032918 93
-0.053800255 -0.50872928 2.0057559 95
-0.074640617 -0.70797783 1.9901476 91
-0.097130783 -0.92428565 1.9846202 95
-0.12256709 -1.1662713 1.9883448 89
-0.14707962 -1.3994679 1.9374182 97
-0.11174041 -1.0632131 1.2372462 34
-0.11671942 -1.1392684 1.2052112 34
-0.13243277 -1.2926071 1.1297365 37
-0.1440887 -1.4039533 1.0099196 32
-0.15755025 -1.5350883 0.89398915 32
-0.17361061 -1.6886677 0.77418089 30
-0.19268501 -1.8709871 0.64244705 26
-0.21588542 -2.096262 0.49156615 26
-0.24221225 -2.347873 0.30443484 14
-0.12767598 -1.2292502 1.1814954 39
-0.13913818 -1.3373311 1.0625699 35
-0.15053831 -1.4468749 0.94010037 31
-0.16618724 -1.5945758 0.82858837 31
-0.18491852 -1.7713021 0.70863408 30
-0.20425193 -1.9531897 0.56436926 29
-0.23524609 -2.2457831 0.40675652 25
-0.26742318 -2.5486662 0.19705077 9
-0.0037779692 -0.031122211 1.9991974 77
-0.034423199 -0.31198171 1.9958843 96
-0.044446222 -0.41147432 2.0131991 109
-0.064866267 -0.60419273 1.9886441 88
-0.087572716 -0.81690931 1.9951125 95
-0.11145946 -1.0413536 1.9857829 85
-0.13873683 -1.2961493 1.9871606 87
-0.10631752 -0.99327022 1.272212 29
-0.014844134 -0.12387628 1.9910811 89
-0.027267028 -0.21805604 2.0032918 95
-0.055575725 -0.50853837 2.0057559 96
-0.077111468 -0.70771295 1.9901476 93
-0.10035655 -0.92394096 1.9846202 95
-0.12663738 -1.1658363 1.9883448 91
-0.15098727 -1.3899571 1.9254496 98
-0.11435263 -1.0527056 1.2262206 34
-0.11994377 -1.1317614 1.198202 34
-0.13530284 -1.2766522 1.1171855 37
-0.14678138 -1.3826514 0.99621236 32
-0.16103697 -1.5169072 0.88471705 35
-0.1765628 -1.660392 0.76294273 32
-0.195658 -1.8369108 0.63258266 26
-0.21747826 -2.0417652 0.48130736 26
-0.24036798 -2.2529263 0.29595685 15
-0.13156733 -1.2250841 1.1781706 51
-0.14164387 -1.3167431 1.0478541 35
-0.15328231 -1.4249082 0.92743826 31
-0.16883503 -1.5669113 0.81599998 30
-0.18805991 -1.7424746 0.69877797 32
-0.20741169 -1.9186376 0.55616307 30
-0.2356203 -2.1760206 0.39709911 24
-0.26662165 -2.4583147 0.19342321 13
-0.0038865828 -0.031108834 1.9991974 78
-0.035512004 -0.31185964 1.9958843 96
-0.045882262 -0.41131669 2.0131991 109
-0.066974901 -0.6039626 1.9886441 88
-0.090423733 -0.81659871 1.9951125 95
-0.11509379 -1.0409582 1.9857829 85
-0.14326039 -1.2956572 1.9871606 80
-0.10907933 -0.98652011 1.2645382 32
-0.015276451 -0.12382371 1.9910811 89
-0.028028022 -0.21795951 2.0032918 95
-0.057350516 -0.50834131 2.0057559 96
-0.07958138 -0.70743942 1.9901476 93
-0.10358109 -0.92358494 1.9846202 95
-0.13070615 -1.1653872 1.9883448 91
-0.15684609 -1.3984071 1.9374182 97
-0.11727076 -1.0455619 1.2188703 35
-0.12350538 -1.1277908 1.1946975 36
-0.13848695 -1.264563 1.1077721 38
-0.14978306 -1.3655047 0.98524648 33
-0.16439869 -1.4987206 0.87544495 35
-0.17931972 -1.6321162 0.75170451 32
-0.19839546 -1.8028373 0.62271833 31
-0.21815594 -1.9823999 0.4701159 28
-0.2416833 -2.1926725 0.29060236 16
-0.13501939 -1.2171942 1.1715208 55
-0.14445388 -1.3001715 1.0360813 35
-0.1563509 -1.4072248 0.91730857 31
-0.1717937 -1.5437591 0.80550975 31
-0.19047922 -1.7089537 0.68727916 33
-0.21033277 -1.8840877 0.54795688 32
-0.23661104 -2.1161268 0.38882133 25
-0.26574871 -2.3729656 0.1899972 13
-0.0039951494 -0.031095078 1.9991974 78
-0.036600381 -0.31173378 1.9958843 97
-0.047317747 -0.41115403 2.0131991 109
-0.069082715 -0.60372514 1.9886441 88
-0.09327364 -0.8162781 1.9951125 95
-0.1187267 -1.0405501 1.9857829 85
-0.14778221 -1.2951492 1.9871606 78
-0.11143183 -0.9765777 1.2530273 31
-0.015708582 -0.12376963 1.9910811 91
-0.028788673 -0.21786034 2.0032918 93
-0.059124608 -0.508138 2.0057559 96
-0.082050323 -0.70715731 1.9901476 93
-0.10680438 -0.92321777 1.9846202 95
-0.1347733 -1.1649239 1.9883448 89
-0.16311213 -1.409827 1.9533762 95
-0.12014043 -1.0384109 1.21152 35
-0.12704071 -1.1238091 1.191193 38
-0.14115101 -1.2485989 1.0952209 39
-0.15266684 -1.3483541 0.97428066 33
-0.167137 -1.4761274 0.86385483 34
-0.18188144 -1.603842 0.7404663 34
-0.2008975 -1.768767 0.61285394 29
-0.22063945 -1.9425794 0.46265495 28
-0.24652117 -2.1670747 0.28837129 20
-0.13756864 -1.2018749 1.1582214 55
-0.14668959 -1.279581 1.0213655 36
-0.15880689 -1.3852546 0.9046464 31
-0.17459282 -1.5206057 0.79501951 31
-0.19320638 -1.6801294 0.67742306 35
-0.21301521 -1.8495411 0.53975064 32
-0.23661911 -2.0513334 0.37985373 25
-0.26141652 -2.2628391 0.1855635 13
-0.0041036671 -0.031080943 1.9991974 78
-0.037688315 -0.31160411 1.9958843 97
-0.048752654 -0.41098633 2.0131991 109
-0.071189687 -0.60348034 1.9886441 88
-0.096122414 -0.81594753 1.9951125 95
-0.12235817 -1.0401293 1.9857829 85
-0.15230222 -1.2946255 1.9871606 84
-0.11409086 -0.9698149 1.2453535 27
-0.016140524 -0.12371404 1.9910811 91
-0.029548969 -0.21775854 2.0032918 93
-0.06089798 -0.50792855 2.0057559 96
-0.084518261 -0.70686656 1.9901476 93
-0.11002636 -0.92283928 1.9846202 95
-0.13883883 -1.1644464 1.9883448 91
-0.16945983 -1.4212201 1.9693341 80
-0.12296163 -1.0312526 1.2041696 36
-0.1301368 -1.1162741 1.1841838 44
-0.14370535 -1.232632 1.0826699 39
-0.15543272 -1.3311999 0.96331471 34
-0.16971962 -1.4535334 0.8522647 33
-0.18478647 -1.5801747 0.73110116 34
-0.20372215 -1.7394665 0.60439873 29
-0.22227626 -1.8978873 0.45426136 30
-0.24944291 -2.1266322 0.2848016 21
-0.14001259 -1.1865529 1.144922 53
-0.14925772 -1.2630048 1.0095929 36
-0.16161744 -1.367566 0.89451671 31
-0.17723244 -1.4974517 0.78452927 32
-0.19629054 -1.6559967 0.66920966 34
-0.21545911 -1.8149991 0.53154445 33
-0.23676246 -1.9914845 0.37157595 26
-0.26104429 -2.1924601 0.18274207 12
-0.0042056702 -0.031023279 1.9941976 82
-0.038775787 -0.31147066 1.9958843 97
-0.050186969 -0.41081366 2.0131991 109
-0.073475994 -0.60471076 1.9934158 88
-0.098970018 -0.81560701 1.9951125 95
-0.12598816 -1.0396959 1.9857829 85
-0.15682037 -1.2940859 1.9871606 84
-0.11670405 -0.96304548 1.2376796 27
-0.016611217 -0.12394388 1.9960728 89
-0.030308908 -0.21765406 2.0032918 95
-0.062516451 -0.50646454 2.0009167 95
-0.086985171 -0.70656729 1.9901476 93
-0.113247 -0.92244965 1.9846202 95
-0.14290266 -1.1639545 1.9883448 87
-0.1762563 -1.4355773 1.9892817 65
-0.1257343 -1.0240873 1.1968193 37
-0.13318186 -1.1087316 1.1771748 45
-0.14614996 -1.2166625 1.0701188 37
-0.15808076 -1.3140434 0.95234889 34
-0.17214656 -1.4309397 0.84067458 33
-0.18697399 -1.5519043 0.71986294 33
-0.20634475 -1.7101682 0.59594357 34
-0.226546 -1.8775923 0.45053089 32
-0.25148788 -2.0812514 0.28078571 23
-0.1423513 -1.1712288 1.1316227 51
-0.15171194 -1.2464266 0.99782026 36
-0.16430645 -1.3498749 0.88438702 31
-0.17971258 -1.4742981 0.77403903 32
-0.19863632 -1.6271752 0.65935355 35
-0.21825428 -1.7852877 0.5245105 33
-0.23769458 -1.941491 0.36467779 28
-0.25896803 -2.112195 0.17951758 13
-0.0043139365 -0.031008409 1.9941976 75
-0.039862785 -0.31133345 1.9958843 97
-0.05162067 -0.41063595 2.0131991 109
-0.075586379 -0.60445058 1.9934158 88
-0.10181641 -0.81525654 1.9951125 96
-0.12961662 -1.0392497 1.9857829 87
-0.16133662 -1.2935307 1.9871606 84
-0.11927138 -0.95626968 1.2300057 29
-0.01704376 -0.12388514 1.9960728 89
-0.03106848 -0.21754694 2.0032918 95
-0.064283967 -0.50624323 2.0009167 93
-0.089451022 -0.70625937 1.9901476 93
-0.11646625 -0.92204875 1.9846202 95
-0.14696474 -1.1634487 1.9883448 87
-0.18202183 -1.4409337 1.9972607 37
-0.12845847 -1.0169153 1.1894691 39
-0.1357381 -1.0976422 1.1666611 39
-0.14848483 -1.2006912 1.0575677 37
-0.16061093 -1.2968848 0.941383 34
-0.17387334 -1.4039502 0.82676637 33
-0.18953702 -1.5282388 0.7104978 34
-0.20876536 -1.6808732 0.58748841 33
-0.2294659 -1.8475415 0.44493517 33
-0.25321916 -2.0358832 0.27676982 22
-0.14458475 -1.1559029 1.1183233 49
-0.15354986 -1.225836 0.98310447 35
-0.16687393 -1.332182 0.87425733 31
-0.18259811 -1.4556487 0.76564676 33
-0.20137198 -1.6030438 0.65114009 35
-0.22084475 -1.7555792 0.51747662 36
-0.24075642 -1.9111694 0.36053887 29
-0.26071179 -2.066668 0.1777038 15
-0.0044221496 -0.030993164 1.9941976 75
