# .PCD v0.7 - Point Cloud Data file format
VERSION 0.7
FIELDS x y z intensity
SIZE 4 4 4 4
TYPE F F F F
COUNT 1 1 1 1
WIDTH 1325
HEIGHT 1
VIEWPOINT 0 0 0 1 0 0 0
POINTS 1325
DATA ascii
-0.49359885 -0.11379595 1.4317083 50
-0.91403955 -0.21103856 2.0026236 93
-1.1527997 -0.26615807 2.0054085 87
-1.4210315 -0.32808161 2.0052397 36
-1.7320497 -0.39988321 2.0053556 86
-1.9069837 -0.44553173 2.0042477 24
-2.3267181 -0.54359055 2.0083144 31
-2.9257877 -0.68301117 2.0544183 17
-3.5735712 -0.83422929 2.0066421 62
-4.6148467 -1.0764589 2.0028906 26
-6.3496895 -1.4799588 2.0051391 33
-9.7498398 -2.27245 1.9921521 102
-9.5499401 -2.2241013 0.97151858 45
-2.1168866 -0.49145207 2.0160325 37
-2.5658183 -0.59520209 2.0014381 71
-3.1977425 -0.74178785 2.0138493 65
-4.0554228 -0.93999952 2.0118899 39
-5.3649359 -1.2425418 2.0047126 44
-7.7947335 -1.8038586 2.0203876 20
-9.9970131 -2.3116715 1.5214988 80
-4.0594058 -0.93793684 0.26174217 24
-0.030613825 -0.0065517272 1.9941976 55
-0.30770764 -0.06936492 2.0057628 54
-0.4035269 -0.09193822 2.0131991 93
-0.48464853 -0.11075605 1.6355366 38
-0.65236282 -0.1491899 1.6361156 95
-1.0279127 -0.23524791 1.9989488 81
-1.3447657 -0.3077561 2.0987501 29
-1.5706671 -0.35945031 2.0050688 76
-0.12252642 -0.026415873 2.0010643 55
-0.21609858 -0.045428991 2.0132346 105
-0.48788545 -0.11051576 1.9622031 39
-0.4939931 -0.11207227 1.4317083 50
-0.91477066 -0.20784667 2.0026236 93
-1.1537218 -0.26213241 2.0054085 87
-1.4221679 -0.32311925 2.0052397 37
-1.7334349 -0.39383477 2.0053556 86
-1.9085274 -0.4388724 2.0042477 24
-2.3323953 -0.53633791 2.011452 31
-2.9403796 -0.67560321 2.0626428 17
-3.5764616 -0.82175016 2.0066421 62
-4.6185765 -1.0603436 2.0028906 27
-6.3548164 -1.4577852 2.0051391 33
-9.7385597 -2.2340093 1.9884216 102
-9.5430822 -2.1874139 0.97017992 45
-2.1185892 -0.48405978 2.0160325 39
-2.5678804 -0.58624208 2.0014381 71
-3.2003121 -0.7306211 2.0138493 65
-4.0586791 -0.9258377 2.0118899 44
-5.3692403 -1.2238071 2.0047126 43
-7.7915049 -1.7744802 2.018043 25
-9.9953651 -2.274564 1.5201193 80
-4.0723982 -0.92597663 0.26214525 44
-0.03063651 -0.0064448253 1.9941976 55
-0.30794784 -0.068290405 2.0057628 57
-0.40384537 -0.090529084 2.0131991 93
-0.48357499 -0.10873605 1.6307648 38
-0.63381958 -0.14262342 1.5900904 84
-1.0287278 -0.2316584 1.9989488 81
-1.3458318 -0.30306011 2.0987501 29
-1.5719123 -0.35396549 2.0050688 76
-0.12261789 -0.025988014 2.0010643 55
-0.21625584 -0.044674393 2.0132346 107
-0.48826826 -0.10881204 1.9622031 39
-0.49438128 -0.11034723 1.4317083 50
-0.91549057 -0.20465225 2.0026236 93
-1.1546298 -0.25810358 2.0054085 87
-1.4232873 -0.31815302 2.0052397 38
-1.7347991 -0.38778156 2.0053556 86
-1.9100477 -0.4322077 2.0042477 36
-2.3342535 -0.52819306 2.011452 31
-2.9549558 -0.66810161 2.0708671 17
-3.5793083 -0.80926096 2.0066421 62
-4.6222496 -1.0442152 2.0028906 27
-6.3645463 -1.4366502 2.0065484 33
-9.7319231 -2.1967568 1.9856236 98
-9.5360861 -2.1508021 0.96884137 46
-2.1166227 -0.47584254 2.0127075 48
-2.569911 -0.57727492 2.0014381 71
-3.2028432 -0.71944553 2.0138493 67
-4.0618863 -0.91166461 2.0118899 48
-5.3734798 -1.2050575 2.0047126 45
-7.7929077 -1.7462091 2.0168707 27
-9.9984121 -2.2385778 1.5194294 67
-4.0902319 -0.91502762 0.26274985 94
-0.030658819 -0.0063378448 1.9941976 55
-0.30818439 -0.06721504 2.0057628 59
-0.40415892 -0.089118861 2.0131991 93
-0.48395163 -0.1070474 1.6307648 38
-0.61714602 -0.13661046 1.5486677 83
-1.0295302 -0.22806606 1.9989488 79
-1.3468814 -0.29836044 2.0987501 29
-1.5731382 -0.34847632 2.0050688 76
-0.12270786 -0.025559839 2.0010643 55
-0.21641046 -0.043919247 2.0132346 108
-0.48741645 -0.10683776 1.957364 39
-0.49476343 -0.10862085 1.4317083 50
-0.91619939 -0.20145535 2.0026236 92
-1.1555238 -0.25407162 2.0054085 87
-1.4243891 -0.31318286 2.0052397 39
-1.7361423 -0.38172364 2.0053556 86
-1.9115448 -0.42553777 2.0042477 50
-2.3398829 -0.52088767 2.0145898 30
-2.9654334 -0.65959853 2.07635 17
-3.5821111 -0.79676193 2.0066421 62
-4.6258659 -1.0280741 2.0028906 29
-6.3695221 -1.414425 2.0065484 33
-9.7059641 -2.1553185 1.9790952 48
-9.5289507 -2.1142657 0.96750271 26
-2.1146243 -0.46764487 2.0093827 48
-2.5719104 -0.56830072 2.0014381 71
-3.2053349 -0.70826113 2.0138493 65
-4.0650439 -0.89748043 2.0118899 49
-5.3730421 -1.1852759 2.0030696 39
-7.7894626 -1.7169038 2.0145259 28
-10.001328 -2.2025979 1.5187396 67
-4.088522 -0.89967078 0.2625483 96
-0.030680757 -0.0062307864 1.9941976 55
-0.30841711 -0.066138871 2.0057628 68
-0.40446752 -0.087707534 2.0131991 89
-0.48432234 -0.10535745 1.6307648 38
-0.60425651 -0.13154674 1.5164499 70
-1.0303199 -0.22447093 1.9989488 81
-1.3479147 -0.29365712 2.0987501 29
-1.5743451 -0.34298289 2.0050688 76
-0.12279633 -0.025131352 2.0010643 53
-0.21656245 -0.04316356 2.0132346 108
-0.48778638 -0.10513571 1.957364 39
-0.4951396 -0.10689314 1.4317083 50
-0.91689694 -0.19825599 2.0026236 95
-1.1564035 -0.25003651 2.0054085 87
-1.4254736 -0.30820891 2.0052397 39
-1.7374641 -0.37566105 2.0053556 86
-1.9130185 -0.41886261 2.0042477 73
-2.3416867 -0.51271677 2.0145898 30
-2.9758873 -0.65103048 2.0818331 17
-3.5848703 -0.78425312 2.0066421 62
-4.6294265 -1.0119207 2.0028906 29
-6.3744211 -1.3921826 2.0065484 33
-9.7086287 -2.1203771 1.9781626 49
-9.5265417 -2.0788672 0.96661025 20
-2.1162438 -0.46026057 2.0093827 25
-2.5738788 -0.55931967 2.0014381 73
-3.2077878 -0.6970681 2.0138493 65
-4.0681524 -0.88328528 2.0118899 51
-5.3771467 -1.1665133 2.0030696 17
-7.7906575 -1.6886733 2.0133536 29
-10.004115 -2.1666253 1.5180497 79
-4.0867543 -0.88433713 0.2623468 96
-0.030702319 -0.0061236531 1.9941976 56
-0.30864611 -0.06506189 2.0057628 71
-0.40477121 -0.086295143 2.0131991 89
-0.48468712 -0.1036662 1.6307648 38
-0.59133923 -0.1265747 1.4842323 67
-1.0310972 -0.22087309 1.9989488 81
-1.3489316 -0.2889502 2.0987501 28
-1.5755328 -0.33748534 2.0050688 76
-0.12316728 -0.024759151 2.0060561 53
-0.2167118 -0.042407356 2.0132346 108
-0.48691991 -0.10317172 1.9525248 39
-0.49550971 -0.10516413 1.4317083 52
-0.91545331 -0.19460145 1.9981228 93
-1.1572694 -0.2459984 2.0054085 87
-1.4235926 -0.30260456 2.00125 42
-1.7387649 -0.36959389 2.0053556 86
-1.9109827 -0.41143182 2.0007432 75
-2.3396566 -0.50372028 2.011452 32
-2.9863174 -0.6423974 2.087316 15
-3.5875862 -0.77173483 2.0066421 62
-4.6329308 -0.99575478 2.0028906 29
-6.3792415 -1.3699234 2.0065484 32
-9.7351837 -2.0906003 1.9818932 105
-9.53374 -2.0456007 0.96661025 47
-2.114186 -0.45208988 2.006058 22
-2.5758152 -0.55033171 2.0014381 71
-3.2102013 -0.68586659 2.0138493 64
-4.0712104 -0.86907941 2.0118899 53
-5.3811855 -1.1477364 2.0030696 16
-7.796505 -1.6614685 2.0133536 30
-10.006773 -2.1306598 1.51736 83
-4.0898166 -0.87006629 0.2623468 93
-0.030723505 -0.0060164444 1.9941976 56
-0.30887133 -0.063984118 2.0057628 71
-0.40506998 -0.084881708 2.0131991 93
-0.48504606 -0.10197369 1.6307648 37
-0.58986562 -0.12410758 1.4796298 67
-1.0318619 -0.21727253 1.9989488 83
-1.349932 -0.28423983 2.0987501 28
-1.5767012 -0.33198366 2.0050688 78
-0.12325296 -0.024329066 2.0060561 56
-0.21685851 -0.041650634 2.0132346 108
-0.48727709 -0.10147142 1.9525248 39
-0.49756312 -0.10378615 1.4364011 48
-0.91612703 -0.19140473 1.9981228 93
-1.1581209 -0.24195728 2.0054085 85
-1.4246402 -0.29763344 2.00125 48
-1.7400444 -0.3635222 2.0053556 83
-1.9124072 -0.40475875 2.0007432 73
-2.3414006 -0.4955503 2.011452 32
-2.9926326 -0.63283443 2.0900574 15
-3.5902581 -0.75920713 2.0066421 62
-4.6363788 -0.97957683 2.0028906 29
-6.383985 -1.3476472 2.0065484 32
-9.7520342 -2.0586348 1.9837584 104
-9.540822 -2.0123093 0.96661025 49
-2.1157513 -0.44470721 2.006058 22
-2.5777206 -0.54133713 2.0014381 71
-3.2125759 -0.67465669 2.0138493 65
-4.069778 -0.85393107 2.0097921 55
-5.3897815 -1.1299145 2.0047126 7
-7.7974997 -1.6332471 2.0121813 30
-10.009302 -2.0947022 1.5166701 83
-4.1270599 -0.86294246 0.2637575 12
-0.030744322 -0.0059091626 1.9941976 55
-0.30909279 -0.062905565 2.0057628 74
-0.40536383 -0.08346723 2.0131991 95
-0.48393637 -0.099977836 1.6259931 37
-0.58838212 -0.12165231 1.4750273 67
-1.032614 -0.21366934 1.9989488 81
-1.3509159 -0.27952594 2.0987501 28
-1.5778505 -0.32647792 2.0050688 78
-0.12333713 -0.023898685 2.0060561 56
-0.21700257 -0.040893406 2.0132346 108
-0.48762831 -0.09976989 1.9525248 39
-0.49792236 -0.10204869 1.4364011 52
-0.91678959 -0.18820567 1.9981228 92
-1.1589584 -0.23791321 2.0054085 87
-1.4227182 -0.29205269 1.9972607 57
-1.7413026 -0.3574461 2.0053556 86
-1.9138085 -0.39808074 2.0007432 73
-2.3393047 -0.4865815 2.0083144 38
-2.9989171 -0.62323511 2.0927989 17
-3.5928862 -0.74667013 2.0066421 52
-4.6397696 -0.96338689 2.0028906 32
-6.3839526 -1.3243803 2.0051391 31
-9.7639713 -2.025579 1.9846911 103
-9.5477886 -1.9789931 0.96661025 48
-2.1172907 -0.43731916 2.006058 38
-2.5835531 -0.53315282 2.0043812 71
-3.2149115 -0.66343862 2.0138493 65
-4.0727344 -0.83971965 2.0097921 55
-5.3983178 -1.1120466 2.006355 3
-7.7983932 -1.6050391 2.0110092 31
-10.011703 -2.058753 1.5159802 86
-4.7221875 -0.97018772 0.28814274 8
-0.03076476 -0.005801809 1.9941976 55
-0.3093105 -0.061826248 2.0057628 76
-0.4056527 -0.082051739 2.0131991 95
-0.4842824 -0.09828797 1.6259931 38
-0.58880317 -0.11959773 1.4750273 64
-1.0333536 -0.21006353 1.9989488 81
-1.3518834 -0.27480868 2.0987501 28
-1.5789804 -0.32096818 2.0050688 76
-0.12341981 -0.023468012 2.0060561 56
-0.21714401 -0.04013567 2.0132346 108
-0.48674044 -0.097819388 1.9476855 39
-0.49827555 -0.10031 1.4364011 54
-0.91744101 -0.18500435 1.9981228 93
-1.1597818 -0.23386624 2.0054085 85
-1.4237289 -0.2870847 1.9972607 65
-1.7425399 -0.35136563 2.0053556 86
-1.9151863 -0.39139786 2.0007432 73
-2.3409891 -0.47841287 2.0083144 40
-3.0051713 -0.6135996 2.0955403 17
-3.5954709 -0.73412412 2.0066421 52
-4.6385622 -0.9462586 2.0010173 33
-6.3885369 -1.302088 2.0051391 31
-9.7709818 -1.9914842 1.9846911 102
-9.549758 -1.9446594 0.96616405 48
-2.1224637 -0.43066829 2.0093827 54
-2.5853982 -0.52413124 2.0043812 71
-3.2214324 -0.65306896 2.0163815 65
-4.0756402 -0.82549804 2.0097921 55
-5.406795 -1.0941328 2.0079978 3
-7.8039474 -1.5778078 2.0110092 30
-10.013975 -2.0228126 1.5152906 85
nan nan nan 0
-0.030784825 -0.0056943847 1.9941976 53
-0.30876192 -0.060596716 2.0008237 74
-0.40593663 -0.080635242 2.0131991 93
-0.48462257 -0.096596919 1.6259931 38
-0.58921701 -0.1175417 1.4750273 64
-1.0340805 -0.20645519 1.9989488 81
-1.3528343 -0.27008805 2.0987501 28
-1.5800911 -0.31545457 2.0050688 74
-0.12350097 -0.023037054 2.0060561 58
-0.21728277 -0.039377451 2.0132346 108
-0.48707891 -0.096119754 1.9476855 39
-0.49862266 -0.098570079 1.4364011 52
-0.9180811 -0.18180075 1.9981228 92
-1.1605911 -0.22981641 2.0054085 85
-1.4247223 -0.28211319 1.9972607 70
-1.7437556 -0.34528092 2.0053556 86
-1.9165409 -0.38471022 2.0007432 73
-2.3388281 -0.46947223 2.0051763 37
-3.011395 -0.60392815 2.0982819 17
-3.5980117 -0.72156906 2.0066421 62
-4.6418366 -0.93006122 2.0010173 34
-6.3930426 -1.2797799 2.0051391 31
-9.773057 -1.9564006 1.9837584 102
-9.5516043 -1.9103358 0.96571779 48
-2.1239543 -0.42325693 2.0093827 77
-2.5872121 -0.51510334 2.0043812 71
-3.2236927 -0.64182013 2.0163815 65
-4.0784969 -0.81126642 2.0097921 55
-5.4152131 -1.0761734 2.0096405 2
-7.8046403 -1.5496106 2.0098369 30
-10.016118 -1.9868815 1.5146008 85
-7.2673664 -1.4402986 0.39253575 11
-0.030847553 -0.0055940775 1.9991974 55
-0.30897158 -0.059518564 2.0008237 74
-0.40621564 -0.079217769 2.0131991 89
-0.4849568 -0.094904676 1.6259931 38
-0.59154093 -0.11585968 1.4796298 67
-1.0347949 -0.20284432 1.9989488 81
-1.3537689 -0.26536411 2.0987501 28
-1.5811826 -0.30993712 2.0050688 74
-0.12358063 -0.022605814 2.0060561 60
-0.21741889 -0.038618755 2.0132346 108
-0.48741147 -0.094418943 1.9476855 39
-0.49896371 -0.09682896 1.4364011 54
-0.92084783 -0.17901047 2.0026236 93
-1.1613863 -0.2257638 2.0054085 87
-1.4256984 -0.27713826 1.9972607 74
-1.7449503 -0.33919194 2.0053556 86
-1.9178721 -0.3780179 2.0007432 73
-2.3404524 -0.46130535 2.0051763 7
-3.0134847 -0.59341276 2.0982819 17
-3.6048553 -0.70986122 2.0089602 62
-4.6450548 -0.91385251 2.0010173 34
-6.397471 -1.2574562 2.0051391 31
-9.7701864 -1.9203795 1.9818932 102
-9.5533285 -1.8760233 0.96527165 47
-2.1254187 -0.41584036 2.0093827 77
-2.5889943 -0.50606912 2.0043812 71
-3.2259135 -0.63056344 2.0163815 67
-4.0857577 -0.7978946 2.0118899 55
-5.4189372 -1.0572642 2.0096405 3
-7.8100019 -1.5223579 2.0098369 30
-10.013269 -1.9500135 1.513221 87
-7.2723494 -1.4149221 0.39253575 6
-0.030866891 -0.0054863649 1.9991974 56
-0.30917746 -0.058439691 2.0008237 80
-0.40648967 -0.077799335 2.0131991 89
-0.48528513 -0.093211286 1.6259931 38
-0.59769744 -0.11490039 1.4934374 69
-1.0354967 -0.19923097 1.9989488 83
-1.3546871 -0.26063696 2.0987501 28
-1.582255 -0.30441585 2.0050688 78
-0.12337369 -0.022123668 2.0010643 60
-0.21755239 -0.037859589 2.0132346 108
-0.48650241 -0.092482157 1.9428463 39
-0.49929866 -0.095086664 1.4364011 52
-0.92146707 -0.17579503 2.0026236 93
-1.1621672 -0.22170843 2.0054085 87
-1.4266571 -0.27215996 1.9972607 76
-1.7461236 -0.33309889 2.0053556 83
-1.9191798 -0.37132099 2.0007432 73
-2.3420484 -0.45313284 2.0051763 7
-3.0196426 -0.58368355 2.1010232 17
-3.607311 -0.69727361 2.0089602 64
-4.6436648 -0.89675361 1.9991444 40
-6.4065323 -1.236026 2.0065484 31
-9.772007 -1.8853331 1.9809605 103
-9.5647078 -1.8436071 0.96571779 46
-2.1268573 -0.40841874 2.0093827 75
-2.5947149 -0.49779034 2.0073245 71
-3.2280948 -0.61929905 2.0163815 65
-4.0885181 -0.78362781 2.0118899 58
-5.4225945 -1.0383422 2.0096405 4
-7.8104939 -1.4941734 2.0086646 30
-10.015151 -1.9141189 1.5125313 88
-7.2821517 -1.3904651 0.39273727 5
-0.030885853 -0.0053785862 1.9991974 56
-0.30937955 -0.057360105 2.0008237 86
-0.40675879 -0.07637994 2.0131991 87
-0.4841398 -0.09124022 1.6212213 38
-0.60769385 -0.11462361 1.5164499 72
-1.0361859 -0.1956152 1.9989488 83
-1.3555886 -0.25590664 2.0987501 26
-1.583308 -0.29889092 2.0050688 76
-0.12345016 -0.021692881 2.0010643 60
-0.21768321 -0.037099957 2.0132346 108
-0.48682225 -0.090783387 1.9428463 39
-0.49962753 -0.093343206 1.4364011 50
-0.92207515 -0.17257744 2.0026236 93
-1.1629341 -0.21765035 2.0054085 87
-1.4275985 -0.26717836 1.9972607 80
-1.7472757 -0.32700175 2.0053556 86
-1.9204644 -0.36461955 2.0007432 73
-2.343616 -0.44495478 2.0051763 30
-3.0216618 -0.57313949 2.1010232 17
-3.6097231 -0.68467748 2.0089602 64
-4.6467667 -0.88053876 1.9991444 46
-6.4108076 -1.2136555 2.0065484 32
-9.7737017 -1.850297 1.9800279 101
nan nan nan 0
-2.1246004 -0.40030074 2.006058 77
-2.5964367 -0.48873007 2.0073245 67
-3.230237 -0.6080271 2.0163815 67
-4.0956893 -0.77019024 2.013988 58
-5.4261861 -1.0194075 2.0096405 5
-7.8156619 -1.4669006 2.0086646 31
-10.016904 -1.8782351 1.5118414 89
-7.0856295 -1.3273226 0.38447452 3
-0.030904438 -0.0052707419 1.9991974 53
-0.30957788 -0.056279819 2.0008237 90
-0.40702292 -0.074959621 2.0131991 93
-0.48445532 -0.089549698 1.6212213 38
-0.62153774 -0.11498916 1.5486677 83
-1.0392181 -0.19243325 2.0033376 83
-1.3564736 -0.2511732 2.0987501 26
-1.5874939 -0.293946 2.0089054 76
-0.12352513 -0.021261828 2.0010643 60
-0.21781139 -0.036339872 2.0132346 108
-0.48713616 -0.089083508 1.9428463 39
-0.49995029 -0.091598615 1.4364011 48
-0.92267197 -0.16935773 2.0026236 93
-1.1636868 -0.21358962 2.0054085 87
-1.4285225 -0.26219347 1.9972607 80
-1.7484066 -0.32090059 2.0053556 86
-1.9217254 -0.35791367 2.0007432 73
-2.3451548 -0.43677133 2.0051763 39
-3.0277553 -0.56335336 2.1037648 17
-3.6164463 -0.67288339 2.0112782 61
-4.6498122 -0.86431319 1.9991444 47
-6.4197221 -1.1921462 2.0079575 31
-9.7704411 -1.8143754 1.9781626 100
nan nan nan 0
-2.1259849 -0.39288205 2.006058 75
-2.5981266 -0.47966385 2.0073245 48
-3.2323394 -0.59674776 2.0163815 67
-4.0983529 -0.75588894 2.013988 59
-5.4297113 -1.0004604 2.0096405 6
-7.820735 -1.4396099 2.0086646 29
-10.018528 -1.8423625 1.5111516 87
-5.065774 -0.93066037 0.30144379 4
-0.030879516 -0.0051562483 1.9941976 53
-0.30977246 -0.055198848 2.0008237 92
-0.40728205 -0.073538385 2.0131991 93
-0.48476493 -0.087858088 1.6212213 38
-0.63731372 -0.11560807 1.5854878 86
-1.0398836 -0.18880452 2.0033376 83
-1.357342 -0.2464367 2.0987501 27
-1.5885103 -0.2884028 2.0089054 71
-0.1235986 -0.020830514 2.0010643 62
-0.2179369 -0.035579346 2.0132346 108
-0.48744416 -0.08738254 1.9428463 39
-0.50026697 -0.089852899 1.4364011 50
-0.92325747 -0.16613597 2.0026236 93
-1.1644253 -0.20952632 2.0054085 87
-1.4294289 -0.2572054 1.9972607 80
-1.749516 -0.31479558 2.0053556 85
-1.922963 -0.35120338 2.0007432 73
-2.3466651 -0.42858252 2.0051763 66
-3.0255895 -0.55203056 2.1010232 17
-3.618773 -0.66025549 2.0112782 62
-4.6528006 -0.84807706 1.9991444 46
-6.4238439 -1.1697298 2.0079575 31
-9.7718821 -1.7793791 1.97723 100
nan nan nan 0
-2.1273432 -0.38545859 2.006058 75
-2.5997853 -0.47059175 2.0073245 23
-3.2344029 -0.58546114 2.0163815 65
-4.100966 -0.7415784 2.013988 57
-5.4331708 -0.9815011 2.0096405 7
-7.8304958 -1.4131649 2.0098369 29
-10.020025 -1.8065016 1.5104618 87
-5.0394902 -0.90765852 0.30023459 61
-0.030897327 -0.0050484268 1.9941976 53
-0.30996326 -0.054117203 2.0008237 92
-0.4075363 -0.072116263 2.0131991 93
-0.48506868 -0.086165406 1.6212213 38
-0.65887189 -0.117144 1.6361156 92
-1.0405363 -0.18517351 2.0033376 83
-1.3581941 -0.24169718 2.0987501 28
-1.5895075 -0.28285611 2.0089054 71
-0.12367056 -0.020398948 2.0010643 62
-0.21805978 -0.034818392 2.0132346 110
-0.48774624 -0.085680507 1.9428463 39
-0.49887803 -0.087807029 1.4317083 50
-0.92383176 -0.16291219 2.0026236 92
-1.1651495 -0.20546043 2.0054085 87
-1.430318 -0.25221419 1.9972607 82
-1.7506043 -0.3086867 2.0053556 85
-1.9241773 -0.34448889 2.0007432 73
-2.3481467 -0.42038855 2.0051763 66
-3.0274978 -0.54146588 2.1010232 19
-3.6210556 -0.64761961 2.0112782 60
-4.6557331 -0.83183056 1.9991444 45
-6.4326105 -1.1481425 2.0093668 31
-9.7731991 -1.7443951 1.9762975 101
nan nan nan 0
-2.1286759 -0.37803045 2.006058 75
-2.6014121 -0.46151397 2.0073245 22
-3.2364268 -0.57416743 2.0163815 65
-4.1035299 -0.7272588 2.013988 57
-5.4365635 -0.96252984 2.0096405 7
-7.8353815 -1.3858228 2.0098369 29
-10.016517 -1.7697909 1.5090822 87
-5.0327883 -0.88832504 0.29983154 87
-0.030914761 -0.0049405443 1.9941976 51
-0.31015027 -0.053034902 2.0008237 93
-0.40778553 -0.070693254 2.0131991 93
-0.48536652 -0.08447168 1.6212213 38
-0.68814701 -0.11987169 1.7051535 88
-1.0411762 -0.18154024 2.0033376 83
-1.3590294 -0.23695473 2.0987501 28
-1.5904851 -0.27730599 2.0089054 76
-0.12374101 -0.019967133 2.0010643 60
-0.21817999 -0.03405701 2.0132346 111
-0.48804235 -0.083977439 1.9428463 39
-0.49918151 -0.086065084 1.4317083 50
-0.92439485 -0.15968643 2.0026236 92
-1.1658597 -0.20139205 2.0054085 89
-1.4311897 -0.24721994 1.9972607 82
-1.7516711 -0.3025741 2.0053556 86
-1.925368 -0.33777013 2.0007432 73
-2.3495998 -0.41218942 2.0051763 66
-3.0252512 -0.53017288 2.0982819 20
-3.6232941 -0.63497579 2.0112782 60
-4.658608 -0.81557399 1.9991444 45
-6.4365792 -1.1256814 2.0093668 31
-9.7743893 -1.7094234 1.9753649 101
nan nan nan 0
-2.1299825 -0.37059769 2.006058 75
-2.6030073 -0.45243052 2.0073245 31
-3.2384114 -0.56286669 2.0163815 65
-4.1060433 -0.71293038 2.013988 56
-5.4445434 -0.94435382 2.0112832 8
-7.8449602 -1.3592936 2.0110092 29
-10.017755 -1.7339714 1.5083923 87
-5.060473 -0.87500811 0.30083919 62
-0.030931819 -0.0048326016 1.9941976 49
-0.31033352 -0.051951949 2.0008237 92
-0.40802985 -0.069269389 2.0131991 93
-0.48418608 -0.082526043 1.6164496 38
-0.71744889 -0.12239634 1.7741913 86
-1.0418036 -0.17790474 2.0033376 81
-1.3598483 -0.23220938 2.0987501 28
-1.5914433 -0.27175245 2.0089054 76
-0.12380996 -0.019535074 2.0010643 60
-0.21829754 -0.033295207 2.0132346 111
-0.48709217 -0.082064442 1.9380071 39
-0.49947888 -0.084322095 1.4317083 48
-0.92494655 -0.15645872 2.0026236 92
-1.1665555 -0.19732122 2.0054085 89
-1.4320439 -0.24222265 1.9972607 82
-1.7527165 -0.2964578 2.0053556 86
-1.9265354 -0.33104727 2.0007432 69
-2.3510246 -0.40398526 2.0051763 66
-3.018841 -0.51819479 2.0927989 23
-3.6254885 -0.62232435 2.0112782 58
-4.6614265 -0.79930741 1.9991444 48
-6.4404697 -1.1032066 2.0093668 31
-9.7754545 -1.6744646 1.9744322 102
-10.003735 -1.7117701 1.0023072 38
-2.1312633 -0.3631604 2.006058 75
-2.6045706 -0.44334155 2.0073245 40
-3.2403564 -0.55155909 2.0163815 65
-4.1085067 -0.69859326 2.013988 57
-5.4478068 -0.9253431 2.0112832 7
-7.8496575 -1.3319013 2.0110092 29
-10.018864 -1.6981646 1.5077026 88
-5.0437937 -0.8540023 0.30003306 33
-0.030948501 -0.0047245999 1.9941976 49
-0.31051296 -0.050868366 2.0008237 90
-0.40826914 -0.067844681 2.0131991 91
-0.4844712 -0.080835417 1.6164496 38
-0.75063026 -0.12536138 1.8524343 80
-1.0400552 -0.17387204 1.9989488 83
-1.3606505 -0.2274612 2.0987501 29
-1.5923821 -0.2661956 2.0089054 74
-0.12387739 -0.019102778 2.0010643 62
-0.21841244 -0.032533009 2.0132346 111
-0.48737565 -0.080363676 1.9380071 39
-0.49977019 -0.08257807 1.4317083 50
-0.9254871 -0.15322909 2.0026236 90
-1.1672372 -0.19324797 2.0054085 87
-1.4328808 -0.23722239 1.9972607 84
-1.7537407 -0.29033783 2.0053556 86
-1.931196 -0.32491204 2.0042477 69
-2.3524203 -0.39577618 2.0051763 66
-3.0165079 -0.50696081 2.0900574 38
-3.6276388 -0.60966522 2.0112782 58
-4.6687603 -0.78379864 2.0010173 48
-6.4442816 -1.0807185 2.0093668 31
-9.7763958 -1.6395192 1.9734995 102
-10.024384 -1.6793084 1.0036457 60
-2.1325178 -0.3557187 2.006058 75
-2.6061025 -0.43424726 2.0073245 69
-3.2422621 -0.54024476 2.0163815 65
-4.1109204 -0.68424767 2.013988 57
-5.4510036 -0.90632099 2.0112832 7
-7.8590531 -1.305289 2.0121813 31
-10.019845 -1.6623713 1.5070127 89
-5.0368862 -0.83475727 0.29962999 4
-0.030964803 -0.0046165409 1.9941976 51
-0.31068861 -0.049784165 2.0008237 90
-0.40850347 -0.06641914 2.0131991 91
-0.48475042 -0.079143807 1.6164496 38
-0.77420032 -0.12652098 1.9076645 78
-1.0406559 -0.17024052 1.9989488 83
-1.3614362 -0.22271025 2.0987501 29
-1.5933017 -0.26063552 2.0089054 76
-0.12394331 -0.01867025 2.0010643 62
-0.21852466 -0.031770404 2.0132346 110
-0.48765323 -0.078661934 1.9380071 39
-0.50005537 -0.080833048 1.4317083 50
-0.92386663 -0.14964944 1.9981228 93
-1.1679046 -0.18917237 2.0054085 87
-1.4337001 -0.23221925 1.9972607 84
-1.7547435 -0.28421438 2.0053556 86
-1.9323183 -0.31816894 2.0042477 73
-2.3537877 -0.38756233 2.0051763 66
-3.0141332 -0.49574962 2.087316 73
-3.6297448 -0.59699869 2.0112782 60
-4.6714678 -0.76749688 2.0010173 52
-6.4480143 -1.0582172 2.0093668 32
-9.7820587 -1.6053832 1.9734995 101
-10.035099 -1.6451122 1.004092 40
-2.1337464 -0.34827265 2.006058 77
-2.6115913 -0.42579803 2.0102675 71
-3.244128 -0.52892387 2.0163815 65
-4.1132836 -0.66989368 2.013988 55
-5.4587946 -0.88804621 2.0129259 8
-7.8635612 -1.2778479 2.0121813 31
-10.020698 -1.6265919 1.5063229 89
-7.2293692 -1.1722002 0.38910973 15
-0.030980729 -0.0045084255 1.9941976 51
-0.31086051 -0.04869936 2.0008237 93
-0.40873283 -0.064992793 2.0131991 93
-0.48354891 -0.077215783 1.6116779 38
-0.79199982 -0.12659255 1.9490871 81
-1.0412437 -0.16660692 1.9989488 81
-1.3622054 -0.2179566 2.0987501 29
-1.5942017 -0.2550723 2.0089054 76
-0.12400773 -0.018237494 2.0010643 62
-0.21863423 -0.031007418 2.0132346 109
-0.48792484 -0.076959223 1.9380071 39
-0.5003345 -0.079087034 1.4317083 50
-0.92438334 -0.14642362 1.9981228 95
-1.1685578 -0.18509449 2.0054085 87
-1.4345019 -0.22721331 1.9972607 84
-1.7557249 -0.27808744 2.0053556 86
-1.9334172 -0.31142196 2.0042477 75
-2.3551261 -0.37934369 2.0051763 66
-3.0158453 -0.48522529 2.087316 53
-3.6318066 -0.58432484 2.0112782 60
-4.6741185 -0.75118572 2.0010173 52
-6.4516692 -1.0357031 2.0093668 30
-9.782753 -1.5704492 1.972567 101
-10.035862 -1.6092846 1.0036457 38
-2.1349492 -0.34082237 2.006058 77
-2.6130619 -0.41667923 2.0102675 69
-3.2459548 -0.51759654 2.0163815 67
-4.1155972 -0.65553159 2.013988 55
-5.4618616 -0.86898601 2.0129259 8
-7.8679738 -1.2503912 2.0121813 30
-10.021423 -1.5908271 1.5056331 88
-7.2827597 -1.1547818 0.39112502 15
-0.030996278 -0.0044002552 1.9941976 49
-0.31102863 -0.047613952 2.0008237 95
-0.40895721 -0.063565649 2.0131991 93
-0.48381549 -0.075527415 1.6116779 38
-0.79822761 -0.12473193 1.9628948 83
-1.041819 -0.16297129 1.9989488 81
-1.3629578 -0.21320032 2.0987501 29
-1.5950825 -0.24950594 2.0089054 76
-0.12407064 -0.017804513 2.0010643 64
-0.21874113 -0.030244054 2.0132346 108
-0.48694736 -0.075064011 1.9331679 39
-0.50060755 -0.077340059 1.4317083 50
-0.92488891 -0.14319603 1.9981228 93
-1.1691968 -0.18101431 2.0054085 87
-1.4352863 -0.22220457 1.9972607 82
-1.7600354 -0.27247578 2.0090308 85
-1.9344925 -0.30467117 2.0042477 75
-2.3564358 -0.37112045 2.0051763 66
-3.0175207 -0.47469506 2.087316 24
-3.638201 -0.57233238 2.0135961 61
-4.676712 -0.73486543 2.0010173 50
-6.4599843 -1.0139199 2.0107758 30
-9.7833223 -1.5355296 1.9716343 101
-10.031579 -1.5727004 1.0027533 51
-2.1361258 -0.33336788 2.006058 75
-2.6145005 -0.4075554 2.0102675 69
-3.2477415 -0.5062629 2.0163815 55
-4.1178603 -0.64116144 2.013988 57
-5.4695282 -0.85064101 2.0145686 8
-7.8722911 -1.2229192 2.0121813 28
-10.022022 -1.5550767 1.5049433 88
-7.2768726 -1.127823 0.39072198 10
-0.031011449 -0.0042920313 1.9941976 49
-0.31119293 -0.046527974 2.0008237 95
-0.40917659 -0.062137738 2.0131991 91
-0.48407617 -0.073838122 1.6116779 37
-0.80638325 -0.12312419 1.9813049 82
-1.0423814 -0.15933368 1.9989488 83
-1.3636938 -0.20844139 2.0987501 29
-1.5959437 -0.24393655 2.0089054 76
-0.12413203 -0.017371317 2.0010643 64
-0.21884538 -0.029480323 2.0132346 108
-0.48720643 -0.073363796 1.9331679 39
-0.5008744 -0.075592138 1.4317083 54
-0.92538309 -0.13996668 1.9981228 93
-1.1724004 -0.17732196 2.0096743 87
-1.4360533 -0.21719313 1.9972607 84
-1.7609757 -0.26633045 2.0090308 86
-1.9355441 -0.29791668 2.0042477 75
-2.357717 -0.36289272 2.0051763 66
-3.0232921 -0.46479443 2.0900574 21
-3.6401765 -0.55962926 2.0135961 61
-4.6792483 -0.7185362 2.0010173 50
-6.4634833 -0.99136424 2.0107758 32
-9.7692013 -1.4983913 1.967904 100
-10.032085 -1.5369201 1.0023072 49
-2.1372764 -0.32590941 2.006058 75
-2.6159072 -0.39842662 2.0102675 71
-3.2494891 -0.49492306 2.0163815 29
-4.1200733 -0.62678355 2.013988 57
-5.4724641 -0.83154368 2.0145686 8
-7.8765111 -1.1954323 2.0121813 27
-10.022493 -1.5193416 1.5042534 89
-7.3844972 -1.1181216 0.39495412 2
-0.031026242 -0.0041837548 1.9941976 49
-0.31212232 -0.045553453 2.0057628 95
-0.40939102 -0.060709063 2.0131991 89
-0.48433095 -0.072147936 1.6116779 37
-0.80874044 -0.12059673 1.9859076 81
-1.0429313 -0.15569411 1.9989488 81
-1.364413 -0.20367995 2.0987501 29
-1.5967854 -0.23836419 2.0089054 76
-0.12419191 -0.01693791 2.0010643 64
-0.21894696 -0.028716229 2.0132346 108
-0.48745951 -0.071662687 1.9331679 39
-0.50113523 -0.0738433 1.4317083 50
-0.92586595 -0.13673566 1.9981228 93
-1.1730121 -0.17322843 2.0096743 87
-1.4368026 -0.21217906 1.9972607 87
-1.7618946 -0.2601819 2.0090308 86
-1.9365722 -0.29115856 2.0042477 75
-2.3589692 -0.35466054 2.0051763 66
-3.0248961 -0.45423836 2.0900574 19
-3.6421077 -0.54691923 2.0135961 53
-4.6817284 -0.70219821 2.0010173 53
-6.4716492 -0.96950722 2.0121851 33
-9.7743721 -1.4642813 1.967904 94
-10.032464 -1.5011553 1.0018609 54
-2.138401 -0.31844696 2.006058 75
-2.6172822 -0.38929296 2.0102675 71
-3.2511969 -0.48357719 2.0163815 15
-4.1267252 -0.61306489 2.0160861 57
-5.4753332 -0.8124361 2.0145686 7
-7.8806367 -1.1679308 2.0121813 26
-10.022838 -1.4836222 1.5035636 90
nan nan nan 0
-0.031040657 -0.0040754275 1.9941976 49
-0.31227946 -0.044463668 2.0057628 95
-0.40960041 -0.059279654 2.0131991 91
-0.48457986 -0.07045687 1.6116779 38
-0.81108975 -0.11805429 1.99051 81
-1.0434684 -0.15205266 1.9989488 81
-1.3679003 -0.19932173 2.1028829 29
-1.5944353 -0.23232667 2.0050688 78
-0.12425028 -0.016504295 2.0010643 66
-0.21851613 -0.027884865 2.0082631 108
-0.48646161 -0.06978216 1.9283288 39
-0.50138998 -0.072093561 1.4317083 50
-0.92849308 -0.13381355 2.0026236 93
-1.1736096 -0.1691328 2.0096743 87
-1.4375346 -0.20716238 1.9972607 84
-1.7627921 -0.25403014 2.0090308 85
-1.9375769 -0.28439689 2.0042477 75
-2.360193 -0.34642407 2.0051763 66
-3.0306005 -0.44428322 2.0927989 19
-3.6439948 -0.53420258 2.0135961 53
-4.6841507 -0.68585163 2.0010173 53
-6.4749942 -0.94691104 2.0121851 32
-9.9835682 -1.4600075 2.0070741 35
-10.037643 -1.4661263 1.0018609 54
-2.1394999 -0.31098062 2.006058 75
-2.6186249 -0.38015458 2.0102675 71
-3.2528648 -0.47222549 2.0163815 15
-4.1288404 -0.59865624 2.0160861 55
-5.4828095 -0.79399556 2.0162113 7
-7.884665 -1.1404152 2.0121813 28
-10.023053 -1.4479188 1.5028739 88
nan nan nan 0
-0.031098047 -0.0039719748 1.9991974 49
-0.31243274 -0.043373339 2.0057628 95
-0.40980485 -0.057849523 2.0131991 93
-0.48482284 -0.068764932 1.6116779 38
-0.81149685 -0.11522236 1.99051 79
-1.0439928 -0.14840934 1.9989488 79
-1.3685876 -0.19454566 2.1028829 30
-1.5952365 -0.22675963 2.0050688 76
-0.12430713 -0.016070481 2.0010643 66
-0.21861213 -0.027121933 2.0082631 107
-0.4867022 -0.068083666 1.9283288 39
-0.50163853 -0.070342943 1.4317083 54
-0.92895454 -0.13057169 2.0026236 93
-1.1741929 -0.16503511 2.0096743 87
-1.4382489 -0.20214318 1.9972607 84
-1.7603109 -0.24740346 2.0053556 85
-1.9385577 -0.27763176 2.0042477 75
-2.3613877 -0.33818331 2.0051763 67
-3.036272 -0.43429378 2.0955403 18
-3.6414514 -0.52085209 2.0112782 62
-4.6911058 -0.67015231 2.0028906 43
-6.4830093 -0.92498088 2.0135944 32
-9.9691505 -1.422374 2.0033436 35
-10.03777 -1.4303769 1.0014147 86
-2.1405721 -0.30351043 2.006058 77
-2.619936 -0.37101156 2.0102675 69
-3.2544935 -0.46086797 2.0163815 39
-4.1309047 -0.58424026 2.0160861 57
-5.485548 -0.7748521 2.0162113 8
-7.8934102 -1.1135646 2.0133536 28
-10.023143 -1.4122322 1.502184 79
-9.6170912 -1.3533092 0.48544151 13
-0.031111723 -0.003863398 1.9991974 49
-0.31181222 -0.042178504 2.0008237 95
-0.41000432 -0.056418683 2.0131991 93
-0.48505992 -0.067072168 1.6116779 38
-0.81382936 -0.11265685 1.9951125 79
-1.0445045 -0.14476421 1.9989488 79
-1.3692585 -0.18976721 2.1028829 30
-1.5960184 -0.22118984 2.0050688 76
-0.12436247 -0.01563647 2.0010643 67
-0.21870549 -0.026358671 2.0082631 106
-0.48693693 -0.066384338 1.9283288 39
-0.50359082 -0.068825081 1.4364011 52
-0.92940468 -0.12732823 2.0026236 92
-1.1747618 -0.16093539 2.0096743 87
-1.4389457 -0.19712152 1.9972607 82
-1.7611636 -0.24125732 2.0053556 85
-1.939515 -0.27086321 2.0042477 75
-2.3625538 -0.32993847 2.0051763 64
-3.0419111 -0.42427021 2.0982819 18
-3.6432471 -0.50813788 2.0112782 31
-4.6934161 -0.65377319 2.0028906 43
-6.4861989 -0.9023453 2.0135944 32
-10.017844 -1.3936583 2.0117371 65
-10.032835 -1.393959 1.0005223 90
-2.1416185 -0.2960366 2.006058 75
-2.6212151 -0.361864 2.0102675 71
-3.2560823 -0.44950485 2.0163815 65
-4.1329188 -0.56981719 2.0160861 58
-5.4882197 -0.75569922 2.0162113 8
-7.8972497 -1.0860046 2.0133536 27
-10.023106 -1.3765624 1.5014942 74
-9.6217575 -1.3197309 0.48544151 23
-0.03112502 -0.0037547743 1.9991974 49
-0.31195754 -0.041089818 2.0008237 93
-0.41019875 -0.054987159 2.0131991 93
-0.48529112 -0.065378584 1.6116779 38
-0.81421769 -0.10981536 1.9951125 79
-1.0450034 -0.14111733 1.9989488 79
-1.3699125 -0.18498644 2.1028829 31
-1.5967808 -0.21561734 2.0050688 76
-0.12441629 -0.015202269 2.0010643 67
-0.21879616 -0.025595084 2.0082631 104
-0.48716569 -0.064684212 1.9283288 39
-0.50382799 -0.067066796 1.4364011 54
-0.92984349 -0.12408324 2.0026236 92
-1.1753163 -0.15683374 2.0096743 87
-1.439625 -0.19209747 1.9972607 82
-1.7619951 -0.23510826 2.0053556 83
-1.9404488 -0.26409137 2.0042477 73
-2.3636913 -0.32168961 2.0051763 66
-3.0433736 -0.41364932 2.0982819 20
-3.644999 -0.49541745 2.0112782 4
-4.6956701 -0.63738614 2.0028906 53
-6.4893088 -0.87969875 2.0135944 31
-10.027514 -1.359341 2.0126698 71
-10.022836 -1.3569251 0.99918354 64
-2.1426387 -0.28855917 2.006058 75
-2.6224623 -0.35271209 2.0102675 71
-3.2576315 -0.43813631 2.0163815 65
-4.1348825 -0.55538708 2.0160861 58
-5.4955044 -0.73716509 2.017854 8
-7.9058104 -1.059077 2.0145259 27
-10.022941 -1.3409102 1.5008044 75
-9.6312571 -1.2867982 0.48564303 23
-0.031137936 -0.0036461048 1.9991974 49
-0.31132841 -0.039902043 1.9958843 93
-0.41038817 -0.053554963 2.0131991 93
-0.48551637 -0.063684203 1.6116779 38
-0.81653303 -0.10722686 1.999715 79
-1.0454897 -0.13746873 1.9989488 79
-1.3705499 -0.18020342 2.1028829 29
-1.5975236 -0.21004222 2.0050688 76
-0.1244686 -0.014767883 2.0010643 67
-0.21888418 -0.024831189 2.0082631 104
-0.48738849 -0.062983297 1.9283288 39
-0.50405902 -0.065307699 1.4364011 56
-0.93027097 -0.12083672 2.0026236 92
-1.1732703 -0.15239426 2.0054085 87
-1.4402869 -0.18707108 1.9972607 82
-1.7628051 -0.22895631 2.0053556 83
-1.9413587 -0.25731638 2.0042477 73
-2.3647997 -0.31343681 2.0051763 66
-3.0447989 -0.40302351 2.0982819 20
-3.6510983 -0.4832724 2.0135961 4
-4.7024627 -0.6215989 2.0047636 53
-6.4923406 -0.85704142 2.0135944 31
-10.037069 -1.324973 2.0136023 71
nan nan nan 0
-2.1436331 -0.28107819 2.006058 75
-2.6236775 -0.34355581 2.0102675 69
-3.2591412 -0.42676237 2.0163815 65
-4.1367965 -0.5409503 2.0160861 59
-5.498044 -0.71797764 2.017854 8
-7.9094586 -1.031474 2.0145259 27
-10.02756 -1.3059154 1.5008044 83
-9.6356907 -1.2531711 0.48564303 25
-0.031150473 -0.0035373911 1.9991974 47
-0.31146577 -0.038815059 1.9958843 92
-0.41057259 -0.052122112 2.0131991 89
-0.48425415 -0.061800048 1.6069062 38
-0.81690234 -0.10437599 1.999715 79
-1.0459633 -0.13381846 1.9989488 83
-1.3711705 -0.17541823 2.1028829 29
-1.6014271 -0.20487134 2.0089054 76
-0.1245194 -0.014333316 2.0010643 67
-0.21896952 -0.024066988 2.0082631 104
-0.48760536 -0.061281607 1.9283288 39
-0.50428391 -0.063547812 1.4364011 56
-0.93068707 -0.11758872 2.0026236 92
-1.1737951 -0.14829785 2.0054085 85
-1.440931 -0.18204238 1.9972607 82
-1.7635936 -0.22280155 2.0053556 83
-1.9422451 -0.2505382 2.0042477 73
-2.3658793 -0.30518022 2.0051763 66
-3.0461872 -0.39239269 2.0982819 22
-3.6571567 -0.47109073 2.0159142 33
-4.7046037 -0.60518038 2.0047636 55
-6.4952927 -0.83437377 2.0135944 32
-10.041633 -1.289929 2.0136023 72
-4.6676879 -0.59877563 0.51459968 6
-2.1446011 -0.27359381 2.006058 75
-2.6248608 -0.33439538 2.0102675 69
-3.2606108 -0.41538325 2.0163815 65
-4.1431613 -0.52707958 2.0181842 32
-5.5005164 -0.69878155 2.017854 8
-7.9178338 -1.0044702 2.0156984 27
-10.032057 -1.2709048 1.5008044 80
-9.6647882 -1.2226639 0.48665068 30
-0.031119198 -0.0034244671 1.9941976 47
-0.31159937 -0.037727606 1.9958843 92
-0.41075206 -0.050688632 2.0131991 89
-0.48446694 -0.06010931 1.6069062 38
-0.81726176 -0.10152383 1.999715 79
-1.0464239 -0.13016656 1.9989488 81
-1.3717746 -0.17063087 2.1028829 29
-1.6021326 -0.19928007 2.0089054 73
-0.12456867 -0.013898576 2.0010643 67
-0.2190522 -0.023302495 2.0082631 102
-0.4878163 -0.059579171 1.9283288 39
-0.5027898 -0.061577436 1.4317083 54
-0.9310919 -0.11433931 2.0026236 92
-1.1743057 -0.14419964 2.0054085 85
-1.4415578 -0.17701149 1.9972607 82
-1.7643604 -0.21664411 2.0053556 83
-1.9431078 -0.24375695 2.0042477 73
-2.3669302 -0.29691991 2.0051763 66
-3.047538 -0.38175711 2.0982819 22
-3.6631749 -0.45887268 2.0182323 52
-4.706687 -0.58875459 2.0047636 54
-6.4981651 -0.81169587 2.0135944 31
-10.0412 -1.2542604 2.0126698 74
-4.6796327 -0.58371139 0.51549208 6
-2.1455431 -0.26610607 2.006058 75
-2.6260121 -0.32523087 2.0102675 69
-3.2620411 -0.40399903 2.0163815 64
-4.1494803 -0.51317108 2.020282 6
-5.5029225 -0.67957687 2.017854 8
-7.9212914 -0.97682589 2.0156984 27
-10.031517 -1.2352734 1.5001146 80
-9.2822275 -1.141362 0.47093129 6
-0.031130383 -0.0033212535 1.9941976 47
-0.31172276 -0.036694098 1.9958843 93
-0.41091791 -0.049326245 2.0131991 89
-0.48466361 -0.058502428 1.6069062 38
-0.81759387 -0.098813131 1.999715 81
-1.0492283 -0.1269836 2.0033376 79
-1.3723328 -0.16608098 2.1028829 29
-1.6027845 -0.19396614 2.0089054 73
-0.12461172 -0.013507163 2.0010643 67
-0.21912432 -0.022614209 2.0082631 101
-0.48800108 -0.05804636 1.9283288 39
-0.50298077 -0.059997577 1.4317083 56
-0.93146592 -0.11125107 2.0026236 92
-1.1747775 -0.14030471 2.0054085 87
-1.4421368 -0.17223015 1.9972607 84
-1.7650324 -0.21110018 2.0053556 83
-1.9439055 -0.23731203 2.0042477 75
-2.3679018 -0.28906927 2.0051763 66
-3.0487876 -0.37164903 2.0982819 24
-3.6734715 -0.44779471 2.0228682 58
-4.7085133 -0.57396525 2.0047636 54
-6.5054455 -0.791857 2.0150034 31
-10.040427 -1.220363 2.0117371 74
-7.2226415 -0.87659699 0.74484396 8
-2.1464138 -0.25898972 2.006058 77
-2.6270761 -0.3165209 2.0102675 69
-3.2632942 -0.39374906 2.0163815 64
-4.1555781 -0.5006755 2.0223801 6
-5.5097184 -0.66284966 2.0194964 8
-7.9243217 -0.95193559 2.0156984 27
-10.035349 -1.2037524 1.5001146 80
nan nan nan 0
-0.031141786 -0.0032125679 1.9941976 45
-0.31262094 -0.035693716 2.0008237 95
-0.41108754 -0.047891576 2.0131991 93
-0.48486486 -0.056810278 1.6069062 38
-0.8179338 -0.095958591 1.999715 81
-1.0496652 -0.12332033 2.0033376 81
-1.3729042 -0.16128962 2.1028829 30
-1.6034518 -0.18837018 2.0089054 76
-0.12466039 -0.013050348 2.0010643 67
-0.21867438 -0.021758733 2.0032918 100
-0.48821056 -0.05625736 1.9283288 39
-0.50319731 -0.058153652 1.4317083 56
-0.93184865 -0.10799897 2.0026236 93
-1.1752599 -0.13620311 2.0054085 87
-1.4427292 -0.1671951 1.9972607 84
-1.7657943 -0.20462959 2.0053556 85
-1.9447221 -0.23052511 2.0042477 73
-2.3688965 -0.28080198 2.0051763 66
-3.0500662 -0.3610045 2.0982819 24
-3.6750124 -0.43496919 2.0228682 59
-4.7105856 -0.55670381 2.0047636 53
-6.5083041 -0.76800799 2.0150034 31
-10.039748 -1.1847322 2.0108044 74
-7.2306027 -0.85196257 0.74529016 7
-2.1473048 -0.25149578 2.006058 77
-2.6281648 -0.30734879 2.0102675 69
-3.2647154 -0.38178587 2.0163815 67
-4.1664009 -0.48649392 2.0265765 39
-5.5121112 -0.64265108 2.0194964 8
-7.9277568 -0.92288506 2.0156984 28
-10.034774 -1.1663911 1.4994247 80
-4.4611449 -0.51775318 0.2748417 104
-0.031152811 -0.0031038434 1.9941976 44
-0.31274363 -0.034602247 2.0008237 95
-0.41125223 -0.046456322 2.0131991 93
-0.48506019 -0.055117439 1.6069062 37
-0.81826377 -0.093102887 1.999715 81
-1.0500894 -0.11965556 2.0033376 83
-1.370663 -0.15617777 2.0987501 31
-1.6040998 -0.18277194 2.0089054 76
-0.12441704 -0.012586463 1.9960728 67
-0.21874899 -0.020995282 2.0032918 99
-0.48840398 -0.054552846 1.9283288 39
-0.50339723 -0.056396812 1.4317083 56
-0.93221986 -0.10474555 2.0026236 93
-1.1757283 -0.13209985 2.0054085 85
-1.4433041 -0.16215801 1.9972607 82
-1.7664977 -0.19846454 2.0053556 85
-1.9455148 -0.22373536 2.0042477 66
-2.3737295 -0.27297601 2.0083144 67
-3.0513077 -0.3503556 2.0982819 25
-3.6809096 -0.42264375 2.0251863 58
-4.7125001 -0.54025745 2.0047636 10
-6.5157113 -0.74583066 2.0164127 31
-10.038941 -1.1491212 2.0098717 75
nan nan nan 0
-2.1481695 -0.24399877 2.006058 75
-2.6292219 -0.29817292 2.0102675 69
-3.2703121 -0.37087336 2.018914 65
-4.1725836 -0.47245812 2.0286746 64
-5.5190134 -0.62393677 2.0211391 9
-7.9309301 -0.89520639 2.0156984 27
-10.033863 -1.1308014 1.4987348 80
-4.4629254 -0.50217772 0.2748417 109
-0.031163454 -0.0029950808 1.9941976 47
-0.31286249 -0.033510357 2.0008237 93
-0.41141188 -0.045020502 2.0131991 91
-0.48524964 -0.053423926 1.6069062 37
-0.82052577 -0.090460099 2.0043178 81
-1.0505005 -0.11598935 2.0033376 81
-1.3711997 -0.15139231 2.0987501 31
-1.6047279 -0.17717147 2.0089054 76
-0.12446021 -0.01215209 1.9960728 67
-0.21882094 -0.020231578 2.0032918 98
-0.48859143 -0.052847661 1.9283288 39
-0.503591 -0.054639287 1.4317083 56
-0.93257982 -0.10149086 2.0026236 93
-1.1761822 -0.127995 2.0054085 85
-1.4438614 -0.15711895 1.9972607 84
-1.7705503 -0.19266385 2.0090308 85
-1.9462839 -0.21694288 2.0042477 66
-2.3746679 -0.26468849 2.0083144 67
-3.0525124 -0.3397024 2.0982819 25
-3.6823626 -0.40979236 2.0251863 55
-4.7143574 -0.52380443 2.0047636 10
-6.5182748 -0.72308207 2.0164127 31
-10.038009 -1.11353 2.008939 76
-9.9340067 -1.100238 0.98847455 17
-2.149008 -0.23649876 2.006058 73
-2.6302466 -0.28899336 2.0102675 69
-3.2715867 -0.35945556 2.018914 65
-4.1787186 -0.45838511 2.0307724 64
-5.5023804 -0.6026116 2.0145686 9
-7.9340062 -0.86751682 2.0156984 27
-10.037749 -1.0957699 1.4987348 79
-4.4696174 -0.48713738 0.27504325 104
-0.031174224 -0.002880841 1.9941976 49
-0.31298321 -0.032363433 2.0008237 93
-0.41157416 -0.043512296 2.0131991 91
-0.48544219 -0.051645041 1.6069062 38
-0.8208518 -0.087452121 2.0043178 84
-1.0509186 -0.11213829 2.0033376 81
-1.3717455 -0.14636558 2.0987501 31
-1.6021786 -0.17094855 2.0050688 76
-0.12450392 -0.011695839 1.9960728 67
-0.21889363 -0.019429423 2.0032918 96
-0.48878184 -0.051056527 1.9283288 39
-0.50378788 -0.052793164 1.4317083 56
-0.93296266 -0.097909272 2.0026236 93
-1.1792588 -0.12375002 2.0096743 87
-1.444454 -0.15157379 1.9972607 84
-1.771277 -0.18586403 2.0090308 85
-1.9470661 -0.20980793 2.0042477 73
-2.375622 -0.25598311 2.0083144 66
-3.0537367 -0.3285121 2.0982819 25
-3.6838398 -0.3962931 2.0251863 55
-4.7162457 -0.50652194 2.0047636 14
-6.5256515 -0.69969803 2.0178218 32
-10.042211 -1.0749787 2.008939 77
-9.938158 -1.062086 0.98847455 10
-2.1499004 -0.22824544 2.006058 75
-2.6313369 -0.27889183 2.0102675 69
-3.272943 -0.34689099 2.018914 65
-4.1849613 -0.4428142 2.0328705 64
-5.4905648 -0.57999134 2.0096405 9
-7.9421124 -0.83755589 2.0168707 27
-10.041698 -1.0589722 1.4987348 77
-4.4713731 -0.47075218 0.27504325 104
-0.031183606 -0.0027774475 1.9941976 49
-0.31308883 -0.031325366 2.0008237 93
-0.41171616 -0.04214723 2.0131991 85
-0.48561078 -0.05003497 1.6069062 38
-0.82113737 -0.08472959 2.0043178 86
-1.0512848 -0.1086527 2.0033376 79
-1.3722234 -0.14181592 2.0987501 32
-1.6027367 -0.1656346 2.0050688 76
-0.12454005 -0.011304641 1.9960728 67
-0.21895358 -0.018741654 2.0032918 95
-0.48893979 -0.049520727 1.9283288 39
-0.50395125 -0.051210213 1.4317083 56
-0.93109912 -0.094757356 1.9981228 92
-1.1796417 -0.12004466 2.0096743 87
-1.444923 -0.14703515 1.9972607 84
-1.7718207 -0.18060774 2.0090308 83
-1.9477512 -0.20335007 2.0042477 73
-2.3764582 -0.24810386 2.0083144 64
-3.0589681 -0.31881717 2.1010232 25
-3.6851335 -0.38407487 2.0251863 58
-4.7224245 -0.49218348 2.0066366 53
-6.5278177 -0.67919362 2.0178218 32
-10.040654 -1.0429175 2.0080066 77
-9.8522825 -1.0216136 0.98044276 7
-2.1506069 -0.22149022 2.006058 75
-2.6322 -0.27062389 2.0102675 69
-3.2782462 -0.33762008 2.0214465 64
-4.1862574 -0.43039522 2.0328705 64
-5.4640741 -0.56080496 1.9997842 5
-7.9445634 -0.81398749 2.0168707 27
-10.030196 -1.0259086 1.4966655 73
-4.4678597 -0.45619515 0.2748417 107
-0.031193111 -0.0026685796 1.9941976 47
-0.31319627 -0.030232292 2.0008237 93
-0.41186079 -0.040709812 2.0131991 85
-0.4857825 -0.048339572 1.6069062 38
-0.82142812 -0.08186277 2.0043178 84
-1.0516576 -0.10498237 2.0033376 83
-1.37551 -0.13730457 2.1028829 31
-1.6033051 -0.16003898 2.0050688 74
-0.12458064 -0.010848103 1.9960728 69
-0.2190208 -0.017939022 2.0032918 95
-0.48911804 -0.047728337 1.9283288 39
-0.50413555 -0.049362794 1.4317083 56
-0.9314242 -0.091506638 1.9981228 90
-1.1800537 -0.11592622 2.0096743 85
-1.4454274 -0.14199054 1.9972607 84
-1.7724707 -0.17411248 2.0090308 85
-1.9449009 -0.196192 2.0007432 73
-2.3773096 -0.23980694 2.0083144 66
-3.0600622 -0.30813742 2.1010232 24
-3.6864517 -0.371209 2.0251863 58
-4.7241969 -0.47487164 2.0066366 53
-6.5302629 -0.65526336 2.0178218 32
-10.039345 -1.0073723 2.0070741 78
-9.7963257 -0.98126042 0.97508824 9
-2.1513669 -0.21398185 2.006058 73
-2.6331286 -0.26143417 2.0102675 69
-3.2794616 -0.32560247 2.0214465 64
-4.1878061 -0.41504896 2.0328705 64
-5.4660926 -0.54077441 1.9997842 5
-7.9523306 -0.78534144 2.018043 27
-10.014175 -0.98719585 1.4939061 62
-4.4893894 -0.44177359 0.27564782 106
-0.031202234 -0.0025596789 1.9941976 47
-0.31329986 -0.029138848 2.0008237 93
-0.41200039 -0.039271906 2.0131991 93
-0.48594823 -0.046643578 1.6069062 37
-0.8217088 -0.078994945 2.0043178 86
-1.0520177 -0.10131076 2.0033376 81
-1.3759809 -0.13250232 2.1028829 31
-1.6038539 -0.15444143 2.0050688 76
-0.12432915 -0.010389544 1.9910811 69
-0.21908209 -0.017174389 2.0032918 93
-0.48802936 -0.045902994 1.9234896 39
-0.50430483 -0.047602728 1.4317083 54
-0.93173796 -0.088254794 1.9981228 90
-1.1804512 -0.11180635 2.0096743 85
-1.4459143 -0.13694417 1.9972607 84
-1.7730677 -0.16792433 2.0090308 85
-1.9455739 -0.18940184 2.0007432 73
-2.3781321 -0.23150715 2.0083144 66
-3.0611191 -0.29745394 2.1010232 24
-3.6877248 -0.35833862 2.0251863 58
-4.7304397 -0.45882574 2.0085096 53
-6.5325108 -0.63246453 2.0178218 35
-10.03791 -0.97184896 2.0061414 78
-9.7352514 -0.94083118 0.96928751 11
-2.1521008 -0.20647088 2.006058 75
-2.6340253 -0.25224125 2.0102675 69
-3.2805781 -0.31415302 2.0214465 64
-4.189229 -0.40042827 2.0328705 64
-5.4961543 -0.52438205 2.0096405 39
-7.9550233 -0.7575779 2.018043 27
-9.9781208 -0.94848496 1.4883877 47
-4.5257187 -0.42940322 0.27705854 106
-0.031210981 -0.0024507469 1.9941976 45
-0.31339967 -0.028045051 2.0008237 95
-0.41213495 -0.037833512 2.0131991 93
-0.48610812 -0.044947013 1.6069062 37
-0.82197952 -0.076126173 2.0043178 88
-1.0547503 -0.097859211 2.0077264 81
-1.376435 -0.12769844 2.1028829 32
-1.6043833 -0.14884199 2.0050688 76
-0.12436467 -0.0099554909 1.9910811 69
-0.21914071 -0.016409544 2.0032918 91
-0.48818663 -0.044199172 1.9234896 39
-0.5044679 -0.045842089 1.4317083 54
-0.93204033 -0.085001893 1.9981228 92
-1.1808343 -0.10768513 2.0096743 87
-1.4463835 -0.13189618 1.9972607 84
-1.773643 -0.16173416 2.0090308 83
-1.9462231 -0.18260936 2.0007432 73
-2.3789258 -0.22320449 2.0083144 67
-3.0621388 -0.28676683 2.1010232 27
-3.6889534 -0.34546387 2.0251863 45
-4.7320123 -0.44231066 2.0085096 45
-6.5346785 -0.609658 2.0178218 30
-10.041242 -0.93680423 2.0061414 78
-9.6740141 -0.9008404 0.96348679 10
-2.1528082 -0.19895738 2.006058 73
-2.6348896 -0.24304524 2.0102675 69
-3.2816546 -0.30269974 2.0214465 65
-4.1906013 -0.38580266 2.0328705 63
-5.5073562 -0.50605792 2.0129259 38
-7.9624596 -0.73024899 2.0192153 27
-9.88274 -0.90462077 1.4745914 35
-4.5222149 -0.4131484 0.27685699 113
-0.031219346 -0.0023417855 1.9941976 45
-0.31349567 -0.026950909 2.0008237 95
-0.4122645 -0.036394667 2.0131991 93
-0.48626205 -0.043249913 1.6069062 37
-0.82224029 -0.07325647 2.0043178 93
-1.0550854 -0.094176859 2.0077264 81
-1.3768723 -0.12289301 2.1028829 32
-1.6048931 -0.14324075 2.0050688 76
-0.12439866 -0.0095213167 1.9910811 69
-0.21919665 -0.015644502 2.0032918 84
-0.48833793 -0.042494811 1.9234896 39
-0.50462484 -0.044080887 1.4317083 58
-0.93233132 -0.081747942 1.9981228 90
-1.1812029 -0.10356259 2.0096743 87
-1.4468352 -0.12684655 1.9972607 84
-1.7741967 -0.155542 2.0090308 85
-1.9468488 -0.17581467 2.0007432 75
-2.3796904 -0.21489914 2.0083144 67
-3.0589569 -0.2757009 2.0982819 27
-3.6901369 -0.33258492 2.0251863 45
-4.7335277 -0.42579013 2.0085096 42
-6.536767 -0.58684397 2.0178218 10
-10.039557 -0.90130877 2.0052087 79
-9.6175776 -0.86173314 0.95813227 11
-2.1534898 -0.19144148 2.006058 73
-2.6357219 -0.23384626 2.0102675 69
-3.2826912 -0.29124278 2.0214465 64
-4.1919227 -0.37117237 2.0328705 63
-5.5232019 -0.4880777 2.017854 38
-7.9649606 -0.70245039 2.0192153 27
-9.7279778 -0.85622376 1.4525173 25
-4.6380959 -0.40741515 0.28149223 71
-0.031227328 -0.0022327956 1.9941976 47
-0.31358784 -0.025856443 2.0008237 93
-0.41238904 -0.034955371 2.0131991 93
-0.4849219 -0.041425217 1.6021345 38
-0.82249099 -0.070385866 2.0043178 95
-1.0554078 -0.090493344 2.0077264 81
-1.377293 -0.11808607 2.1028829 32
-1.6053833 -0.13763775 2.0050688 74
-0.12443114 -0.0090870261 1.9910811 69
-0.21924992 -0.014879267 2.0032918 78
-0.48848331 -0.040789939 1.9234896 39
-0.50477564 -0.042319153 1.4317083 58
-0.93261105 -0.078492999 1.9981228 88
-1.1815573 -0.099438787 2.0096743 87
-1.4502723 -0.12204809 2.00125 84
-1.774729 -0.14934795 2.0090308 85
-1.9474505 -0.16901782 2.0007432 75
-2.3804262 -0.20659116 2.0083144 67
-3.0599005 -0.2650215 2.0982819 28
-3.6912754 -0.31970194 2.0251863 60
-4.7349854 -0.40926448 2.0085096 39
-6.5387754 -0.56402284 2.0178218 11
-10.042644 -0.86625868 2.0052087 77
-9.5510626 -0.82217675 0.95188534 12
