# .PCD v0.7 - Point Cloud Data file format
VERSION 0.7
FIELDS x y z intensity
SIZE 4 4 4 4
TYPE F F F F
COUNT 1 1 1 1
WIDTH 1366
HEIGHT 1
VIEWPOINT 0 0 0 1 0 0 0
POINTS 1366
DATA ascii
-2.6500211 0.14815386 2.0161538 69
-3.3033609 0.18468374 2.0290439 65
-4.2289095 0.23717026 2.045459 60
-5.5878367 0.31436223 2.0359235 37
-8.0802307 0.45599604 2.0426617 27
nan nan nan 0
-10.075304 0.57211387 0.50075787 46
-0.031267233 0.0022858889 1.9991974 45
-0.31404606 0.019518301 2.0008237 95
-0.41312861 0.024725359 2.0131991 87
-0.4873288 0.028844098 1.6069062 38
-0.82406229 0.048651572 2.0043178 58
-1.0550578 0.062114663 2.0033376 79
-1.3827654 0.081414446 2.1070161 29
-1.6116872 0.094897188 2.0089054 74
-0.12502185 0.0089477142 2.0010643 88
-0.2201748 0.016894983 2.0132346 116
-0.48927081 0.029896718 1.9234896 39
-0.5073362 0.030831616 1.4364011 54
-0.93637705 0.056599624 2.0026236 92
-1.1835735 0.071548156 2.0096743 85
-1.4527464 0.08782541 2.00125 84
-1.7811396 0.10768324 2.0127058 83
-1.9586313 0.11326909 2.0077524 73
-2.3853884 0.13795303 2.0083144 66
-3.0828991 0.17883322 2.1092477 24
-3.716567 0.21559474 2.0344584 49
-4.7816401 0.27821678 2.023494 41
-6.6189566 0.38628003 2.0375507 29
nan nan nan 0
nan nan nan 0
-2.161927 0.12805817 2.0093827 77
-2.653523 0.15764298 2.0190971 69
-3.3026962 0.1962135 2.0290439 65
-4.228056 0.25193048 2.045459 60
-5.5914192 0.33414724 2.0375662 37
-8.0785904 0.48419854 2.0426617 27
nan nan nan 0
-9.7640591 0.58863991 0.48826292 8
-0.031259064 0.002395018 1.9991974 42
-0.31397602 0.02061441 2.0008237 95
-0.41303977 0.026167298 2.0131991 87
-0.48722515 0.030545017 1.6069062 38
-0.82388741 0.051527791 2.0043178 56
-1.0548344 0.06579712 2.0033376 81
-1.3824726 0.086240709 2.1070161 30
-1.611346 0.10052245 2.0089054 74
-0.12498985 0.0093840668 2.0010643 88
-0.2201145 0.017663434 2.0132346 115
-0.49041867 0.03168558 1.9283288 39
-0.50722551 0.032602366 1.4364011 54
-0.93617386 0.059867848 2.0026236 93
-1.1833166 0.075679161 2.0096743 87
-1.4524311 0.09289591 2.00125 84
-1.7807529 0.11389993 2.0127058 83
-1.9546642 0.11988696 2.0042477 73
-2.3848922 0.14627874 2.0083144 66
-3.0822561 0.18959343 2.1092477 23
-3.7157919 0.22856665 2.0344584 59
-4.7806401 0.29490611 2.023494 39
-6.6223555 0.40967834 2.0389597 30
nan nan nan 0
nan nan nan 0
-2.1614668 0.13560393 2.0093827 75
-2.6529565 0.16690452 2.0190971 69
-3.3019912 0.20774086 2.0290439 65
-4.2316794 0.26697335 2.0475569 62
-5.5902185 0.35366291 2.0375662 37
-8.0768509 0.51239514 2.0426617 27
-9.6964645 0.61684299 1.4456191 2
-9.7619429 0.62271923 0.48826292 3
-0.03125051 0.002504118 1.9991974 42
-0.31390214 0.021710262 2.0008237 95
-0.41294593 0.027608914 2.0131991 91
-0.48711556 0.032245565 1.6069062 38
-0.82370257 0.054403376 2.0043178 58
-1.0545983 0.069478787 2.0033376 81
-1.3821632 0.091065913 2.1070161 29
-1.6109855 0.10614648 2.0089054 74
-0.12495633 0.0098203067 2.0010643 84
-0.2200515 0.018431669 2.0132346 115
-0.4903051 0.033397265 1.9283288 39
-0.50710863 0.03437271 1.4364011 56
-0.9359591 0.063135333 2.0026236 93
-1.1830451 0.079809234 2.0096743 87
-1.4520979 0.09796527 2.00125 84
-1.7803444 0.12011521 2.0127058 85
-1.9542339 0.12670928 2.0042477 71
-2.384367 0.15460268 2.0083144 66
-3.0815754 0.20035137 2.1092477 23
-3.7149715 0.2415358 2.0344584 56
-4.7842069 0.31189343 2.0253668 39
-6.6208854 0.43279216 2.0389597 30
-9.5976992 0.62738085 1.9175423 4
-9.7795439 0.64098191 0.97107238 7
-2.1609805 0.14314803 2.0093827 75
-2.6523578 0.17616406 2.0190971 69
-3.3012459 0.2192657 2.0290439 65
-4.230722 0.28174302 2.0475569 62
-5.5889502 0.37317422 2.0375662 37
-8.0750122 0.54058546 2.0426617 26
-9.699193 0.65101784 1.446309 12
-9.8294964 0.66148734 0.49108434 14
-0.031241581 0.0026131873 1.9991974 42
-0.31382447 0.022805855 2.0008237 93
-0.41284704 0.029050199 2.0131991 93
-0.48700002 0.033945717 1.6069062 38
-0.82350761 0.057278305 2.0043178 56
-1.0543493 0.07315959 2.0033376 81
-1.381837 0.09589 2.1070161 29
-1.6138034 0.11199119 2.0127425 74
-0.12492129 0.010256425 2.0010643 84
-0.21998583 0.019199679 2.0132346 115
-0.49018553 0.035108548 1.9283288 39
-0.50698549 0.036142644 1.4364011 54
-0.93573302 0.066402055 2.0026236 92
-1.1827595 0.08393836 2.0096743 87
-1.4517471 0.10303345 2.00125 82
-1.7799144 0.12632905 2.0127058 85
-1.9537797 0.13353007 2.0042477 71
-2.3838129 0.16292472 2.0083144 64
-3.0808573 0.21110685 2.1092477 23
-3.7185254 0.25480488 2.0367765 56
-4.7830892 0.3285915 2.0253668 40
-6.6193342 0.45590076 2.0389597 30
-9.4239273 0.64906579 1.8849006 6
-9.7673101 0.67442888 0.97017992 10
-2.1604676 0.15069039 2.0093827 75
-2.6476943 0.18513948 2.0161538 67
-3.3004603 0.23078786 2.0290439 65
-4.2297125 0.2965093 2.0475569 63
-5.5876131 0.39268106 2.0375662 37
-8.0730772 0.56876928 2.0426617 9
-9.7067404 0.68556821 1.4476886 13
nan nan nan 0
-0.031232268 0.0027222249 1.9991974 42
-0.31374294 0.023901166 2.0008237 93
-0.41274312 0.030491125 2.0131991 91
-0.48687857 0.035645455 1.6069062 38
-0.82330263 0.060152534 2.0043178 58
-1.0540876 0.076839522 2.0033376 79
-1.3814938 0.10071293 2.1070161 27
-1.6134027 0.11762374 2.0127425 76
-0.12488473 0.01069242 2.0010643 84
-0.21991746 0.019967457 2.0132346 115
-0.49005997 0.036819398 1.9283288 39
-0.50685626 0.037912134 1.4364011 52
-0.93549562 0.069667973 2.0026236 92
-1.1824592 0.088066444 2.0096743 87
-1.4513786 0.10810035 2.00125 84
-1.7794626 0.13254133 2.0127058 83
-1.9533018 0.14034921 2.0042477 73
-2.3832297 0.17124479 2.0083144 64
-3.0801017 0.22185975 2.1092477 23
-3.7176135 0.26778337 2.0367765 59
-4.7819128 0.34528562 2.0253668 42
-6.6177025 0.47900373 2.0389597 30
-9.333415 0.675574 1.8681136 5
-9.7797976 0.70960027 0.97151858 9
-2.1599286 0.15823092 2.0093827 77
-2.6470318 0.19438054 2.0161538 67
-3.2996347 0.24230722 2.0290439 64
-4.228652 0.31127191 2.0475569 62
-5.5909185 0.41253057 2.0392089 38
-8.0661955 0.59658754 2.0414894 6
-9.8228149 0.72823411 1.4642441 20
nan nan nan 0
-0.031222576 0.0028312292 1.9991974 42
-0.31365758 0.024996188 2.0008237 95
-0.41263416 0.031931683 2.0131991 93
-0.4867512 0.037344765 1.6069062 38
-0.82503557 0.063175231 2.0089202 58
-1.0538129 0.080518492 2.0033376 79
-1.3811339 0.10553463 2.1070161 27
-1.6129823 0.12325484 2.0127425 74
-0.12484665 0.011128284 2.0010643 84
-0.21984643 0.020734988 2.0132346 115
-0.48992848 0.038529806 1.9283288 39
-0.50672084 0.039681159 1.4364011 50
-0.93524665 0.072933033 2.0026236 90
-1.1821445 0.092193462 2.0096743 83
-1.4539974 0.11340035 2.0052397 84
-1.778989 0.13875203 2.0127058 81
-1.9563562 0.14743465 2.0077524 73
-2.3826175 0.17956276 2.0083144 66
-3.0793083 0.23260997 2.1092477 22
-3.716656 0.28075865 2.0367765 60
-4.7806783 0.36197552 2.0253668 40
-6.6159902 0.50210088 2.0389597 30
-9.5318251 0.7233907 1.906351 7
-9.8517466 0.74939972 0.9782117 26
-2.1593628 0.1657695 2.0093827 75
-2.6463373 0.20361921 2.0161538 69
-3.2987688 0.25382361 2.0290439 64
-4.2320652 0.32637981 2.049655 60
-5.5894446 0.432044 2.0392089 37
-8.0737562 0.62549108 2.043834 27
-9.8152771 0.76213437 1.4635544 16
-9.8568974 0.76709688 0.49249509 18
-0.031212501 0.0029401993 1.9991974 42
-0.31356844 0.026090905 2.0008237 92
-0.4125202 0.033371847 2.0131991 89
-0.48661783 0.039043617 1.6069062 38
-0.82480997 0.066054754 2.0089202 56
-1.0535254 0.0841965 2.0033376 79
-1.380757 0.11035504 2.1070161 27
-1.6157378 0.12913989 2.0165794 73
-0.12480704 0.011564013 2.0010643 78
-0.22030401 0.021554928 2.0182061 116
-0.48979101 0.04023974 1.9283288 39
-0.50657922 0.041449703 1.4364011 50
-0.93498635 0.076197214 2.0026236 90
-1.1818155 0.096319355 2.0096743 85
-1.4535927 0.11847505 2.0052397 82
-1.7784938 0.14496101 2.0127058 81
-1.9558296 0.15426272 2.0077524 75
-2.3858569 0.18818468 2.011452 64
-3.0784779 0.24335736 2.1092477 22
-3.7156534 0.2937305 2.0367765 59
-4.7840071 0.37902713 2.02724 40
-6.618979 0.52557164 2.040369 31
-9.5635195 0.7593804 1.9128793 6
-9.8589993 0.78457427 0.97910416 20
-2.158771 0.17330608 2.0093827 75
-2.6456106 0.21285541 2.0161538 67
-3.2978628 0.26533693 2.0290439 64
-4.2309003 0.34115049 2.049655 61
-5.5926089 0.45193255 2.0408514 37
-8.0521441 0.6521005 2.0391448 19
-9.8125563 0.79639143 1.4635544 15
-9.8541594 0.80149913 0.49249509 8
-0.03124541 0.0030539818 2.0041974 44
-0.31347543 0.027185306 2.0008237 92
-0.4124012 0.034811612 2.0131991 89
-0.4864786 0.040741991 1.6069062 38
-0.82457441 0.068933472 2.0089202 56
-1.0532252 0.087873474 2.0033376 79
-1.3803633 0.11517411 2.1070161 27
-1.6152772 0.13477907 2.0165794 73
-0.12476592 0.0119996 2.0010643 78
-0.22022742 0.0223238 2.0182061 116
-0.48964754 0.041949183 1.9283288 39
-0.50643146 0.043217737 1.4364011 50
-0.93471473 0.079460457 2.0026236 92
-1.1814722 0.10044408 2.0096743 85
-1.4531702 0.12354831 2.0052397 82
-1.777977 0.15116821 2.0127058 83
-1.9552791 0.16108888 2.0077524 75
-2.3851855 0.19651172 2.011452 64
-3.0776095 0.25410175 2.1092477 21
-3.7190201 0.30706328 2.0390942 55
-4.7826548 0.39572412 2.02724 40
-6.6171041 0.54867303 2.040369 31
nan nan nan 0
-9.8512383 0.81857145 0.97865796 17
-2.1618745 0.18115239 2.0127075 75
-2.6448512 0.22208901 2.0161538 67
-3.2969162 0.27684698 2.0290439 66
-4.2342062 0.35629752 2.051753 62
-5.5909972 0.47145161 2.0408514 38
-8.049819 0.6802038 2.0391448 17
-9.8343897 0.83272797 1.4670035 19
-9.8662348 0.83715886 0.49309966 63
-0.031234562 0.0031630299 2.0041974 42
-0.31337863 0.028279372 2.0008237 93
-0.41227716 0.036250945 2.0131991 89
-0.4863334 0.042439871 1.6069062 38
-0.82432878 0.071811356 2.0089202 56
-1.052912 0.091549389 2.0033376 79
-1.3799529 0.11999179 2.1070161 26
-1.6147969 0.14041662 2.0165794 76
-0.12472326 0.01243504 2.0010643 73
-0.22014816 0.0230924 2.0182061 116
-0.48949814 0.043658119 1.9283288 39
-0.50627756 0.044985253 1.4364011 48
-0.93443161 0.082722731 2.0026236 92
-1.1811143 0.10456757 2.0096743 85
-1.4527301 0.12862006 2.0052397 82
-1.7774384 0.15737359 2.0127058 83
-1.9547049 0.16791311 2.0077524 73
-2.384485 0.20483637 2.011452 64
-3.0767038 0.26484308 2.1092477 21
-3.7179255 0.32004321 2.0390942 55
-4.7812443 0.41241631 2.02724 42
-6.6199284 0.57218081 2.0417781 31
-9.8712015 0.85319966 1.972567 11
-9.8582439 0.85381311 0.97955036 11
-2.1612291 0.18869764 2.0127075 75
-2.6440599 0.23131992 2.0161538 67
-3.3002248 0.2887294 2.0315762 64
-4.2329369 0.37107551 2.051753 62
-5.5940223 0.49137822 2.0424941 38
-7.6116242 0.66994381 1.9336361 3
-9.8462219 0.86835653 1.4690729 13
-9.8732061 0.872473 0.49350274 62
-0.031223331 0.0032720398 2.0041974 42
-0.31327802 0.029373096 2.0008237 95
-0.41214812 0.037689842 2.0131991 89
-0.48766974 0.044272337 1.6116779 38
-0.82407308 0.074688368 2.0089202 56
-1.052586 0.095224179 2.0033376 81
-1.3767231 0.1245544 2.1028829 26
-1.6111041 0.14576359 2.0127425 74
-0.1246791 0.01287033 2.0010643 73
-0.2195355 0.023802504 2.0132346 116
-0.48934272 0.045366518 1.9283288 39
-0.5061174 0.046752218 1.4364011 48
-0.93413717 0.085984014 2.0026236 93
-1.1807421 0.1086898 2.0096743 85
-1.4522723 0.13369025 2.0052397 82
-1.7768784 0.16357706 2.0127058 83
-1.9541069 0.17473528 2.0077524 69
-2.3837554 0.21315852 2.011452 66
-3.0757608 0.27558118 2.1092477 21
-3.7167861 0.33301923 2.0390942 60
-4.7797756 0.4291034 2.02724 42
-6.6178904 0.59528518 2.0417781 26
-9.8681631 0.88765138 1.972567 8
-9.8601627 0.88866669 0.97999662 7
-2.1605573 0.19624057 2.0127075 75
-2.6432364 0.240548 2.0161538 69
-3.2991967 0.30024758 2.0315762 64
-4.2316155 0.38584897 2.051753 61
-5.5922728 0.51090205 2.0424941 39
-7.231689 0.66195023 1.8421954 2
-9.8579245 0.90407765 1.4711423 11
-9.885026 0.90830302 0.49410734 35
-0.031211719 0.0033810092 2.0041974 42
-0.31317359 0.03046646 2.0008237 93
-0.41201404 0.039128277 2.0131991 93
-0.48751223 0.045974351 1.6116779 38
-0.8238073 0.07756447 2.0089202 56
-1.0522473 0.0988978 2.0033376 79
-1.37628 0.1293593 2.1028829 26
-1.6105856 0.1513865 2.0127425 74
-0.12434554 0.013274241 1.9960728 71
-0.21945107 0.024568681 2.0132346 115
-0.49043342 0.04719492 1.9331679 39
-0.50595111 0.048518613 1.4364011 46
-0.93383139 0.089244232 2.0026236 92
-1.1803557 0.11281069 2.0096743 85
-1.4517968 0.13875882 2.0052397 82
-1.7762966 0.16977853 2.0127058 83
-1.9534851 0.18155533 2.0077524 69
-2.382997 0.2214781 2.011452 64
-3.0747797 0.28631589 2.1092477 21
-3.7156007 0.34599119 2.0390942 60
-4.782865 0.44621605 2.0291131 42
-6.6157718 0.61838233 2.0417781 19
-7.1896644 0.67202479 1.4624238 2
-9.8619585 0.92354387 0.98044276 5
-2.1598592 0.20378114 2.0127075 75
-2.6423805 0.24977314 2.0161538 67
-3.2981286 0.31176212 2.0315762 64
-4.2347612 0.40104565 2.0538511 61
-5.5904551 0.53041959 2.0424941 37
-7.887413 0.74974382 2.0016305 6
-9.8596382 0.93895227 1.4718322 26
nan nan nan 0
-0.031199725 0.0034899381 2.0041974 42
-0.31306532 0.031559456 2.0008237 93
-0.41187498 0.040566236 2.0131991 93
-0.48734877 0.047675807 1.6116779 38
-0.82353163 0.080439612 2.0089202 55
-1.0518955 0.10257023 2.0033376 83
-1.3758199 0.13416263 2.1028829 26
-1.6100472 0.15700758 2.0127425 74
-0.12429844 0.013708206 1.9960728 71
-0.21936396 0.025334558 2.0132346 115
-0.4902657 0.048906568 1.9331679 39
-0.50406146 0.050113622 1.4317083 48
-0.93351418 0.092503369 2.0026236 92
-1.1799545 0.11693021 2.0096743 87
-1.4513036 0.14382568 2.0052397 84
-1.7756931 0.17597792 2.0127058 83
-1.9528394 0.18837315 2.0077524 73
-2.3822093 0.22979496 2.011452 66
-3.0737619 0.29704711 2.1092477 20
-3.7143705 0.35895896 2.0390942 60
-4.7812781 0.4629086 2.0291131 42
-6.6135731 0.64147192 2.0417781 19
-7.0405955 0.68289036 1.4344451 2
-9.8685884 0.9589262 0.98133516 16
-2.1591344 0.21131922 2.0127075 75
-2.6414926 0.25899523 2.0161538 67
-3.29702 0.32327282 2.0315762 64
-4.2333355 0.41582525 2.0538511 61
-5.5885701 0.54993063 2.0424941 36
-7.8363762 0.77250296 1.9899074 6
-9.8661575 0.9743365 1.4732118 21
nan nan nan 0
-0.031187354 0.0035988241 2.0041974 42
-0.31295326 0.032652065 2.0008237 93
-0.41173086 0.042003702 2.0131991 93
-0.48717937 0.049376678 1.6116779 38
-0.8232457 0.083313785 2.0089202 55
-1.0515311 0.10624141 2.0033376 83
-1.3753433 0.13896433 2.1028829 26
-1.6094894 0.16262673 2.0127425 74
-0.12424983 0.014142006 1.9960728 69
-0.21927421 0.026100127 2.0132346 114
-0.49009201 0.050617617 1.9331679 39
-0.50388348 0.051872823 1.4317083 46
-0.93318558 0.095761374 2.0026236 92
-1.1795392 0.1210483 2.0096743 87
-1.4507927 0.14889081 2.0052397 84
-1.7750679 0.18217516 2.0127058 85
-1.95217 0.19518869 2.0077524 73
-2.3813927 0.23810902 2.011452 66
-3.0768669 0.30819148 2.111989 19
-3.7130949 0.37192234 2.0390942 58
-4.779633 0.47959554 2.0291131 42
-6.6160679 0.66503346 2.0431874 34
-6.8084507 0.68437153 1.390612 3
-9.8701363 0.9938671 0.98178142 18
-2.1583836 0.2188547 2.0127075 75
-2.6405725 0.2682142 2.0161538 67
-3.2958717 0.33477962 2.0315762 65
-4.2363729 0.43105918 2.055949 60
-5.5913143 0.56991398 2.0441368 37
-7.8384676 0.80034614 1.9910797 8
-9.8676243 1.0092738 1.4739016 20
-9.8700018 1.0112578 0.49390581 19
-0.031174602 0.0037076664 2.0041974 42
-0.31283736 0.033744276 2.0008237 92
-0.4115817 0.043440655 2.0131991 93
-0.48700407 0.051076952 1.6116779 38
-0.82294995 0.086186945 2.0089202 53
-1.0511539 0.10991129 2.0033376 79
-1.3748499 0.14376433 2.1028829 26
-1.608912 0.1682439 2.0127425 76
-0.12419971 0.014575632 1.9960728 69
-0.21918175 0.026865378 2.0132346 114
-0.48991236 0.052328054 1.9331679 39
-0.50369936 0.053631388 1.4317083 46
-0.93284565 0.099018216 2.0026236 92
-1.1791095 0.12516493 2.0096743 85
-1.4502641 0.15395412 2.0052397 84
-1.7744212 0.1883702 2.0127058 85
-1.9514767 0.20200185 2.0077524 73
-2.380547 0.24642017 2.011452 66
-3.075772 0.31892988 2.111989 16
-3.7117741 0.38488123 2.0390942 56
-4.7825408 0.4967556 2.0309861 41
-6.5755339 0.68415219 2.031914 29
-9.8694658 1.0268711 1.9753649 19
-9.8715601 1.0288304 0.98222762 38
-2.1576066 0.22638755 2.0127075 75
-2.6396201 0.27742988 2.0161538 67
-3.294683 0.3462823 2.0315762 64
-4.2348423 0.44584426 2.055949 60
-5.5798979 0.58843726 2.0408514 37
-8.0531425 0.8506797 2.043834 10
-9.8689651 1.0442332 1.4745914 35
-9.8664122 1.0457044 0.49390581 15
-0.031161468 0.0038164635 2.0041974 40
-0.31271768 0.034836076 2.0008237 92
-0.41142756 0.044877078 2.0131991 93
-0.48682278 0.052776605 1.6116779 37
-0.82264411 0.089059047 2.0089202 53
-1.0507638 0.11357983 2.0033376 79
-1.3743397 0.14856257 2.1028829 26
-1.6083148 0.17385903 2.0127425 76
-0.12414808 0.015009082 1.9960728 67
-0.21908665 0.027630303 2.0132346 113
-0.48972669 0.054037843 1.9331679 39
-0.50350904 0.055389296 1.4317083 46
-0.93249428 0.10227385 2.0026236 92
-1.1786654 0.12928003 2.0096743 87
-1.4497179 0.15901555 2.0052397 84
-1.7737528 0.19456294 2.0127058 83
-1.9507596 0.20881253 2.0077524 71
-2.3796721 0.25472835 2.011452 66
-3.07464 0.32966441 2.111989 16
-3.7104077 0.39783534 2.0390942 58
-4.7807779 0.51344681 2.0309861 41
-6.5921845 0.70915341 2.0375507 23
-9.8609371 1.0607902 1.9744322 26
-9.8778124 1.0643495 0.98312008 46
-2.1568034 0.23391761 2.0127075 75
-2.6386356 0.28664219 2.0161538 69
-3.2934542 0.35778078 2.0315762 64
-4.237772 0.46111485 2.0580471 59
-5.5684209 0.60688788 2.0375662 37
-6.4024401 0.69891655 1.6440736 2
-9.870182 1.0792142 1.4752812 52
-9.7931738 1.0725237 0.49108434 20
-0.031147957 0.0039252141 2.0041974 42
-0.31259418 0.035927452 2.0008237 93
-0.41126841 0.046312954 2.0131991 93
-0.4866356 0.054475605 1.6116779 37
-0.82232815 0.091930069 2.0089202 53
-1.0503609 0.11724699 2.0033376 81
-1.3738127 0.153359 2.1028829 26
-1.6076981 0.17947204 2.0127425 74
-0.12409493 0.015442348 1.9960728 69
-0.21898887 0.028394885 2.0132346 112
-0.48953509 0.055746976 1.9331679 39
-0.50502729 0.057341289 1.4364011 48
-0.93213159 0.10552824 2.0026236 92
-1.1807985 0.13368697 2.0139403 87
-1.449154 0.16407502 2.0052397 84
-1.7730629 0.2007533 2.0127058 83
-1.950019 0.2156207 2.0077524 73
-2.3787684 0.26303339 2.011452 66
-3.0734706 0.34039488 2.111989 17
-3.7089965 0.41078469 2.0390942 49
-4.7789564 0.53013164 2.0309861 40
-6.2988224 0.69984478 1.9515896 7
-9.8962307 1.0995445 1.9818932 14
-9.8888845 1.1004754 0.98445863 49
-2.1559737 0.24144483 2.0127075 75
-2.6416359 0.29630157 2.0190971 67
-3.2921851 0.36927491 2.0315762 65
-4.2361369 0.47590461 2.0580471 59
-5.5568824 0.62526542 2.0342808 32
-6.1294789 0.69077814 1.5784239 2
-9.8811178 1.1153272 1.4773506 24
-9.7893705 1.1067017 0.49108434 11
-0.031134065 0.0040339166 2.0041974 42
-0.31246686 0.037018392 2.0008237 95
-0.41110423 0.047748268 2.0131991 91
-0.48792616 0.056345351 1.6164496 38
-0.82200229 0.094799973 2.0089202 53
-1.0499452 0.12091272 2.0033376 81
-1.3732691 0.15815356 2.1028829 25
-1.6070619 0.18508285 2.0127425 74
-0.12432744 0.015912671 2.0010643 67
-0.21888842 0.029159129 2.0132346 112
-0.4893375 0.057455439 1.9331679 39
-0.5048241 0.059103813 1.4364011 48
-0.93175757 0.10878135 2.0026236 90
-1.1803247 0.13780792 2.0139403 87
-1.4485724 0.16913253 2.0052397 84
-1.7723514 0.20694123 2.0127058 85
-1.9492544 0.22242621 2.0077524 73
-2.377836 0.27133524 2.011452 66
-3.0722637 0.35112122 2.111989 17
-3.7075403 0.423729 2.0390942 49
-4.7816825 0.54733729 2.0328591 40
-5.8769259 0.67374456 1.8275805 4
-9.8728113 1.131844 1.9781626 8
-9.899826 1.1366917 0.98579729 41
-2.1551175 0.24896912 2.0127075 75
-2.6405857 0.3055208 2.0190971 69
-3.2908762 0.38076451 2.0315762 65
-4.2389584 0.49121106 2.0601451 59
-5.5265207 0.64139229 2.0244248 3
-8.0051689 0.93047428 2.0344553 2
-9.8820829 1.1503845 1.4780405 7
-9.7407875 1.1356593 0.4892706 20
-0.031119796 0.0041425703 2.0041974 42
-0.31233573 0.038108878 2.0008237 95
-0.41093504 0.049183 2.0131991 91
-0.48772645 0.058048189 1.6164496 38
-0.82166636 0.097668722 2.0089202 51
-1.0495168 0.12457697 2.0033376 83
-1.3727086 0.16294621 2.1028829 25
-1.606406 0.19069143 2.0127425 74
-0.12427112 0.016346557 2.0010643 66
-0.21878529 0.029923014 2.0132346 112
-0.49038267 0.059314303 1.9380071 39
-0.50461465 0.060865615 1.4364011 48
-0.93137223 0.11203313 2.0026236 92
-1.1798364 0.14192718 2.0139403 87
-1.4479733 0.17418794 2.0052397 87
-1.7716182 0.21312663 2.0127058 85
-1.9484661 0.22922903 2.0077524 73
-2.3807404 0.28008866 2.0145898 66
-3.0710192 0.36184326 2.111989 17
-3.7060382 0.43666813 2.0390942 54
-4.7797427 0.56402516 2.0328591 39
-5.6220374 0.66441405 1.7528931 3
-9.8834362 1.1680293 1.9809605 11
-9.9254713 1.1747535 0.98847455 7
-2.1542354 0.25649038 2.0127075 75
-2.639503 0.31473631 2.0190971 69
-3.2895269 0.39224949 2.0315762 66
-4.2372184 0.50600481 2.0601451 59
-5.5570712 0.66460508 2.0359235 3
-8.069438 0.96650457 2.050868 2
-9.9173431 1.1895909 1.483559 3
-9.7566051 1.1720375 0.49007672 5
-0.031105146 0.0042511737 2.0041974 42
-0.31220081 0.039198902 2.0008237 93
-0.41076085 0.050617129 2.0131991 95
-0.48752087 0.059750319 1.6164496 38
-0.82132041 0.10053627 2.0089202 51
-1.0490756 0.12823971 2.0033376 83
-1.3721313 0.16773687 2.1028829 26
-1.6057307 0.19629766 2.0127425 76
-0.12421332 0.016780246 2.0010643 66
-0.2186795 0.030686535 2.0132346 112
-0.49017262 0.061025698 1.9380071 39
-0.50439912 0.062626682 1.4364011 48
-0.93097538 0.11528353 2.0026236 93
-1.1793338 0.14604472 2.0139403 87
-1.4473563 0.17924125 2.0052397 84
-1.7708634 0.21930942 2.0127058 85
-1.947654 0.23602903 2.0077524 73
-2.3797483 0.28839728 2.0145898 66
-3.0697377 0.37256092 2.111989 17
-3.7044914 0.44960198 2.0390942 54
-4.7823472 0.58126551 2.0347321 39
-5.9054136 0.71881407 1.8374448 4
-9.8792982 1.2025218 1.9809605 8
-9.9213095 1.2093927 0.98847455 3
-2.1533272 0.26400849 2.0127075 75
-2.6383882 0.32394797 2.0190971 69
-3.2924168 0.40425512 2.0341086 64
-4.2399306 0.52134627 2.0622432 60
-5.5547175 0.68399876 2.0359235 35
-8.0418949 0.99169183 2.0450063 5
-9.8836412 1.22056 1.4794201 20
-9.7574129 1.2067004 0.49027824 3
-0.031046994 0.004353065 1.9991974 40
-0.31206208 0.040288448 2.0008237 93
-0.41058168 0.052050643 2.0131991 93
-0.48730937 0.061451726 1.6164496 38
-0.82096446 0.10340261 2.0089202 53
-1.0486215 0.13190089 2.0033376 81
-1.3715376 0.17252547 2.1028829 26
-1.6050357 0.20190151 2.0127425 74
-0.12415398 0.017213728 2.0010643 64
-0.21857105 0.031449679 2.0132346 112
-0.48995662 0.062736347 1.9380071 39
-0.50417751 0.064386986 1.4364011 48
-0.93056738 0.11853255 2.0026236 92
-1.1788168 0.15016049 2.0139403 85
-1.4467218 0.18429241 2.0052397 84
-1.7700872 0.22548957 2.0127058 85
-1.9468184 0.24282618 2.0077524 73
-2.3787272 0.29670238 2.0145898 66
-3.0725677 0.38379234 2.1147306 17
-3.7072959 0.46307942 2.0414124 56
-4.7802887 0.59795547 2.0347321 40
-6.4978824 0.81395811 2.0135944 12
-9.8799152 1.2376102 1.9818932 27
-9.9071455 1.2427775 0.98758215 3
-2.1523924 0.27152342 2.0127075 75
-2.6372416 0.33315569 2.0190971 69
-3.2909858 0.41574535 2.0341086 64
-4.2380848 0.53614318 2.0622432 57
-5.5850911 0.70753878 2.0474222 36
-8.0528498 1.0215923 2.0485234 16
-9.8842344 1.255677 1.4801099 25
-9.9266005 1.2628199 0.49733183 5
-0.031031612 0.0044614128 1.9991974 40
-0.31191951 0.041377503 2.0008237 95
-0.41039747 0.053483527 2.0131991 91
-0.48709187 0.063152373 1.6164496 38
-0.82059854 0.10626766 2.0089202 53
-1.0481547 0.13556045 2.0033376 81
-1.370927 0.17731199 2.1028829 25
-1.6043211 0.20750292 2.0127425 76
-0.12437975 0.017688252 2.0060561 62
-0.21845995 0.032212444 2.0132346 112
-0.48973465 0.064446233 1.9380071 39
-0.50394964 0.066146493 1.4364011 50
-0.9323073 0.12206285 2.0071244 93
-1.1756995 0.15393578 2.0096743 87
-1.4460697 0.18934125 2.0052397 82
-1.7692894 0.23166694 2.0127058 83
-1.9494962 0.25007412 2.0112567 73
-2.377677 0.30500388 2.0145898 66
-3.0712092 0.39451531 2.1147306 17
-3.7056565 0.47601753 2.0414124 59
-4.7781725 0.61463815 2.0347321 40
-6.5616131 0.84521544 2.033323 14
-9.8755341 1.2720901 1.9818932 20
-9.9027472 1.2773523 0.98758215 18
-2.1514316 0.27903497 2.0127075 75
-2.6360624 0.34235933 2.0190971 69
-3.2895143 0.42723051 2.0341086 66
-4.2406878 0.55151892 2.0643413 57
-5.5451236 0.72215116 2.0342808 12
nan nan nan 0
-9.8748798 1.2895305 1.4794201 26
-9.9270849 1.2981101 0.49753338 4
-0.031015851 0.0045697056 1.9991974 40
-0.31177321 0.042466052 2.0008237 93
-0.41020831 0.054915749 2.0131991 91
-0.48686844 0.06485226 1.6164496 38
-0.81828606 0.10887375 2.0043178 55
-1.0476751 0.13921838 2.0033376 79
-1.3702997 0.18209633 2.1028829 25
-1.603587 0.21310177 2.0127425 76
-0.12431724 0.01812231 2.0060561 60
-0.21834618 0.032974817 2.0132346 112
-0.49075314 0.066323861 1.9428463 38
-0.50200546 0.067674585 1.4317083 48
-0.93187547 0.12531647 2.0071244 92
-1.175155 0.15803879 2.0096743 87
-1.4454 0.19438782 2.0052397 82
-1.7684698 0.2378415 2.0127058 85
-1.9486114 0.2568776 2.0112567 73
-2.3765979 0.31330168 2.0145898 64
-3.0698135 0.40523338 2.1147306 17
-3.7039723 0.48894975 2.0414124 56
-4.7759976 0.63131332 2.0347321 40
-6.6252046 0.87692744 2.0530517 34
-9.8710337 1.3065542 1.9818932 19
-9.8932905 1.3112574 0.98713595 22
-2.1504443 0.28654319 2.0127075 75
-2.6348512 0.35155883 2.0190971 67
-3.288003 0.43871042 2.0341086 66
-4.2387371 0.56631833 2.0643413 58
-5.5332079 0.74025047 2.0309954 12
nan nan nan 0
-9.8703184 1.3239924 1.4794201 21
-9.8977365 1.3294289 0.4965257 10
-0.030999709 0.0046779434 1.9991974 40
-0.3108536 0.043446355 1.9958843 93
-0.41001412 0.056347311 2.0131991 91
-0.48663911 0.06655135 1.6164496 38
-0.81790102 0.11172944 2.0043178 55
-1.0471828 0.1428746 2.0033376 79
-1.3724439 0.18725891 2.1070161 26
-1.6028333 0.21869802 2.0127425 73
-0.12425323 0.018556146 2.0060561 56
-0.21822973 0.033736784 2.0132346 112
-0.49051869 0.068036497 1.9428463 38
-0.5017662 0.069426499 1.4317083 50
-0.93143237 0.12856857 2.0071244 92
-1.1745962 0.16213989 2.0096743 87
-1.4447126 0.19943203 2.0052397 84
-1.7676288 0.24401316 2.0127058 83
-1.9477029 0.26367801 2.0112567 75
-2.3754897 0.32159564 2.0145898 64
-3.0642366 0.41538483 2.111989 17
-3.7066336 0.50247121 2.0437305 55
-4.7737651 0.64798081 2.0347321 40
-6.6078424 0.89811015 2.0488243 29
-9.8712807 1.3416643 1.9828259 40
-9.8886528 1.3457832 0.98713595 20
-2.149431 0.29404792 2.0127075 73
-2.6336081 0.36075404 2.0190971 67
-3.2864518 0.45018506 2.0341086 64
-4.2412305 0.5817275 2.0664394 58
-5.5165548 0.75763285 2.0260673 6
-6.7560234 0.92906111 1.7355145 2
-9.8656368 1.3584383 1.4794201 20
-9.8930349 1.3639703 0.4965257 28
-0.030983191 0.0047861245 1.9991974 40
-0.31070003 0.044531174 1.9958843 93
-0.40981492 0.057778187 2.0131991 93
-0.48788288 0.068457231 1.6212213 38
-0.81557119 0.11431253 1.999715 56
-1.0466777 0.14652908 2.0033376 81
-1.3717819 0.19204848 2.1070161 27
-1.6020602 0.22429161 2.0127425 71
-0.1241877 0.018989759 2.0060561 53
-0.21811064 0.034498345 2.0132346 112
-0.49027821 0.06974832 1.9428463 38
-0.50152081 0.071177565 1.4317083 50
-0.93097788 0.13181908 2.0071244 92
-1.174023 0.16623901 2.0096743 85
-1.4440078 0.20447381 2.0052397 84
-1.7701231 0.2506572 2.016381 83
-1.9467705 0.27047512 2.0112567 75
-2.3743527 0.32988569 2.0145898 66
-3.062768 0.4260785 2.111989 16
-3.7048566 0.51540667 2.0437305 55
-4.7714739 0.66464043 2.0347321 12
-6.5381484 0.91189283 2.0290954 6
-9.8714027 1.3767918 1.9837584 80
-9.8888273 1.3809818 0.98758215 15
-2.1483915 0.30154902 2.0127075 75
-2.6323328 0.36994484 2.0190971 69
-3.2848601 0.46165416 2.0341086 64
-4.2391739 0.59652865 2.0664394 57
-5.5045242 0.77556688 2.0227818 2
-7.3110433 1.031401 1.8715032 5
-9.8657379 1.3935601 1.4801099 91
-9.8882151 1.3984952 0.4965257 26
-0.031009294 0.0049016578 2.0041974 40
-0.3105427 0.045615446 1.9958843 93
-0.40961075 0.059208352 2.0131991 93
-0.48764095 0.070159845 1.6212213 38
-0.81516725 0.1171587 1.999715 60
-1.0461597 0.15018177 2.0033376 81
-1.371103 0.19683574 2.1070161 28
-1.6012675 0.22988251 2.0127425 74
-0.12383465 0.019377893 2.0010643 47
-0.21798888 0.035259482 2.0132346 110
-0.49003175 0.071459286 1.9428463 38
-0.50126928 0.072927766 1.4317083 54
-0.92835695 0.13475513 2.0026236 92
-1.1734357 0.1703361 2.0096743 85
-1.4432852 0.20951308 2.0052397 82
-1.7692374 0.25683454 2.016381 83
-1.9458146 0.27726898 2.0112567 73
-2.3731866 0.33817169 2.0145898 64
-3.0571227 0.43617636 2.1092477 16
-3.7074211 0.52896166 2.0460486 55
-4.769125 0.68129194 2.0347321 12
-6.4446955 0.92180371 2.0023208 3
-9.8713999 1.4119366 1.9846911 69
-9.8839474 1.4154917 0.98758215 13
-2.1473258 0.30904648 2.0127075 75
-2.6350262 0.37970766 2.0220401 69
-3.2832289 0.47311765 2.0341086 64
-4.2415581 0.61197066 2.0685375 57
-5.5017829 0.7947765 2.0227818 2
-7.7547812 1.1216229 1.9805288 14
-9.8657131 1.428699 1.4807998 82
-9.888217 1.4337199 0.49672723 46
-0.030991994 0.005009871 2.0041974 40
-0.3111499 0.046814945 2.0008237 95
-0.40940157 0.060637802 2.0131991 93
-0.48739308 0.071861602 1.6212213 38
-0.81475329 0.12000346 1.999715 65
-1.0456293 0.15383263 2.0033376 79
-1.3704078 0.20162058 2.1070161 29
-1.6004553 0.23547056 2.0127425 76
-0.12376625 0.01981004 2.0010643 45
-0.21786448 0.03602019 2.0132346 108
-0.4910233 0.073355302 1.9476855 38
-0.50271851 0.074931554 1.4364011 54
-0.92788088 0.13799489 2.0026236 90
-1.1728338 0.17443112 2.0096743 85
-1.4425451 0.21454981 2.0052397 82
-1.76833 0.26300877 2.016381 85
-1.9448348 0.28405944 2.0112567 67
-2.3719919 0.34645364 2.0145898 66
-3.0555816 0.44684502 2.1092477 15
-3.7055519 0.54189974 2.0460486 58
-4.7713051 0.69860685 2.0366051 21
-6.4699173 0.94846934 2.0107758 2
-9.8712702 1.4470981 1.9856236 71
-9.8838711 1.4507077 0.98802829 13
-2.1499281 0.31708497 2.0160325 73
-2.6336844 0.38890329 2.0220401 69
-3.2815573 0.48457536 2.0341086 64
-4.2438865 0.62743652 2.0706356 58
-5.4522595 0.80706143 2.006355 3
-8.0344973 1.190727 2.0496957 31
-9.8655653 1.4638549 1.4814895 79
-9.883152 1.4682275 0.49672723 24
-0.030974317 0.0051180227 2.0041974 40
-0.31098458 0.047900777 2.0008237 92
-0.40918744 0.062066514 2.0131991 91
-0.48713925 0.073562488 1.6212213 38
-0.8143295 0.12284675 1.999715 69
-1.0450859 0.15748163 2.0033376 79
-1.3696955 0.20640296 2.1070161 28
-1.5996236 0.24105576 2.0127425 78
-0.12369635 0.02024194 2.0010643 44
-0.21773744 0.036780462 2.0132346 108
-0.49076426 0.075068839 1.9476855 38
-0.50245386 0.076685913 1.4364011 54
-0.92739356 0.14123295 2.0026236 93
-1.1722178 0.17852402 2.0096743 87
-1.4417872 0.21958394 2.0052397 82
-1.7674012 0.26917982 2.016381 85
-1.9438314 0.29084647 2.0112567 67
-2.3669181 0.35415521 2.011452 64
-3.0498676 0.45688879 2.1065061 15
-3.7036378 0.55483127 2.0460486 58
-4.7688375 0.71525753 2.0366051 45
-6.5994029 0.99099499 2.0502334 32
-9.8758755 1.4830055 1.9874889 73
-9.8836737 1.4859405 0.98847455 7
-2.148808 0.3245877 2.0160325 73
-2.6323111 0.39809418 2.0220401 69
-3.279846 0.4960272 2.0341086 64
-4.2461572 0.64292604 2.0727334 58
-5.4587479 0.8275041 2.0096405 25
-8.0495148 1.2216829 2.0543847 29
-9.8652916 1.4990273 1.4821793 78
-9.882905 1.5034683 0.49692875 19
-0.030956265 0.005226112 2.0041974 40
-0.31081548 0.048986021 2.0008237 92
-0.40896827 0.063494459 2.0131991 91
-0.48687953 0.075262472 1.6212213 38
-0.81389564 0.12568855 1.999715 68
-1.0445298 0.16112868 2.0033376 81
-1.3689668 0.21118283 2.1070161 28
-1.5987724 0.24663801 2.0127425 76
-0.12391046 0.020721838 2.0060561 40
-0.21760772 0.037540283 2.0132346 108
-0.49049923 0.076781467 1.9476855 38
-0.50218308 0.078439333 1.4364011 54
-0.92689484 0.14446929 2.0026236 92
-1.1715875 0.18261473 2.0096743 85
-1.441012 0.22461537 2.0052397 84
-1.7664509 0.27534756 2.016381 85
-1.9428043 0.29762992 2.0112567 73
-2.3656673 0.36241516 2.011452 62
-3.0482543 0.46753204 2.1065061 15
-3.7016788 0.56775594 2.0460486 53
-4.7663116 0.7318995 2.0366051 50
-6.5959034 1.0140251 2.0502334 31
-9.8803492 1.5189624 1.9893541 65
-9.8784266 1.520432 0.98847455 27
-2.1476622 0.33208647 2.0160325 75
-2.6309052 0.40728027 2.0220401 67
-3.2780943 0.50747299 2.0341086 64
-4.2483721 0.65843904 2.0748315 59
-5.5351582 0.85886329 2.0375662 28
-8.0403976 1.2490273 2.0532124 28
-9.8648911 1.5342155 1.4828691 69
-9.882534 1.5387257 0.4971303 97
-0.030937832 0.0053341379 2.0041974 40
-0.3106426 0.05007067 2.0008237 93
-0.40874413 0.06492164 2.0131991 87
-0.48808908 0.077194929 1.6259931 38
-0.81345201 0.1285288 1.999715 73
-1.043961 0.16477379 2.0033376 81
-1.3682213 0.21596013 2.1070161 27
-1.5979017 0.25221726 2.0127425 74
-0.12383737 0.02115424 2.0060561 40
-0.21747534 0.038299646 2.0132346 110
-0.49147019 0.078692093 1.9525248 38
-0.50190622 0.080191806 1.4364011 52
-0.92853558 0.14804682 2.0071244 92
-1.170943 0.18670322 2.0096743 87
-1.4431955 0.23011868 2.0092292 82
-1.765479 0.28151193 2.016381 85
-1.9417535 0.30440977 2.0112567 71
-2.364388 0.37067065 2.011452 62
-3.0466037 0.47816959 2.1065061 15
-3.6996741 0.58067381 2.0460486 53
-4.7683072 0.7492522 2.0384781 44
-6.5781064 1.0348065 2.0460057 21
-9.8798389 1.5542055 1.9902868 49
-9.8828983 1.5564543 0.98936695 75
-2.1464899 0.33958119 2.0160325 75
-2.6294677 0.41646132 2.0220401 69
-3.2763031 0.51891255 2.0341086 64
-4.2415657 0.6725539 2.0727334 59
-5.2429552 0.83227563 1.9357196 6
-8.031188 1.2763228 2.0520401 11
-9.8643675 1.5694191 1.483559 58
-9.8820372 1.5739988 0.49733183 89
-0.030919027 0.0054420982 2.0041974 40
-0.3104659 0.05115471 2.0008237 92
-0.40851504 0.066348031 2.0131991 87
-0.4878166 0.078898206 1.6259931 38
-0.81299841 0.1313675 1.999715 74
-1.0433794 0.16841689 2.0033376 81
-1.3674592 0.22073479 2.1070161 27
-1.5970116 0.25779343 2.0127425 74
-0.12376277 0.021586385 2.0060561 39
-0.21734034 0.039058544 2.0132346 109
-0.49119255 0.080407172 1.9525248 38
-0.50162327 0.081943296 1.4364011 50
-0.92801309 0.15128711 2.0071244 92
-1.170284 0.19078943 2.0096743 85
-1.4423834 0.23515494 2.0092292 82
-1.7644854 0.28767291 2.016381 85
-1.9406792 0.31118587 2.0112567 71
-2.3669233 0.379538 2.0145898 66
-3.0449159 0.4888013 2.1065061 13
-3.6976247 0.59358454 2.0460486 55
-4.7656631 0.76589215 2.0384781 44
-6.0723963 0.97698581 1.896631 2
-9.8792038 1.5894635 1.9912194 40
-9.8823204 1.5917345 0.98981321 63
-2.1452913 0.34707177 2.0160325 75
-2.6279979 0.42563736 2.0220401 69
-3.2744718 0.53034586 2.0341086 64
-4.2167921 0.68372369 2.0622432 39
-5.0535603 0.82030553 1.8700122 4
-8.0410767 1.3066882 2.0555573 6
-9.8490534 1.6022522 1.4821793 56
-9.886343 1.61009 0.4977349 86
-0.030899841 0.0055499929 2.0041974 40
-0.31028545 0.052238133 2.0008237 92
-0.40828094 0.06777361 2.0131991 91
-0.48753822 0.080600522 1.6259931 37
-0.81060737 0.13388619 1.9951125 77
-1.0427852 0.17205794 2.0033376 81
-1.3666803 0.22550677 2.1070161 26
-1.596102 0.26336649 2.0127425 76
-0.12368666 0.022018267 2.0060561 38
-0.21720266 0.039816964 2.0132346 108
-0.49090886 0.082121253 1.9525248 38
-0.50133413 0.083693795 1.4364011 46
-0.92747939 0.15452555 2.0071244 92
-1.169611 0.19487332 2.0096743 85
-1.4415538 0.24018838 2.0092292 80
-1.7634705 0.29383034 2.016381 85
-1.939581 0.31795824 2.0112567 71
-2.3655841 0.38779783 2.0145898 66
-3.0431912 0.49942708 2.1065061 13
-3.6955299 0.60648799 2.0460486 55
-4.7629604 0.78252274 2.0384781 42
nan nan nan 0
-9.8784418 1.6247357 1.9921521 25
-9.8963594 1.6294569 0.99159801 55
-2.1440668 0.35455811 2.0160325 75
-2.6264961 0.43480819 2.0220401 69
-3.2726004 0.54177266 2.0341086 64
-4.2009468 0.69621259 2.055949 13
-4.8922672 0.81166124 1.8141608 3
-8.0412617 1.3355453 2.0567296 3
-9.9069061 1.6471812 1.491147 50
-9.8412371 1.6380277 0.49612263 39
-0.03088028 0.0056578196 2.0041974 40
-0.31010124 0.053320911 2.0008237 92
-0.40804189 0.069198363 2.0131991 91
-0.48872659 0.082550667 1.6307648 37
-0.81013507 0.13671492 1.9951125 79
-1.0421782 0.17569691 2.0033376 81
-1.3658848 0.23027602 2.1070161 26
-1.5951729 0.26893634 2.0127425 76
-0.12360905 0.022449879 2.0060561 37
-0.21706235 0.040574897 2.0132346 108
-0.49061921 0.08383435 1.9525248 38
-0.49933788 0.085153103 1.4317083 48
-0.92693436 0.15776211 2.0071244 92
-1.1689236 0.19895484 2.0096743 87
-1.4407067 0.24521887 2.0092292 76
-1.7624342 0.29998422 2.016381 85
-1.9384594 0.3247267 2.0112567 71
-2.3642161 0.39605287 2.0145898 66
-3.0414295 0.51004678 2.1065061 13
-3.6933906 0.61938411 2.0460486 43
-4.7602005 0.79914379 2.0384781 42
-6.4533668 1.084552 2.0121851 4
-10.008351 1.682004 2.0182655 20
-10.087053 1.6970409 1.0094465 48
-2.1428161 0.36204013 2.0160325 75
-2.6249623 0.44397372 2.0220401 69
-3.2749403 0.55391181 2.0366411 64
-4.1671672 0.70556885 2.0412626 13
-5.005806 0.84846312 1.8552279 6
-8.0461349 1.3652326 2.0590742 9
-10.135446 1.721558 1.5242581 25
-9.8354588 1.67237 0.49612263 33
-0.030860342 0.0057655778 2.0041974 40
-0.30991322 0.054403037 2.0008237 92
-0.40779784 0.070622273 2.0131991 91
-0.48843548 0.08425615 1.6307648 38
-0.80965292 0.13954198 1.9951125 81
-1.0415585 0.1793337 2.0033376 81
-1.3650726 0.23504242 2.1070161 27
-1.5942245 0.27450287 2.0127425 76
-0.12352993 0.022881217 2.0060561 37
-0.21639504 0.041231748 2.0082631 108
-0.49032357 0.085546426 1.9525248 38
-0.49903759 0.086895593 1.4317083 44
-0.92637801 0.16099676 2.0071244 92
-1.168222 0.20303394 2.0096743 85
-1.4398419 0.25024641 2.0092292 74
-1.7613763 0.30613443 2.016381 83
-1.9373142 0.3314912 2.0112567 73
-2.3628192 0.40430313 2.0145898 66
-3.0396304 0.52066016 2.1065061 13
-3.691206 0.63227272 2.0460486 43
-4.7528129 0.81497163 2.0366051 48
nan nan nan 0
-10.133138 1.7393674 2.0434461 22
-10.139965 1.7423612 1.0148009 25
-2.1415393 0.36951774 2.0160325 75
-2.6233964 0.45313385 2.0220401 69
-3.2729864 0.5653401 2.0366411 64
-4.1646791 0.72011071 2.0412626 30
-5.5007129 0.95211256 2.0309954 22
-8.0413208 1.3933105 2.0590742 9
-10.119616 1.7552342 1.5228784 19
-9.7508049 1.6930176 0.49289814 30
-0.030840028 0.0058732647 2.0041974 40
-0.30972144 0.055484507 2.0008237 93
-0.40754884 0.072045319 2.0131991 91
-0.48813838 0.085960589 1.6307648 38
-0.80723679 0.14202876 1.99051 81
-1.0409263 0.18296833 2.0033376 81
-1.3642439 0.239806 2.1070161 27
-1.5932566 0.28006607 2.0127425 74
-0.12344931 0.023312278 2.0060561 37
-0.21624979 0.041986857 2.0082631 107
-0.490022 0.087257445 1.9525248 38
-0.49873126 0.088637032 1.4317083 46
-0.9258104 0.16422945 2.0071244 92
-1.1675062 0.20711054 2.0096743 85
-1.4389595 0.25527087 2.0092292 70
-1.7602971 0.31228092 2.016381 83
-1.9361452 0.33825168 2.0112567 73
-2.3613935 0.41254845 2.0145898 64
-3.0377944 0.53126734 2.1065061 13
-3.6889763 0.64515358 2.0460486 53
-4.7499385 0.8315571 2.0366051 39
-6.5637698 1.1502806 2.047415 25
-10.131843 1.775576 2.0443788 23
-10.114202 1.7743039 1.0130161 14
-2.1402364 0.37699088 2.0160325 75
-2.6217988 0.46228847 2.0220401 69
-3.2709932 0.57676148 2.0366411 66
-4.1621404 0.73464376 2.0412626 59
-5.1439238 0.90886098 1.9061513 6
-8.0364084 1.4213716 2.0590742 13
-10.132933 1.794001 1.5256377 23
-9.7399187 1.7261723 0.49269664 17
-0.030819338 0.0059808809 2.0041974 40
-0.30952588 0.056565296 2.0008237 93
-0.40729487 0.073467493 2.0131991 91
-0.48783535 0.087663993 1.6307648 38
-0.80673611 0.14484568 1.99051 83
-1.0402813 0.18660073 2.0033376 81
-1.3633984 0.24456663 2.1070161 28
-1.5922693 0.28562587 2.0127425 74
-0.12365143 0.023798255 2.0110476 36
-0.21610191 0.042741451 2.0082631 106
-0.49095196 0.089192316 1.957364 38
-0.49841878 0.09037739 1.4317083 46
-0.92523146 0.16746013 2.0071244 92
-1.1667762 0.21118465 2.0096743 85
-1.4380597 0.2602922 2.0092292 67
-1.7591962 0.3184236 2.016381 85
-1.9349526 0.34500802 2.0112567 73
-2.3599391 0.42078874 2.0145898 64
-3.0400381 0.54260272 2.1092477 13
-3.6867023 0.65802664 2.0460486 56
-4.7424426 0.84731698 2.0347321 26
-6.5644369 1.1740302 2.0488243 25
-10.13042 1.8117968 2.0453115 27
-10.044218 1.7981892 1.0072154 3
-2.1389072 0.38445941 2.0160325 75
-2.6201692 0.47143742 2.0220401 69
-3.2689602 0.58817589 2.0366411 64
-4.1595507 0.74916786 2.0412626 58
-5.0338268 0.90753955 1.8683696 5
-8.0361814 1.4502785 2.0602465 19
-10.116861 1.8275998 1.5242581 23
-9.7338343 1.7601604 0.49269664 8
-0.030798273 0.0060884245 2.0041974 40
-0.30932653 0.057645399 2.0008237 95
-0.40703595 0.074888773 2.0131991 91
-0.48752639 0.089366317 1.6307648 38
-0.80622554 0.14766084 1.99051 84
-1.0396235 0.19023085 2.0033376 79
-1.3625364 0.24932429 2.1070161 28
-1.5912626 0.29118219 2.0127425 74
-0.1235676 0.024229735 2.0110476 36
-0.21595141 0.043495528 2.0082631 105
-0.4906376 0.09090551 1.957364 38
-0.49810028 0.092116639 1.4317083 46
-0.92464131 0.17068878 2.0071244 92
-1.1660318 0.21525617 2.0096743 85
-1.4371424 0.26531038 2.0092292 61
-1.758074 0.3245624 2.016381 85
-1.9337366 0.35176015 2.0112567 73
-2.3584557 0.42902386 2.0145898 66
-3.0381253 0.55321109 2.1092477 13
-3.6800241 0.67009795 2.0437305 55
-4.7348957 0.86303473 2.0328591 26
-6.5697379 1.1986592 2.0516424 13
-10.133698 1.8489108 2.0471766 64
-10.047679 1.8350285 1.0081078 2
-2.1375523 0.39192322 2.0160325 75
-2.6185076 0.48058066 2.0220401 69
-3.2668869 0.59958309 2.0366411 64
-4.1569104 0.76368278 2.0412626 58
-5.4347062 0.99941337 2.0112832 13
-8.0310707 1.4783211 2.0602465 18
-10.129901 1.8664925 1.5270175 69
-10.08137 1.85937 0.50720686 11
-0.030776832 0.006195893 2.0041974 39
-0.30912343 0.058724802 2.0008237 93
-0.40677205 0.076309137 2.0131991 89
-0.48867953 0.091342039 1.6355366 38
-0.80570519 0.15047419 1.99051 86
-1.0413083 0.19429812 2.0077264 79
-1.3616579 0.25407892 2.1070161 26
-1.5933878 0.29732302 2.0165794 76
-0.12348228 0.024660919 2.0110476 35
-0.21632116 0.044356983 2.0132346 104
-0.49155325 0.092851147 1.9622031 38
-0.4977757 0.093854785 1.4317083 46
-0.92403984 0.17391531 2.0071244 92
-1.1652734 0.21932507 2.0096743 85
-1.4391695 0.27088284 2.0132186 55
-1.7569304 0.33069727 2.016381 83
-1.9324969 0.35850802 2.0112567 73
-2.3569438 0.43725383 2.0145898 66
-3.036176 0.56381279 2.1092477 13
-3.6776626 0.68293953 2.0437305 53
-4.7455282 0.88209897 2.0384781 35
-6.4570379 1.2014014 2.0192311 5
-10.13201 1.8851713 2.0481093 58
-9.7082939 1.808087 0.9777655 2
-2.1361713 0.39938229 2.0160325 75
-2.6168141 0.48971802 2.0220401 67
-3.2647743 0.61098301 2.0366411 64
-4.1542192 0.77818853 2.0412626 57
-5.4961662 1.0305623 2.0342808 21
-8.0306377 1.5072422 2.0614188 16
-10.12819 1.9027554 1.5277071 79
-10.089548 1.8973191 0.50781149 6
-0.030712401 0.006293932 1.9991974 39
-0.30891654 0.059803486 2.0008237 93
-0.4065032 0.07772857 2.0131991 91
-0.48835772 0.093047298 1.6355366 38
-0.80517507 0.1532857 1.99051 90
-1.0406238 0.1979318 2.0077264 81
-1.3607626 0.25883043 2.1070161 26
-1.5923402 0.30288318 2.0165794 74
-0.12339544 0.025091803 2.0110476 34
-0.21616502 0.045111813 2.0132346 105
-0.49122617 0.094566412 1.9622031 39
-0.4991397 0.095917493 1.4364011 50
-0.9234271 0.17713977 2.0071244 92
-1.1645006 0.22339129 2.0096743 87
-1.438215 0.27590486 2.0132186 51
-1.7557652 0.33682808 2.016381 85
-1.9312336 0.36525151 2.0112567 71
-2.3554032 0.44547844 2.0145898 66
-3.0341892 0.57440752 2.1092477 12
-3.6709032 0.69494867 2.0414124 35
-4.7333102 0.8969323 2.0347321 35
-6.4857974 1.2301911 2.0290954 4
-10.135021 1.9223579 2.0499744 54
-9.6823521 1.8382485 0.9759807 8
-2.1347642 0.40683651 2.0160325 75
-2.6150889 0.49884942 2.0220401 67
-3.2668567 0.62318337 2.0391736 64
-4.1514773 0.79268467 2.0412626 57
nan nan nan 0
-8.0301018 1.5361786 2.0625911 3
-10.131215 1.9399605 1.5290868 64
-10.058331 1.9278244 0.50680381 25
-0.030690242 0.0064011002 1.9991974 39
-0.3087059 0.06088144 2.0008237 93
-0.40622941 0.079147063 2.0131991 91
-0.48802999 0.094751418 1.6355366 38
-0.80271727 0.15572326 1.9859076 90
-1.0399265 0.20156305 2.0077264 79
-1.3598509 0.26357883 2.1070161 28
-1.5912733 0.30843961 2.0165794 73
-0.1233071 0.025522379 2.0110476 33
-0.21600623 0.045866095 2.0132346 106
-0.49212733 0.096522696 1.9670423 39
-0.49880186 0.09765923 1.4364011 50
-0.92280316 0.18036205 2.0071244 93
-1.1637138 0.22745481 2.0096743 85
-1.4372433 0.28092346 2.0132186 44
-1.7545788 0.34295478 2.016381 83
-1.929947 0.37199053 2.0112567 73
-2.3538339 0.45369762 2.0145898 66
-3.0321655 0.58499533 2.1092477 12
-3.6641047 0.70691901 2.0390942 14
-4.6482177 0.897627 2.0010173 12
-6.5238547 1.2610173 2.0417781 15
-10.137896 1.9595886 2.0518398 45
nan nan nan 0
-2.1333308 0.41428575 2.0160325 75
-2.6133316 0.50797474 2.0220401 69
-3.2646613 0.634583 2.0391736 66
-4.1531401 0.80803794 2.0433607 58
-4.4690547 0.87031239 1.6728901 2
-8.0294609 1.5651293 2.0637634 2
-10.129243 1.9762617 1.5297767 65
-10.051541 1.9629228 0.50680381 23
-0.030667713 0.0065081902 1.9991974 39
-0.30849153 0.061958656 2.0008237 95
-0.40595064 0.080564581 2.0131991 91
-0.48769626 0.096454382 1.6355366 38
-0.8002522 0.15814553 1.9813049 90
-1.0392165 0.20519182 2.0077264 79
-1.3589225 0.26832396 2.1070161 29
-1.590187 0.31399235 2.0165794 73
-0.12293402 0.025892492 2.0060561 31
-0.2158448 0.046619818 2.0132346 105
-0.49178743 0.098239951 1.9670423 39
-0.49845794 0.099399775 1.4364011 50
-0.92216796 0.18358213 2.0071244 93
-1.1629127 0.23151553 2.0096743 85
-1.436254 0.28593868 2.0132186 40
-1.7533709 0.34907728 2.016381 83
-1.9286367 0.37872505 2.0112567 73
-2.3522358 0.46191126 2.0145898 64
-3.0301051 0.59557605 2.1092477 12
-3.6616151 0.71970487 2.0390942 14
-4.6450562 0.91384679 2.0010173 12
-6.5382404 1.2874895 2.047415 15
-10.135814 1.9959136 2.0527723 21
-10.133457 1.9972869 1.0183706 55
-2.1318719 0.42172992 2.0160325 75
-2.6115425 0.5170939 2.0220401 67
-3.2624264 0.64597493 2.0391736 66
-4.1458426 0.82164788 2.0412626 59
-4.4242997 0.87763697 1.6581059 3
-8.0239477 1.5931479 2.0637634 13
-10.12714 2.0125725 1.5304664 71
-10.044627 1.9979973 0.50680381 23
-0.030644808 0.0066152005 1.9991974 39
-0.30827335 0.063035116 2.0008237 95
-0.40566695 0.081981122 2.0131991 89
-0.48735657 0.098156177 1.6355366 38
-0.79777998 0.16055247 1.9767023 89
-1.038494 0.20881812 2.0077264 79
-1.3579776 0.27306584 2.1070161 30
-1.5890813 0.31954122 2.0165794 76
-0.12284289 0.026321456 2.0060561 29
-0.21568075 0.047372974 2.0132346 104
-0.49144152 0.099956013 1.9670423 39
-0.49810791 0.10113912 1.4364011 50
-0.92152154 0.18679999 2.0071244 92
-1.1620976 0.23557344 2.0096743 87
-1.4352471 0.29095042 2.0132186 39
-1.7521418 0.35519558 2.016381 85
-1.927303 0.38545492 2.0112567 73
-2.3506093 0.4701193 2.0145898 64
-3.0280077 0.60614944 2.1092477 12
-3.6547368 0.73161238 2.0367765 31
-4.6554747 0.93278778 2.0066366 12
-6.5572252 1.315021 2.054461 14
-10.138418 2.0332141 2.0546377 14
-10.131306 2.033627 1.0188168 51
-2.1303868 0.429169 2.0160325 75
-2.6097214 0.52620673 2.0220401 67
-3.2643778 0.65821117 2.0417061 65
-4.1429491 0.83611459 2.0412626 59
-4.2360516 0.85567373 1.5923985 4
-8.0183392 1.621147 2.0637634 15
-10.124906 2.0488927 1.5311563 51
-10.052281 2.0360227 0.50740838 38
-0.030664012 0.0067320792 2.0041974 39
-0.30805147 0.064110801 2.0008237 93
-0.40537834 0.083396673 2.0131991 89
-0.48701096 0.099856764 1.6355366 38
-0.79147303 0.16215976 1.9628948 86
-1.0377587 0.21244188 2.0077264 83
-1.3570162 0.27780443 2.1070161 30
-1.5879561 0.32508621 2.0165794 76
-0.12275027 0.026750095 2.0060561 27
-0.21551409 0.04812555 2.0132346 103
-0.49108961 0.10167085 1.9670423 39
-0.49775183 0.10287722 1.4364011 50
-0.92086387 0.19001555 2.0071244 92
-1.1612681 0.23962848 2.0096743 87
-1.4342227 0.29595855 2.0132186 39
-1.7508912 0.36130956 2.016381 85
-1.9259458 0.39218014 2.0112567 69
-2.3489537 0.47832155 2.0145898 64
-3.0217764 0.61588037 2.1065061 12
-3.6521609 0.74436533 2.0367765 59
-4.5340886 0.92494041 1.9579377 9
-6.5525951 1.3379021 2.054461 12
-10.140884 2.0705566 2.0565028 17
-9.8362722 2.0101495 0.99249041 20
-2.1288757 0.4366028 2.0160325 73
-2.6078689 0.53531319 2.0220401 67
-3.2620606 0.66960204 2.0417061 65
-4.1355596 0.84965771 2.0391645 57
-4.2839208 0.88091815 1.610468 5
-8.0173922 1.6501062 2.0649357 13
-10.127394 2.0862212 1.5325359 22
nan nan nan 0
-0.030640326 0.0068390756 2.0041974 39
-0.30782577 0.065185718 2.0008237 92
-0.40508473 0.084811188 2.0131991 91
-0.48812151 0.10186131 1.6403083 38
-0.78325218 0.16332614 1.9444847 88
-1.0370108 0.21606302 2.0077264 83
-1.3560382 0.28253958 2.1070161 30
-1.5836732 0.32997328 2.0127425 74
-0.12293874 0.027241528 2.0110476 25
-0.21534477 0.048877541 2.0132346 102
-0.49196249 0.10364382 1.9718815 39
-0.49738967 0.10461407 1.4364011 52
-0.92019498 0.19322881 2.0071244 93
-1.1604247 0.24368061 2.0096743 87
-1.4331809 0.3009631 2.0132186 38
