# .PCD v0.7 - Point Cloud Data file format
VERSION 0.7
FIELDS x y z intensity
SIZE 4 4 4 4
TYPE F F F F
COUNT 1 1 1 1
WIDTH 1384
HEIGHT 1
VIEWPOINT 0 0 0 1 0 0 0
POINTS 1384
DATA ascii
1.3327981 -1.664191 1.979459 81
1.6158303 -2.018321 1.96612 75
2.0331442 -2.5386825 1.9961221 5
2.4286914 -3.0336678 1.8839087 4
2.4583287 -3.0717864 1.4576983 83
2.4535229 -3.0668781 1.0379856 82
2.4371634 -3.0475192 0.63577539 84
2.4455981 -3.0591609 0.25166565 87
0.019171203 -0.024805848 1.9991974 78
0.1936713 -0.24502215 1.9860058 99
0.26814786 -0.33765468 2.0964177 63
0.37728575 -0.47444597 1.9838723 62
0.51024956 -0.64144272 1.99051 93
0.65062189 -0.81763011 1.9813942 83
0.80991489 -1.0178213 1.9830275 40
0.99927467 -1.2557981 1.9973947 43
0.076445125 -0.098599315 1.9910811 89
0.1334303 -0.17393649 1.9983203 93
0.32779273 -0.41382259 2.0686657 60
0.44114023 -0.55654728 1.9854547 93
0.5775457 -0.7281341 1.9846202 92
0.72712642 -0.91672695 1.9840788 87
0.90067804 -1.1355418 1.9932711 57
1.0962249 -1.3820877 1.9906548 45
1.214301 -1.5227507 1.9937341 38
1.4605827 -1.8315983 1.9706609 71
1.7841628 -2.2381768 1.9612085 61
2.2211447 -2.7863631 1.9510094 71
2.4475758 -3.0715146 1.6751096 74
2.4452269 -3.0696661 1.2427642 78
2.4332001 -3.0545681 0.83290511 76
2.4350934 -3.0580397 0.4432061 80
1.3269809 -1.6688333 1.979459 81
1.6087753 -2.0239489 1.96612 75
2.0318737 -2.556242 2.0037196 6
2.4232032 -3.0496562 1.8881049 8
2.4382417 -3.0696821 1.4527702 85
2.4362204 -3.0682366 1.035641 80
2.4198196 -3.0486739 0.63439578 84
2.428159 -3.0602765 0.25126258 88
0.019084498 -0.024872616 1.9991974 78
0.19281484 -0.24569671 1.9860058 99
0.26696759 -0.33858863 2.0964177 59
0.37562734 -0.47576004 1.9838723 62
0.50800741 -0.64321983 1.99051 93
0.64776385 -0.81989622 1.9813942 83
0.80810159 -1.0228503 1.9871606 37
0.99488503 -1.2592785 1.9973947 43
0.076100484 -0.098865561 1.9910811 89
0.13282233 -0.17440118 1.9983203 93
0.32634622 -0.41496426 2.0686657 60
0.43919483 -0.55808383 1.9854547 93
0.57500041 -0.73014569 1.9846202 92
0.72392195 -0.91925949 1.9840788 87
0.89670879 -1.1386788 1.9932711 57
1.0913938 -1.3859059 1.9906548 45
1.2089783 -1.5269802 1.9937341 38
1.4541805 -1.8366855 1.9706609 62
1.7763393 -2.244391 1.9612085 74
2.2114048 -2.7940993 1.9510094 62
2.4282103 -3.0691326 1.6694906 74
2.4285452 -3.0706575 1.239946 79
2.4164286 -3.055337 0.83103991 76
2.418227 -3.058708 0.44231367 83
1.3211476 -1.673455 1.979459 81
1.6017003 -2.0295522 1.96612 77
2.0309508 -2.5734718 2.0113168 6
2.4125433 -3.0580959 1.8881049 13
2.4216633 -3.0707583 1.4494849 83
2.419477 -3.069088 1.0332963 81
2.3999674 -3.0454333 0.6323263 86
2.4081867 -3.0569601 0.25065798 91
0.018997559 -0.024939083 1.9991974 82
0.19195601 -0.24636824 1.9860058 99
0.26578405 -0.33951843 2.0964177 59
0.37396434 -0.47706833 1.9838723 64
0.50575906 -0.64498931 1.99051 93
0.644898 -0.82215238 1.9813942 81
0.80452633 -1.0256649 1.9871606 36
0.99048334 -1.2627437 1.9973947 43
0.075754911 -0.099130593 1.9910811 89
0.13221274 -0.17486376 1.9983203 93
0.32412165 -0.41510946 2.0638263 64
0.43724406 -0.55961347 1.9854547 93
0.57244825 -0.73214835 1.9846202 93
0.72070879 -0.92178082 1.9840788 87
0.89272857 -1.141802 1.9932711 57
1.0865495 -1.389707 1.9906548 45
1.2036407 -1.531191 1.9937341 38
1.4477605 -1.8417504 1.9706609 46
1.7684939 -2.2505779 1.9612085 74
2.2043753 -2.8052847 1.9533273 62
2.4117546 -3.0702989 1.6657444 75
2.4089234 -3.0677965 1.2357183 79
2.3996813 -3.0560262 0.82917464 77
2.4013855 -3.0592959 0.44142127 82
1.3152981 -1.6780565 1.979459 81
1.5921134 -2.031949 1.9631768 75
2.0299323 -2.5907261 2.018914 8
2.4018538 -3.0664988 1.8881049 13
2.4051068 -3.0717561 1.4461995 83
2.3997619 -3.0660319 1.0297794 79
2.3832192 -3.0459917 0.6309467 85
2.3913457 -3.0574772 0.25025493 92
0.018910389 -0.025005244 1.9991974 78
0.19109486 -0.24703678 1.9860058 99
0.2645973 -0.34044415 2.0964177 59
0.37229678 -0.47837079 1.9838723 64
0.50350457 -0.64675075 1.99051 95
0.6420241 -0.82439852 1.9813942 81
0.80094105 -1.0284669 1.9871606 35
0.98606938 -1.2661934 1.9973947 43
0.075408421 -0.099394433 1.9910811 89
0.13160156 -0.17532419 1.9983203 95
0.3226707 -0.41623834 2.0638263 64
0.43528798 -0.56113631 1.9854547 93
0.56988907 -0.73414212 1.9846202 93
0.71748674 -0.92429101 1.9840788 85
0.8887375 -1.1449113 1.9932711 57
1.0837708 -1.3961695 1.99433 45
1.1982886 -1.5353832 1.9937341 38
1.4389275 -1.8437239 1.9675231 32
1.7606274 -2.2567372 1.9612085 74
2.1945696 -2.8129623 1.9533273 74
2.3953209 -3.0713873 1.6619985 71
2.3923013 -3.06862 1.2328999 79
2.3799386 -3.0527623 0.8263768 79
2.3815084 -3.0558755 0.44008264 81
1.3094325 -1.6826375 1.979459 79
1.5850109 -2.0374944 1.9631768 75
2.0314653 -2.611408 2.0290439 10
2.3883491 -3.0712814 1.8860068 33
2.3885732 -3.0726762 1.4429142 83
2.3830798 -3.066714 1.0274347 80
2.3634584 -3.0425594 0.62887722 87
2.3745303 -3.057914 0.24985185 92
0.01882299 -0.025071103 1.9991974 78
0.19023138 -0.24770233 1.9860058 99
0.26340729 -0.34136567 2.0964177 59
0.37062469 -0.47966743 1.9838723 67
0.50124389 -0.64850438 1.99051 93
0.63914251 -0.82663453 1.9813942 83
0.79562491 -1.0290303 1.9830275 35
0.98164356 -1.2696277 1.9973947 43
0.075061008 -0.099657044 1.9910811 89
0.13098876 -0.17578249 1.9983203 93
0.32198289 -0.41835895 2.0686657 64
0.4333266 -0.56265235 1.9854547 93
0.56732297 -0.73612696 1.9846202 92
0.71425605 -0.92678982 1.9840788 85
0.88473558 -1.1480066 1.9932711 57
1.0788906 -1.3999441 1.99433 43
1.1929218 -1.5395566 1.9937341 38
1.432483 -1.8487355 1.9675231 32
1.7527391 -2.2628696 1.9612085 74
2.1847372 -2.8206058 1.9533273 70
2.3760707 -3.0687335 1.6563795 71
2.3757021 -3.0693641 1.2300816 79
2.3632543 -3.0532818 0.82451159 79
2.364732 -3.0562923 0.43919021 84
1.3035511 -1.687198 1.979459 81
1.577889 -2.0430145 1.9631768 75
2.0302429 -2.6287191 2.0366411 10
2.3720665 -3.0724144 1.8818107 37
2.3720624 -3.0735178 1.4396287 83
2.3664222 -3.0673168 1.0250901 80
2.3467751 -3.042948 0.62749761 87
2.3577409 -3.0582709 0.24944881 95
0.01873536 -0.025136653 1.9991974 78
0.18983655 -0.24898288 1.9909451 99
0.26221412 -0.34228307 2.0964177 59
0.36894807 -0.48095828 1.9838723 67
0.49897712 -0.65025008 1.99051 93
0.63625312 -0.82886046 1.9813942 83
0.79202807 -1.0318012 1.9830275 37
0.97720575 -1.2730465 1.9973947 43
0.074712686 -0.099918455 1.9910811 89
0.13069135 -0.17666832 2.0032918 93
0.32052058 -0.41948035 2.0686657 62
0.43135998 -0.56416154 1.9854547 93
0.56475002 -0.73810279 1.9846202 92
0.7110166 -0.92927742 1.9840788 85
0.88072294 -1.1510879 1.9932711 57
1.0739974 -1.4037017 1.99433 43
1.1875404 -1.5437113 1.9937341 38
1.426021 -1.8537245 1.9675231 32
1.7448295 -2.2689736 1.9612085 72
2.1748779 -2.8282146 1.9533273 68
2.3596933 -3.0696576 1.6526333 72
2.3591275 -3.0700307 1.2272632 80
2.3465958 -3.0537224 0.82264632 79
2.3479815 -3.0566297 0.43829781 86
1.2976537 -1.691738 1.979459 79
1.5707479 -2.0485101 1.9631768 75
2.031548 -2.6494753 2.0467708 9
2.3585663 -3.0770738 1.8797127 62
2.3555748 -3.0742822 1.4363434 82
2.3468342 -3.063982 1.0215732 81
2.3301177 -3.0432572 0.626118 88
2.3409781 -3.0585477 0.24904573 95
0.018647503 -0.025201898 1.9991974 78
0.18896626 -0.24964401 1.9909451 99
0.26101774 -0.34319627 2.0964177 59
0.36726698 -0.48224318 1.9838723 66
0.49670434 -0.65198785 1.99051 90
0.63335603 -0.83107644 1.9813942 81
0.78842163 -1.0345597 1.9830275 40
0.97275609 -1.2764499 1.9973947 45
0.074363448 -0.10017864 1.9910811 89
0.13007386 -0.17712343 2.0032918 91
0.31981447 -0.4215987 2.0735047 58
0.42938805 -0.56566375 1.9854547 91
0.56217003 -0.74006963 1.9846202 92
0.70776844 -0.93175364 1.9840788 85
0.87669951 -1.154155 1.9932711 57
1.0690908 -1.407442 1.99433 43
1.1799799 -1.5450128 1.9902295 39
1.4195416 -1.8586909 1.9675231 39
1.7368988 -2.2750506 1.9612085 72
2.1649926 -2.835789 1.9533273 66
2.343339 -3.0705054 1.6488873 72
2.3425772 -3.0706184 1.2244447 79
2.3299632 -3.0540838 0.82078111 80
2.3312578 -3.0568871 0.43740538 85
1.2894779 -1.6932861 1.9761342 81
1.5635875 -2.0539806 1.9631768 75
2.0248988 -2.6599808 2.0493033 7
2.342314 -3.0780647 1.8755165 76
2.3391109 -3.0749686 1.433058 84
2.3302402 -3.0644171 1.0192285 83
2.3134866 -3.0434878 0.62473834 88
2.3242426 -3.0587449 0.24864268 93
0.018559419 -0.025266837 1.9991974 80
0.18809371 -0.25030211 1.9909451 100
0.2598182 -0.3441053 2.0964177 61
0.36558139 -0.48352227 1.9838723 66
0.49442542 -0.6537177 1.99051 90
0.63045114 -0.83328217 1.9813942 81
0.78480554 -1.0373055 1.9830275 48
0.96829444 -1.2798376 1.9973947 43
0.074013308 -0.1004376 1.9910811 89
0.12945481 -0.17757641 2.0032918 91
0.31834087 -0.42271253 2.0735047 55
0.42741087 -0.56715918 1.9854547 91
0.55958331 -0.74202746 1.9846202 92
0.7045117 -0.93421859 1.9840788 85
0.87266535 -1.1572083 1.9932711 57
1.0641714 -1.4111652 1.99433 43
1.1745797 -1.5491225 1.9902295 39
1.4130449 -1.8636348 1.9675231 64
1.7264208 -2.2777672 1.9584669 71
2.1550806 -2.8433292 1.9533273 67
2.3270071 -3.0712757 1.6451411 70
2.3260517 -3.0711286 1.2216264 80
2.3133564 -3.0543668 0.81891584 80
2.3115547 -3.0530946 0.43606675 85
1.2835593 -1.697777 1.9761342 81
1.5564084 -2.0594258 1.9631768 75
2.0156012 -2.6670327 2.0493033 6
2.3260839 -3.0789795 1.8713205 79
2.3226714 -3.0755782 1.4297727 82
2.3136723 -3.064774 1.0168839 83
2.2968826 -3.0436385 0.62335867 90
2.307534 -3.0588629 0.24823961 93
0.018471107 -0.025331467 1.9991974 82
0.18721883 -0.25095713 1.9909451 100
0.25861543 -0.34501016 2.0964177 59
0.36389133 -0.48479542 1.9838723 67
0.4921405 -0.65543962 1.99051 93
0.62753868 -0.83547777 1.9813942 83
0.7811799 -1.0400387 1.9830275 70
0.96382117 -1.2832099 1.9973947 40
0.073662266 -0.10069535 1.9910811 89
0.12883416 -0.17802718 2.0032918 91
0.31761652 -0.42482862 2.0783441 53
0.42542854 -0.56864768 1.9854547 91
0.55698973 -0.74397624 1.9846202 92
0.70124632 -0.93667203 1.9840788 87
0.86862063 -1.1602474 1.9932711 57
1.059239 -1.4148713 1.99433 42
1.1670204 -1.5503638 1.986725 44
1.4065311 -1.8685559 1.9675231 71
1.7184594 -2.2837794 1.9584669 71
2.1451423 -2.8508346 1.9533273 67
2.3106987 -3.0719702 1.6413952 72
2.309551 -3.0715606 1.2188081 81
2.2967763 -3.0545709 0.81705064 81
2.294899 -3.0531831 0.43517432 85
1.2776252 -1.702247 1.9761342 81
1.5492101 -2.0648463 1.9631768 75
2.0062792 -2.6740522 2.0493033 6
2.309876 -3.0798187 1.8671243 79
2.3034225 -3.0723312 1.4248446 80
2.2971301 -3.0650527 1.0145392 81
2.2832751 -3.0476742 0.62266886 88
2.2908528 -3.0589015 0.24783656 90
0.018382574 -0.025395788 1.9991974 80
0.18634169 -0.25160912 1.9909451 99
0.25740954 -0.34591079 2.0964177 59
0.36308926 -0.48726037 1.9886441 64
0.48984957 -0.65715355 1.99051 93
0.62461847 -0.83766323 1.9813942 85
0.77754474 -1.0427592 1.9830275 78
0.95933598 -1.2865664 1.9973947 40
0.07348007 -0.10118645 1.9960728 89
0.12790097 -0.1780418 1.9983203 93
0.31688127 -0.42694482 2.0831835 45
0.42344099 -0.57012922 1.9854547 91
0.55438942 -0.74591595 1.9846202 90
0.69797254 -0.93911415 1.9840788 85
0.86456537 -1.1632724 1.9932711 57
1.0542939 -1.41856 1.99433 43
1.1594667 -1.5515712 1.9832203 48
1.4 -1.8734542 1.9675231 73
1.710477 -2.2897642 1.9584669 72
2.1378293 -2.8618543 1.9556454 67
2.2944136 -3.0725884 1.6376491 70
2.2902064 -3.0680707 1.2145804 80
2.2802231 -3.0546966 0.81518537 81
2.2782707 -3.0531926 0.43428192 85
1.2716755 -1.7066965 1.9761342 81
1.541993 -2.0702415 1.9631768 75
1.9866316 -2.6672089 2.0391736 7
2.2936902 -3.0805819 1.8629282 79
2.287045 -3.0727766 1.4215593 80
2.2806141 -3.0652533 1.0121946 81
2.2667122 -3.0476787 0.62128925 90
2.2742 -3.058861 0.24743348 90
0.018293813 -0.025459802 1.9991974 78
0.18546227 -0.25225803 1.9909451 99
0.25620052 -0.34680718 2.0964177 56
0.36227438 -0.48972556 1.9934158 47
0.48755273 -0.65885937 1.99051 93
0.62169063 -0.83983845 1.9813942 83
0.77390003 -1.045467 1.9830275 78
0.95483917 -1.2899072 1.9973947 43
0.073126413 -0.10144232 1.9960728 89
0.12727872 -0.17848717 1.9983203 93
0.31613505 -0.42906094 2.0880225 40
0.42144829 -0.57160383 1.9854547 91
0.55178225 -0.7478466 1.9846202 93
0.69469017 -0.94154483 1.9840788 87
0.8604995 -1.1662832 1.9932711 57
1.0493357 -1.4222317 1.99433 43
1.1519189 -1.552745 1.9797159 58
1.3934518 -1.8783296 1.9675231 71
1.7024738 -2.2957211 1.9584669 72
2.1278267 -2.8692994 1.9556454 68
2.2753923 -3.069406 1.63203 70
2.2737706 -3.0683377 1.211762 81
2.2636971 -3.054744 0.81332016 80
2.2616706 -3.0531232 0.43338948 83
1.2657102 -1.7111251 1.9761342 79
1.5347573 -2.0756116 1.9631768 75
1.96193 -2.6533284 2.0239789 10
2.2748301 -3.0776205 1.856634 78
2.2678859 -3.0693467 1.4166312 81
2.2641251 -3.0653758 1.00985 83
2.2501769 -3.0476046 0.61990964 90
2.2575748 -3.0587413 0.24703044 90
0.018204831 -0.025523504 1.9991974 78
0.18458062 -0.25290391 1.9909451 99
0.25498837 -0.34769937 2.0964177 56
0.36233065 -0.49339482 2.0029593 39
0.48524988 -0.66055727 1.99051 93
0.61875528 -0.84200341 1.9813942 83
0.77024603 -1.048162 1.9830275 78
0.95033079 -1.2932324 1.9973947 43
0.07277187 -0.10169697 1.9960728 89
0.12665491 -0.17893037 1.9983203 93
0.31463543 -0.43016186 2.0880225 42
0.41945043 -0.57307148 1.9854547 93
0.54916847 -0.74976814 1.9846202 93
0.69139928 -0.943964 1.9840788 87
0.85642314 -1.1692798 1.9932711 57
1.0443648 -1.4258859 1.99433 43
1.1443769 -1.5538849 1.9762113 64
1.3868867 -1.8831823 1.9675231 71
1.6944499 -2.3016496 1.9584669 72
2.1177981 -2.8767092 1.9556454 65
2.2591684 -3.0698624 1.6282839 73
2.2573602 -3.068527 1.2089436 82
2.2471981 -3.0547132 0.81145489 83
2.2450988 -3.0529752 0.43249705 85
1.2597296 -1.7155328 1.9761342 79
1.5275028 -2.0809562 1.9631768 75
1.9118387 -2.6045535 1.9834601 15
2.2587032 -3.0782244 1.852438 78
2.2515719 -3.0696285 1.4133458 82
2.2476628 -3.0654204 1.0075053 83
2.2365973 -3.0514462 0.61921978 92
2.240979 -3.058543 0.24662736 92
0.018115625 -0.025586896 1.9991974 82
0.18369669 -0.25354666 1.9909451 99
0.25377312 -0.34858736 2.0964177 55
0.36236578 -0.4970704 2.0125027 35
0.48294118 -0.66224706 1.99051 95
0.61581236 -0.84415817 1.9813942 83
0.76658255 -1.0508442 1.9830275 80
0.94581085 -1.2965418 1.9973947 43
0.07241644 -0.10195036 1.9960728 89
0.12602955 -0.17937139 1.9983203 93
0.31313196 -0.43125752 2.0880225 45
0.41744748 -0.57453215 1.9854547 91
0.54654795 -0.75168055 1.9846202 93
0.6881001 -0.94637167 1.9840788 85
0.85233647 -1.1722622 1.9932711 57
1.0373875 -1.4267806 1.9906548 45
1.1389459 -1.55787 1.9762113 64
1.3803047 -1.8880119 1.9675231 73
1.6864054 -2.3075504 1.9584669 72
2.1077435 -2.8840845 1.9556454 65
2.2429695 -3.0702429 1.6245378 73
2.240977 -3.0686398 1.2061253 83
2.2307274 -3.0546048 0.80958962 83
2.2314918 -3.0567713 0.43205085 86
1.2537336 -1.7199197 1.9761342 81
1.5202295 -2.0862753 1.9631768 73
1.872268 -2.5693994 1.9530709 27
2.239928 -3.0750844 1.8461437 79
2.2325041 -3.0660162 1.4084178 82
2.2312276 -3.0653882 1.0051607 84
2.2201049 -3.0512261 0.61784017 91
2.22735 -3.0623064 0.24642584 93
0.018026199 -0.025649974 1.9991974 78
0.18326405 -0.25481728 1.9958843 99
0.2525548 -0.34947106 2.0964177 55
0.36325508 -0.50196213 2.0268178 32
0.48062655 -0.66392881 1.99051 95
0.61286199 -0.84630257 1.9813942 83
0.76290977 -1.0535138 1.9830275 80
0.94127923 -1.2998354 1.9973947 43
0.07189367 -0.1019656 1.9910811 89
0.12540266 -0.17981021 1.9983203 93
0.31162468 -0.43234792 2.0880225 45
0.41543949 -0.57598585 1.9854547 93
0.54392076 -0.75358373 1.9846202 93
0.6847924 -0.94876784 1.9840788 87
0.84647536 -1.1727864 1.9892817 57
1.0324007 -1.430393 1.9906548 43
1.1335009 -1.5618362 1.9762113 64
1.373706 -1.8928186 1.9675231 71
1.6783402 -2.3134229 1.9584669 69
2.0950615 -2.8878381 1.9533273 63
2.2267954 -3.0705476 1.6207917 73
2.2246203 -3.0686753 1.2033068 84
2.2142849 -3.0544183 0.80772436 83
2.2149632 -3.0564768 0.43115842 87
1.2477224 -1.7242854 1.9761342 81
1.5129377 -2.0915694 1.9631768 73
1.8607608 -2.5724258 1.9505385 33
2.2238619 -3.0755291 1.8419477 80
2.2162549 -3.0661359 1.4051324 83
2.2148206 -3.0652783 1.0028161 85
2.2065413 -3.0549428 0.61715037 92
2.210798 -3.0619619 0.24602279 94
0.017936556 -0.025712742 1.9991974 78
0.18237345 -0.2554554 1.9958843 99
0.25133336 -0.3503505 2.0964177 50
0.3641147 -0.50686622 2.0411332 31
0.47830606 -0.66560251 1.99051 95
0.60990411 -0.84843677 1.9813942 83
0.76087016 -1.0584553 1.9871606 80
0.93673623 -1.3031131 1.9973947 42
0.071537308 -0.10221593 1.9910811 89
0.12477424 -0.18024686 1.9983203 95
0.31011361 -0.43343306 2.0880225 49
0.41342634 -0.57743245 1.9854547 93
0.54128695 -0.75547779 1.9846202 92
0.68147635 -0.95115244 1.9840788 85
0.84237635 -1.1757339 1.9892817 59
1.0274014 -1.433988 1.9906548 43
1.1280422 -1.5657833 1.9762113 52
1.3670903 -1.8976021 1.9675231 71
1.6702546 -2.3192675 1.9584669 69
2.0849686 -2.8951337 1.9533273 44
2.2106466 -3.0707772 1.6170458 74
2.2054887 -3.0647404 1.1990793 84
2.1978712 -3.0541551 0.80585915 82
2.1984644 -3.0561047 0.43026602 87
1.2416958 -1.7286303 1.9761342 81
1.5079851 -2.1001208 1.96612 75
1.8567994 -2.5859096 1.9556034 43
2.2078195 -3.0758989 1.8377515 81
2.2000325 -3.0661795 1.4018471 83
2.1984415 -3.0650914 1.0004715 84
2.1900928 -3.0545771 0.61577076 92
2.1942754 -3.0615389 0.24561971 93
0.017846692 -0.025775194 1.9991974 78
0.18148062 -0.25609046 1.9958843 98
0.2501089 -0.35122567 2.0964177 51
0.36494449 -0.51178235 2.0554483 31
0.47597978 -0.66726804 1.99051 95
0.60693878 -0.85056055 1.9813942 85
0.75717086 -1.0611048 1.9871606 80
0.93218184 -1.3063749 1.9973947 43
0.071180061 -0.10246502 1.9910811 89
0.1241443 -0.1806813 1.9983203 95
0.30859873 -0.43451294 2.0880225 49
0.41140825 -0.57887208 1.9854547 93
0.53864658 -0.75736266 1.9846202 93
0.67815214 -0.95352548 1.9840788 85
0.83652049 -1.1762111 1.9852921 63
1.0243546 -1.4403285 1.99433 43
1.1225698 -1.5697114 1.9762113 44
1.3604583 -1.9023627 1.9675231 73
1.6621486 -2.3250837 1.9584669 61
2.0748498 -2.9023941 1.9533273 18
2.1945233 -3.0709312 1.6132996 76
2.1892002 -3.0646131 1.1962608 85
2.1814859 -3.0538142 0.80399388 84
2.1848893 -3.0597076 0.42981982 87
1.2356542 -1.7329541 1.9761342 81
1.500645 -2.1053722 1.96612 75
1.8477616 -2.5923753 1.9556034 68
2.1944356 -3.0798905 1.8356537 81
2.1838369 -3.0661476 1.3985617 83
2.1820908 -3.0648274 0.9981268 85
2.1736741 -3.0541341 0.61439109 92
2.177783 -3.061038 0.24521667 94
0.017756611 -0.025837336 1.9991974 78
0.18058559 -0.25672236 1.9958843 98
0.24888137 -0.35209659 2.0964177 55
0.36488152 -0.51549131 2.0649917 32
0.47364768 -0.6689254 1.99051 95
0.60396606 -0.85267395 1.9813942 85
0.75346226 -1.0637413 1.9871606 80
0.927616 -1.309621 1.9973947 42
0.070821963 -0.10271286 1.9910811 89
0.12351286 -0.18111356 1.9983203 93
0.30708015 -0.43558747 2.0880225 49
0.40938509 -0.58030462 1.9854547 91
0.5359996 -0.7592383 1.9846202 95
0.67481959 -0.9558869 1.9840788 87
0.83240962 -1.1791239 1.9852921 70
1.0193206 -1.4438955 1.99433 43
1.1170837 -1.5736204 1.9762113 39
1.3538095 -1.9071 1.9675231 73
1.6540226 -2.3308716 1.9584669 61
2.0621426 -2.9060063 1.9510094 11
2.178426 -3.0710106 1.6095536 76
2.1729395 -3.0644097 1.1934425 84
2.1651301 -3.0533962 0.80212867 82
2.1684358 -3.0591896 0.42892739 88
1.2295976 -1.7372568 1.9761342 81
1.4932868 -2.1105976 1.96612 75
1.8411911 -2.6023288 1.9581357 69
2.1784303 -3.080121 1.8314574 81
2.1703944 -3.0698955 1.396919 83
2.1657686 -3.0644872 0.99578214 85
2.1572847 -3.0536137 0.61301148 93
2.1613207 -3.0604596 0.24481359 93
0.017666314 -0.025899161 1.9991974 78
0.17968838 -0.25735116 1.9958843 97
0.2476508 -0.35296321 2.0964177 57
0.36479706 -0.51920599 2.0745351 34
0.47130984 -0.67057467 1.99051 95
0.600986 -0.85477698 1.9813942 85
0.74812603 -1.0640628 1.9830275 80
0.9230389 -1.3128508 1.9973947 43
0.070462994 -0.10295945 1.9910811 91
0.12287989 -0.18154359 1.9983203 93
0.30555779 -0.43665677 2.0880225 49
0.40735695 -0.58173019 1.9854547 91
0.53334612 -0.76110464 1.9846202 93
0.66998219 -0.95610076 1.979813 87
0.82655913 -1.1795542 1.9813027 76
1.0142744 -1.4474447 1.99433 43
1.1115838 -1.5775101 1.9762113 39
1.3471441 -1.911814 1.9675231 73
1.6458762 -2.3366306 1.9584669 71
2.0494347 -2.9095647 1.9486914 11
2.1623547 -3.0710151 1.6058074 76
2.1594684 -3.068053 1.1920333 85
2.1488039 -3.0529013 0.8002634 82
2.1520126 -3.0585942 0.42803496 88
1.2213794 -1.738483 1.9728094 81
1.4859104 -2.115797 1.96612 77
1.8320961 -2.6087396 1.9581357 70
2.1624498 -3.0802774 1.8272614 82
2.1542401 -3.0697219 1.3936336 84
2.1494756 -3.06407 0.99343747 85
2.1409261 -3.0530162 0.61163187 93
2.1448894 -3.0598035 0.24441054 94
0.0175758 -0.025960669 1.9991974 82
0.17878896 -0.25797683 1.9958843 96
0.24583539 -0.35298991 2.0915227 52
0.36383674 -0.52170122 2.0793068 38
0.46896619 -0.67221582 1.99051 91
0.59799862 -0.85686964 1.9813942 83
0.74440724 -1.0666679 1.9830275 80
0.91845065 -1.316065 1.9973947 43
0.070103168 -0.10320478 1.9910811 91
0.12224545 -0.18197142 1.9983203 93
0.3040317 -0.43772069 2.0880225 51
0.40532383 -0.58314848 1.9854547 93
0.53068608 -0.76296169 1.9846202 93
0.66664064 -0.95843363 1.979813 87
0.82243657 -1.1824322 1.9813027 78
1.0092155 -1.4509763 1.99433 43
1.1060706 -1.5813806 1.9762113 39
1.3404626 -1.9165047 1.9675231 73
1.6377097 -2.3423615 1.9584669 71
2.0418046 -2.9203315 1.9510094 16
2.1463103 -3.0709448 1.6020615 75
2.1432507 -3.0677068 1.1892149 84
2.1325076 -3.0523298 0.7983982 83
2.1384718 -3.0620046 0.42758876 88
1.2153034 -1.7427356 1.9728094 81
1.4785159 -2.120971 1.96612 73
1.8229789 -2.615119 1.9581357 72
2.1464949 -3.0803595 1.8230652 81
2.1408122 -3.0733476 1.3919909 84
2.1332116 -3.0635762 0.9910928 86
2.1274271 -3.0564063 0.61094201 92
2.1313419 -3.0631711 0.24420899 94
0.017508902 -0.026058413 2.0041974 82
0.17788735 -0.25859937 1.9958843 95
0.24460171 -0.35384589 2.0915227 52
0.3620134 -0.52296817 2.0793068 39
0.46661687 -0.67384869 1.99051 91
0.5950039 -0.85895187 1.9813942 81
0.74067926 -1.0692599 1.9830275 80
0.91385108 -1.319263 1.9973947 43
0.069742493 -0.10344886 1.9910811 89
0.12160949 -0.18239704 1.9983203 93
0.30250189 -0.43877926 2.0880225 51
0.40328577 -0.5845598 1.9854547 91
0.52801955 -0.76480943 1.9846202 93
0.66329104 -0.96075481 1.979813 87
0.81659168 -1.1828154 1.9773132 72
1.0041445 -1.4544903 1.99433 43
1.1005437 -1.5852319 1.9762113 40
1.3337644 -1.9211721 1.9675231 73
1.6319076 -2.3514996 1.9612085 69
2.0467532 -2.9492788 1.9649175 24
2.1302927 -3.0707998 1.5983154 72
2.1270621 -3.0672853 1.1863965 82
2.1190407 -3.0557184 0.79746562 82
2.1220958 -3.0612648 0.42669633 88
1.2092127 -1.7469673 1.9728094 79
1.4688034 -2.1227953 1.9631768 71
1.8138391 -2.6214664 1.9581357 72
2.1305661 -3.0803683 1.8188692 81
2.1246998 -3.0730329 1.3887055 84
2.1197412 -3.0670054 0.98992056 86
2.1111152 -3.055665 0.6095624 92
2.1149583 -3.0623703 0.24380594 94
0.017417833 -0.026119372 2.0041974 82
0.17698358 -0.25921872 1.9958843 95
0.24336509 -0.35469759 2.0915227 54
0.36018574 -0.52422857 2.0793068 42
0.46426186 -0.67547339 1.99051 95
0.59200197 -0.86102349 1.9813942 83
0.73694235 -1.0718387 1.9830275 80
0.90924042 -1.3224449 1.9973947 42
0.069380969 -0.10369167 1.9910811 89
0.12097207 -0.18282041 1.9983203 93
0.30096844 -0.43983254 2.0880225 53
0.40124288 -0.58596396 1.9854547 93
0.5253467 -0.76664799 1.9846202 92
0.65993333 -0.96306425 1.979813 87
0.81245798 -1.1856587 1.9773132 61
0.99906129 -1.4579866 1.99433 45
1.0950035 -1.5890639 1.9762113 50
1.3248414 -1.9226109 1.9643854 73
1.6236894 -2.3571815 1.9612085 69
2.0490117 -2.9746475 1.9765077 12
2.1169314 -3.0743988 1.5964422 72
2.1109023 -3.0667882 1.1835781 84
2.1027911 -3.0550039 0.79560035 81
2.1085742 -3.0645511 0.42625013 88
1.2031074 -1.7511775 1.9728094 79
1.4613845 -2.1279092 1.9631768 67
1.8022369 -2.6242282 1.9556034 72
2.1146629 -3.080303 1.8146729 81
2.1112878 -3.0765374 1.3870629 84
2.1035235 -3.06637 0.98757589 86
2.0948348 -3.0548475 0.60818273 93
2.1014314 -3.0656137 0.24360442 94
0.017326556 -0.026180012 2.0041974 80
0.17607768 -0.25983492 1.9958843 95
0.24212547 -0.35554492 2.0915227 59
0.35835359 -0.52548265 2.0793068 40
0.46190119 -0.67708981 1.99051 95
0.58899283 -0.86308473 1.9813942 83
0.73319644 -1.0744046 1.9830275 80
0.90461868 -1.3256106 1.9973947 43
0.069178365 -0.10417471 1.9960728 89
0.12033317 -0.18324156 1.9983203 93
0.29943129 -0.44088042 2.0880225 56
0.39919505 -0.58736098 1.9854547 93
0.52266741 -0.76847708 1.9846202 92
0.65656763 -0.96536201 1.979813 87
0.80831438 -1.1884875 1.9773132 48
0.99396598 -1.4614651 1.99433 43
1.08945 -1.5928763 1.9762113 58
1.3181223 -1.9272237 1.9643854 73
1.6154513 -2.3628349 1.9612085 71
2.0536175 -3.0037246 1.9904157 12
2.1009555 -3.074115 1.5926963 77
2.0947716 -3.0662158 1.1807598 83
2.0893431 -3.0582695 0.79466772 82
2.0922468 -3.0636675 0.4253577 88
1.1969872 -1.7553664 1.9728094 81
1.4539479 -2.1329975 1.9631768 56
1.7930657 -2.6305032 1.9556034 72
2.1013422 -3.0839152 1.8125749 82
2.0952187 -3.076082 1.3837775 84
2.0900712 -3.0696762 0.98640358 87
2.0785859 -3.0539529 0.60680312 93
2.0850968 -3.0646696 0.24320135 93
0.017235063 -0.026240334 2.0041974 80
0.17516962 -0.26044798 1.9958843 96
0.24088292 -0.35638794 2.0915227 50
0.35651717 -0.52673036 2.0793068 40
0.45953488 -0.67869806 1.99051 93
0.58732009 -0.86711913 1.9857829 83
0.72944158 -1.0769575 1.9830275 74
0.89998597 -1.3287603 1.9973947 43
0.068814307 -0.10441556 1.9960728 89
0.1196928 -0.18366049 1.9983203 93
0.29789051 -0.44192296 2.0880225 53
0.39714229 -0.5887509 1.9854547 93
0.51998168 -0.77029693 1.9846202 93
0.65319389 -0.96764803 1.979813 87
0.80416077 -1.1913018 1.9773132 40
0.9869616 -1.4621158 1.9906548 45
1.0838832 -1.5966697 1.9762113 69
1.3113871 -1.9318131 1.9643854 71
1.6071937 -2.3684595 1.9612085 71
2.0555582 -3.0292041 2.0020061 13
2.0850072 -3.0737565 1.5889503 77
2.0813637 -3.0695384 1.1793505 83
2.0731413 -3.0574124 0.79280245 82
2.0759518 -3.0627077 0.42446527 88
1.1908526 -1.7595341 1.9728094 81
1.4464934 -2.1380596 1.9631768 42
1.7838726 -2.6367459 1.9556034 72
2.0854797 -3.0837126 1.8083789 82
2.0818238 -3.0794647 1.3821348 84
2.0739005 -3.0688984 0.98405892 88
2.0651407 -3.0570865 0.60611331 93
2.068795 -3.0636485 0.2427983 93
0.017120048 -0.026263455 1.9991974 82
0.17425941 -0.26105785 1.9958843 96
0.23963743 -0.35722661 2.0915227 52
0.35550919 -0.52921146 2.0840786 39
0.45716295 -0.68029797 1.99051 93
0.58428973 -0.86916399 1.9857829 83
0.72567797 -1.0794972 1.9830275 74
0.89534229 -1.3318938 1.9973947 42
0.068449415 -0.10465513 1.9960728 89
0.11905098 -0.18407717 1.9983203 91
0.29634613 -0.44296008 2.0880225 53
0.39508477 -0.59013361 1.9854547 91
0.5172897 -0.77210724 1.9846202 93
0.65126371 -0.97208881 1.9840788 87
0.80167508 -1.1966056 1.9813027 40
0.98185188 -1.465552 1.9906548 45
1.0783031 -1.6004434 1.9762113 73
1.3046355 -1.936379 1.9643854 73
1.5989164 -2.3740551 1.9612085 69
2.0573456 -3.0547338 2.0135961 13
2.0690868 -3.0733247 1.5852042 77
2.0652792 -3.068825 1.1765321 83
2.0597138 -3.0605552 0.79186988 82
2.0624683 -3.0658033 0.42401907 87
1.1847034 -1.7636802 1.9728094 81
1.4390213 -2.143096 1.9631768 39
1.7746577 -2.642957 1.9556034 72
2.069644 -3.0834367 1.8041826 80
2.0657995 -3.0788696 1.3788494 84
2.0604677 -3.0720825 0.98288661 88
2.0489416 -3.0560503 0.60473365 91
2.0553067 -3.0667009 0.24259675 94
0.017028267 -0.026323054 1.9991974 82
0.17334709 -0.26166454 1.9958843 96
0.238389 -0.35806093 2.0915227 52
0.35365975 -0.53044921 2.0840786 39
0.45478553 -0.68188965 1.99051 93
0.58125222 -0.8711983 1.9857829 85
0.72190529 -1.0820236 1.9830275 82
0.89068758 -1.335011 1.9973947 39
0.068083681 -0.10489342 1.9960728 89
0.11840771 -0.18449162 1.9983203 93
0.29479808 -0.44399184 2.0880225 53
0.39302242 -0.59150904 1.9854547 91
0.5145914 -0.7739082 1.9846202 92
0.64786655 -0.97435623 1.9840788 87
0.79749322 -1.1993967 1.9813027 46
0.97673011 -1.4689704 1.9906548 45
1.07271 -1.6041976 1.9762113 73
1.2978685 -1.9409212 1.9643854 73
1.5906197 -2.379622 1.9612085 71
2.05898 -3.0803125 2.0251863 14
2.0531952 -3.072819 1.5814581 77
2.0518899 -3.0720263 1.1751229 83
2.043561 -3.0595565 0.79000461 82
2.0462236 -3.0647008 0.42312667 88
1.1785399 -1.7678049 1.9728094 81
1.4315318 -2.1481061 1.9631768 40
1.7654213 -2.6491356 1.9556034 70
2.0538361 -3.0830882 1.7999867 80
2.0498044 -3.0782006 1.3755641 84
2.0443451 -3.0711639 0.980542 87
2.0327747 -3.0549378 0.60335404 91
2.0390556 -3.065537 0.2421937 95
0.016936278 -0.026382335 1.9991974 82
0.17243265 -0.26226804 1.9958843 96
0.23713768 -0.35889086 2.0915227 52
0.35180593 -0.53168046 2.0840786 38
0.4524025 -0.68347299 1.99051 93
0.57820761 -0.87322193 1.9857829 83
0.71812397 -1.084537 1.9830275 82
0.88602209 -1.3381119 1.9973947 39
0.06771712 -0.10513044 1.9960728 89
0.11776298 -0.18490382 1.9983203 93
0.29324648 -0.44501817 2.0880225 55
0.39000538 -0.59143674 1.980762 89
0.51188678 -0.77569973 1.9846202 92
0.64446145 -0.97661173 1.9840788 87
0.7933017 -1.2021731 1.9813027 53
0.97346377 -1.4752005 1.99433 45
1.0671039 -1.6079323 1.9762113 75
1.2910855 -1.9454397 1.9643854 73
1.5823035 -2.38516 1.9612085 71
2.0604606 -3.1059399 2.0367765 26
2.0373325 -3.0722401 1.5777119 75
2.0358529 -3.0711725 1.1723045 83
2.0301547 -3.0625765 0.78907198 83
2.0300117 -3.0635219 0.42223424 88
1.1723619 -1.7719079 1.9728094 81
1.4240248 -2.15309 1.9631768 52
1.7561634 -2.655282 1.9556034 70
2.0380554 -3.0826666 1.7957906 80
2.0338395 -3.0774574 1.3722787 85
2.0309329 -3.0742257 0.97936964 87
2.0193696 -3.0578825 0.60266423 91
2.0255902 -3.0684667 0.24199218 95
0.016844086 -0.026441293 1.9991974 78
0.17151612 -0.26286831 1.9958843 96
0.23588347 -0.35971645 2.0915227 54
0.3499479 -0.53290528 2.0840786 39
0.450014 -0.68504798 1.99051 93
0.57515597 -0.87523496 1.9857829 83
0.71433383 -1.0870372 1.9830275 80
0.88134581 -1.3411965 1.9973947 42
0.067349732 -0.10536617 1.9960728 89
0.11711685 -0.18531376 1.9983203 93
0.29169127 -0.44603908 2.0880225 53
0.38793847 -0.59279454 1.980762 81
0.50917602 -0.77748185 1.9846202 92
0.64104855 -0.97885543 1.9840788 85
0.78910059 -1.204935 1.9813027 61
0.96830851 -1.4785895 1.99433 43
1.0614847 -1.6116474 1.9762113 73
1.2842869 -1.9499346 1.9643854 73
1.5739682 -2.3906686 1.9612085 69
2.052042 -3.1168129 2.0390942 50
2.0240474 -3.0754607 1.575839 75
2.0224836 -3.0742526 1.1708953 83
2.0140524 -3.0614369 0.78720677 83
2.0165694 -3.0664284 0.42178801 88
1.1661696 -1.7759895 1.9728094 81
1.4165004 -2.1580477 1.9631768 67
1.746884 -2.661396 1.9556034 72
2.0223029 -3.0821729 1.7915945 80
2.0204949 -3.0805893 1.3706361 85
2.0148592 -3.0731664 0.97702503 86
2.0032542 -3.0566292 0.60128462 91
2.0093913 -3.0671604 0.2415891 95
0.016751684 -0.026499927 1.9991974 78
0.17059749 -0.26346543 1.9958843 97
0.23462638 -0.36053765 2.0915227 54
0.34808558 -0.53412354 2.0840786 39
0.44761997 -0.68661469 1.99051 95
0.57209736 -0.87723726 1.9857829 83
0.71053505 -1.0895239 1.9830275 80
0.87665886 -1.3442647 1.9973947 40
0.066981524 -0.10560063 1.9960728 89
0.11646926 -0.18572144 1.9983203 93
0.29013252 -0.44705456 2.0880225 53
0.38586685 -0.59414506 1.980762 71
0.506459 -0.7792545 1.9846202 93
0.63762778 -0.98108715 1.9840788 85
0.78324723 -1.2051549 1.9773132 80
0.96314132 -1.4819607 1.99433 43
1.0558524 -1.6153429 1.9762113 71
1.2774724 -1.9544058 1.9643854 73
1.5656136 -2.3961482 1.9612085 69
2.0363038 -3.1165397 2.0344584 81
2.0082295 -3.0747445 1.5720929 76
2.0064948 -3.0732601 1.168077 83
2.000668 -3.0643356 0.78627414 85
2.0004096 -3.0651076 0.42089561 88
1.1599631 -1.7800493 1.9728094 81
1.4067526 -2.1595919 1.9602337 73
1.7399364 -2.6710899 1.9581357 72
2.0065787 -3.0816064 1.7873983 81
2.0045772 -3.0797079 1.3673507 87
1.9988179 -3.0720327 0.97468042 86
1.9898723 -3.0594513 0.60059476 90
1.9959493 -3.0699673 0.24138758 96
0.016659081 -0.026558239 1.9991974 82
0.16967678 -0.26405933 1.9958843 93
0.23336644 -0.36135444 2.0915227 56
0.34621903 -0.5353353 2.0840786 38
0.4452205 -0.688173 1.99051 95
0.56903172 -0.87922889 1.9857829 83
0.70672756 -1.0919975 1.9830275 80
0.87196118 -1.3473167 1.9973947 40
0.066612497 -0.1058338 1.9960728 89
0.11582026 -0.18612687 1.9983203 93
0.28857026 -0.4480646 2.0880225 55
0.38379058 -0.59548837 1.980762 54
0.50373578 -0.7810176 1.9846202 93
0.63419926 -0.98330683 1.9840788 85
0.77903569 -1.2078816 1.9773132 84
0.95796245 -1.4853134 1.99433 43
1.0502074 -1.6190187 1.9762113 71
1.2706424 -1.958853 1.9643854 75
1.55724 -2.4015987 1.9612085 69
2.0205917 -3.116194 2.0298221 80
1.9924414 -3.0739553 1.5683469 76
1.9931462 -3.0762188 1.1666677 84
1.9846171 -3.0630553 0.78440887 83
1.9842836 -3.0637119 0.42000318 90
1.1537426 -1.7840875 1.9728094 81
1.3992057 -2.1644893 1.9602337 73
1.730602 -2.6771469 1.9581357 73
1.9908832 -3.0809681 1.7832023 81
1.9886899 -3.0787523 1.3640653 85
1.9828092 -3.0708244 0.97233576 84
1.9738096 -3.0580575 0.59921515 90
1.979804 -3.0685201 0.2409845 96
0.016588811 -0.026653592 2.0041974 82
0.16875401 -0.26465002 1.9958843 93
0.23210368 -0.36216682 2.0915227 59
0.34434825 -0.53654063 2.0840786 38
0.44281563 -0.6897229 1.99051 95
0.56595916 -0.88120979 1.9857829 83
0.7029115 -1.0944577 1.9830275 80
0.86725283 -1.3503523 1.9973947 40
0.066242665 -0.10606567 1.9960728 89
0.11516986 -0.18653002 1.9983203 91
0.28700447 -0.44906914 2.0880225 53
0.38170958 -0.59682447 1.980762 46
0.50100648 -0.78277123 1.9846202 93
0.63076299 -0.98551464 1.9840788 85
0.77481461 -1.2105936 1.9773132 84
0.95277184 -1.4886484 1.99433 43
1.0445496 -1.6226747 1.9762113 75
1.2637972 -1.9632765 1.9643854 73
1.5488472 -2.4070199 1.9612085 69
2.0073047 -3.119503 2.0275044 78
1.9766833 -3.0730934 1.5646008 77
1.9772071 -3.0750873 1.1638494 82
1.9712565 -3.0658326 0.78347629 85
1.9708847 -3.0664306 0.41955698 88
1.1475079 -1.7881041 1.9728094 81
1.3916415 -2.1693602 1.9602337 73
1.7212464 -2.6831715 1.9581357 72
1.9752166 -3.0802579 1.7790061 82
1.9728339 -3.077724 1.36078 85
1.9694557 -3.0736344 0.97116345 84
1.960452 -3.0607586 0.59852535 91
1.9663868 -3.0712044 0.24078298 95
0.016495671 -0.026711334 2.0041974 82
0.16782917 -0.26523745 1.9958843 95
0.23083805 -0.36297479 2.0915227 57
0.34247327 -0.53773934 2.0840786 38
0.44040537 -0.69126445 1.99051 95
0.56287968 -0.88318002 1.9857829 83
0.69908679 -1.0969048 1.9830275 80
0.86253387 -1.3533714 1.9973947 40
0.065872021 -0.10629626 1.9960728 89
0.11451805 -0.18693091 1.9983203 93
0.28543517 -0.45006824 2.0880225 53
0.37962392 -0.59815323 1.980762 42
0.49827102 -0.78451526 1.9846202 92
0.62731904 -0.98771036 1.9840788 85
0.77058411 -1.2132907 1.9773132 84
0.94756973 -1.4919652 1.99433 43
1.038879 -1.6263109 1.9762113 77
1.2569363 -1.967676 1.9643854 73
1.5404358 -2.4124117 1.9612085 67
1.9940192 -3.122757 2.0251863 75
1.9634496 -3.0760667 1.5627277 77
1.9613 -3.0738819 1.161031 83
1.9552583 -3.0644128 0.78161103 85
1.9548128 -3.0648937 0.41866457 88
1.1412592 -1.7920985 1.9728094 81
1.3840606 -2.1742046 1.9602337 73
1.7118698 -2.6891634 1.9581357 70
1.9620161 -3.0833046 1.776908 80
1.9544747 -3.0726376 1.3558519 82
1.9534985 -3.0722868 0.96881884 84
1.9470994 -3.0634036 0.59783548 91
1.9502962 -3.0696161 0.24037993 95
0.01640233 -0.026768751 2.0041974 82
0.1669023 -0.26582167 1.9958843 95
0.22956963 -0.36377838 2.0915227 52
0.34059411 -0.53893155 2.0840786 39
0.43798971 -0.69279754 1.99051 93
0.55979341 -0.88513947 1.9857829 83
0.69525367 -1.0993383 1.9830275 80
0.85780448 -1.3563738 1.9973947 40
0.06550058 -0.10652555 1.9960728 91
0.11386483 -0.1873295 1.9983203 93
0.28386241 -0.45106184 2.0880225 53
0.37845322 -0.60093486 1.9854547 42
0.49552953 -0.78624976 1.9846202 92
0.62386751 -0.98989415 1.9840788 85
0.76634431 -1.2159733 1.9773132 84
0.94235605 -1.4952637 1.99433 45
1.0331959 -1.6299274 1.9762113 77
1.2500602 -1.9720515 1.9643854 73
1.5320057 -2.417774 1.9612085 63
1.9499094 -3.0773072 1.9927338 50
1.947739 -3.0750687 1.5589817 76
1.9454257 -3.072603 1.1582125 82
1.9419217 -3.0670686 0.78067839 83
1.9387759 -3.063283 0.41777214 87
1.1349967 -1.7960715 1.9728094 81
1.3764628 -2.1790228 1.9602337 73
1.7024724 -2.6951227 1.9581357 70
1.9463952 -3.0824599 1.772712 80
1.9412168 -3.0754476 1.3542092 83
1.9375751 -3.0708656 0.96647424 83
1.9311109 -3.0618043 0.59645587 91
1.9342403 -3.0679531 0.23997685 94
0.016286645 -0.02678825 1.9991974 82
0.1659734 -0.26640266 1.9958843 96
0.22829841 -0.36457753 2.0915227 50
0.33871081 -0.54011708 2.0840786 38
0.43556875 -0.69432211 1.99051 95
0.55670029 -0.88708812 1.9857829 83
0.69141197 -1.1017586 1.9830275 80
0.85136044 -1.3566443 1.9935577 42
0.065128341 -0.10675354 1.9960728 89
0.11321024 -0.18772584 1.9983203 91
0.28228617 -0.45204997 2.0880225 53
0.37635326 -0.6022523 1.9854547 40
0.492782 -0.78797477 1.9846202 92
0.6204083 -0.99206585 1.9840788 85
0.76209509 -1.2186409 1.9773132 87
0.93713081 -1.498544 1.99433 43
1.0274999 -1.6335239 1.9762113 75
1.2431687 -1.976403 1.9643854 73
1.5235566 -2.4231069 1.9612085 63
1.906142 -3.0315888 1.9602815 30
1.9345262 -3.0779243 1.5571086 76
1.9295843 -3.0712507 1.1553942 81
1.9233642 -3.0613503 0.77788055 82
1.9280711 -3.0700319 0.41777214 87
1.1287203 -1.8000224 1.9728094 81
1.3688482 -2.1838143 1.9602337 75
1.6930543 -2.7010491 1.9581357 70
1.9332136 -3.0853891 1.7706139 80
1.9229496 -3.0701985 1.3492812 81
1.9242646 -3.0734906 0.96530187 83
1.9177842 -3.0643291 0.59576607 90
1.9182202 -3.0662153 0.23957381 94
0.016193036 -0.026844937 1.9991974 80
0.16504246 -0.26698041 1.9958843 96
0.22702441 -0.36537221 2.0915227 50
0.33682337 -0.54129612 2.0840786 38
0.43314242 -0.69583833 1.99051 95
0.55360037 -0.88902599 1.9857829 83
0.68756193 -1.1041653 1.9830275 80
0.84661973 -1.3596079 1.9935577 50
0.064755298 -0.10698023 1.9960728 89
0.11255426 -0.18811986 1.9983203 91
0.28070652 -0.45303258 2.0880225 53
0.37424874 -0.60356236 1.9854547 40
0.49002844 -0.78969008 1.9846202 93
0.61694157 -0.99422538 1.9840788 85
0.75942576 -1.2238547 1.9813027 87
0.93189424 -1.501806 1.99433 43
1.0217916 -1.6371006 1.9762113 75
1.2342011 -1.977428 1.9612476 73
1.515089 -2.4284105 1.9612085 69
1.8908579 -3.0307062 1.9556454 30
1.9213173 -3.0807245 1.5552356 76
1.913776 -3.0698254 1.1525757 80
1.90487 -3.0555396 0.77508271 76
1.9120753 -3.06829 0.41687971 87
1.1224301 -1.8039514 1.9728094 81
1.3612169 -2.1885791 1.9602337 73
1.6836157 -2.7069423 1.9581357 70
1.9224318 -3.0921187 1.7706139 81
1.9122206 -3.0768919 1.3492812 81
1.9083945 -3.0719311 0.9629572 83
1.8992383 -3.0583835 0.59369665 86
1.9022356 -3.0644031 0.23917073 89
0.016099233 -0.026901297 1.9991974 80
0.16410953 -0.26755485 1.9958843 96
0.22521335 -0.36529565 2.0866275 50
0.33493185 -0.54246861 2.0840786 39
0.43071088 -0.69734609 1.99051 95
0.55049372 -0.89095294 1.9857829 83
0.68370348 -1.1065587 1.9830275 80
0.84018368 -1.3598275 1.9897208 57
0.064381473 -0.10720561 1.9960728 89
0.11189691 -0.1885116 1.9983203 93
0.27912346 -0.45400965 2.0880225 53
0.3721396 -0.60486507 1.9854547 39
0.48726895 -0.79139572 1.9846202 93
0.6134674 -0.99637288 1.9840788 87
0.75514913 -1.2264981 1.9813027 87
0.92664629 -1.5050498 1.99433 43
1.0141932 -1.6376253 1.9727067 77
1.227291 -1.9817241 1.9612476 73
1.5066031 -2.4336843 1.9612085 69
1.868608 -3.0184543 1.9440553 30
1.9105519 -3.0874124 1.5552356 74
1.8954777 -3.0642478 1.1483482 73
1.8916085 -3.0579929 0.77415007 69
1.9065914 -3.0834174 0.41777214 74
1.1161263 -1.8078583 1.9728094 79
1.3535691 -2.1933174 1.9602337 73
1.6741565 -2.7128029 1.9581357 72
1.9116268 -3.0988104 1.7706139 80
1.8915538 -3.0674696 1.3427104 75
1.8925589 -3.0702987 0.9606126 62
1.8781598 -3.0481298 0.59093738 34
1.9020075 -3.0880399 0.23997685 84
0.016026981 -0.026995156 2.0041974 82
0.1631746 -0.2681261 1.9958843 96
0.2234056 -0.36521095 2.0817323 48
0.33303627 -0.54363441 2.0840786 39
0.42827407 -0.69884527 1.99051 93
0.54738039 -0.89286911 1.9857829 85
0.67983669 -1.1089385 1.9830275 82
0.83543181 -1.3627522 1.9897208 66
0.064006865 -0.10742969 1.9960728 89
0.11123821 -0.18890105 1.9983203 93
0.27753693 -0.45498121 2.0880225 53
0.37002596 -0.6061604 1.9854547 39
0.48450348 -0.79309183 1.9846202 92
0.61134529 -1.000734 1.9883448 87
0.75086325 -1.2291267 1.9813027 87
0.92138708 -1.5082753 1.99433 47
1.0084707 -1.6411556 1.9727067 77
1.2203661 -1.9859961 1.9612476 73
1.4980989 -2.4389284 1.9612085 67
1.8626977 -3.0325081 1.9486914 56
1.8997631 -3.0940626 1.5552356 66
nan nan nan 0
nan nan nan 0
1.8984209 -3.0942984 0.41821834 16
1.109809 -1.8117435 1.9728094 79
1.3459048 -2.1980288 1.9602337 75
1.6646769 -2.7186303 1.9581357 72
1.9007981 -3.1054642 1.7706139 76
1.9030169 -3.1103082 1.3574946 15
nan nan nan 0
nan nan nan 0
1.8938216 -3.098923 0.24017838 80
0.015932653 -0.027050935 2.0041974 84
0.16223766 -0.26869401 1.9958843 96
0.22160119 -0.36511806 2.0768371 44
0.33113658 -0.54479367 2.0840786 39
0.42583203 -0.70033598 1.99051 93
0.5430153 -0.89272743 1.9813942 85
0.67596167 -1.1113048 1.9830275 82
0.82900381 -1.362921 1.9858838 68
0.063631475 -0.10765246 1.9960728 89
0.11057814 -0.18928818 1.9983203 93
0.27594706 -0.45594725 2.0880225 55
0.36790779 -0.60744834 1.9854547 39
0.4817321 -0.79477823 1.9846202 90
0.60784829 -1.0028619 1.9883448 87
0.74656814 -1.2317401 1.9813027 87
0.9161166 -1.5114822 1.99433 47
1.0027357 -1.6446658 1.9727067 75
1.2134262 -1.9902439 1.9612476 73
1.4895762 -2.4441428 1.9612085 69
1.8521008 -3.0389919 1.9486914 64
1.891363 -3.1046343 1.5571086 64
3.1989663 -5.2531052 1.896631 10
3.7940824 -6.2303615 1.476413 28
1.890198 -3.1051602 0.41866457 16
1.1034781 -1.8156062 1.9728094 81
1.3382239 -2.2027135 1.9602337 75
1.6551769 -2.7244246 1.9581357 69
1.8923022 -3.1159596 1.772712 75
1.906852 -3.1411533 1.3673507 15
3.8025944 -6.2664766 1.8586078 33
nan nan nan 0
1.8855832 -3.109787 0.24037993 83
0.015838131 -0.027106386 2.0041974 84
0.16129875 -0.26925871 1.9958843 96
0.21822464 -0.36240011 2.057256 40
0.32846162 -0.54466712 2.0793068 39
0.42338482 -0.70181817 1.99051 95
0.53989583 -0.8946175 1.9813942 83
0.67207837 -1.1136575 1.9830275 84
0.82424128 -1.3658063 1.9858838 55
0.06325531 -0.10787392 1.9960728 88
0.10991673 -0.18967304 1.9983203 95
0.2743538 -0.45690769 2.0880225 55
0.36578518 -0.60872883 1.9854547 39
0.47895491 -0.79645491 1.9846202 92
0.60434401 -1.0049775 1.9883448 87
0.74226409 -1.2343386 1.9813027 89
0.91083491 -1.514671 1.99433 45
0.99698865 -1.6481559 1.9727067 75
1.2064716 -1.9944674 1.9612476 73
1.4810356 -2.4493277 1.9612085 67
1.8414816 -3.0454385 1.9486914 64
1.8805145 -3.1112177 1.5571086 69
3.1880527 -5.2765574 1.9008586 9
3.7621505 -6.2267499 1.4726826 27
1.8844965 -3.1202652 0.41955698 18
1.0971336 -1.8194472 1.9728094 81
1.3305268 -2.2073715 1.9602337 73
1.6456567 -2.7301857 1.9581357 69
1.8814139 -3.122546 1.772712 75
1.8934391 -3.1437449 1.365708 12
3.7681625 -6.2588916 1.8527462 35
nan nan nan 0
1.8798672 -3.1249118 0.24078298 84
0.015743416 -0.027161505 2.0041974 82
0.16035788 -0.26982012 1.9958843 96
0.21539192 -0.36053723 2.0425706 44
0.32655838 -0.5458104 2.0793068 39
0.42093241 -0.70329171 1.99051 95
0.53676969 -0.89649659 1.9813942 83
0.66818684 -1.1159968 1.9830275 78
0.81946868 -1.3686751 1.9858838 40
0.062878378 -0.10809407 1.9960728 86
0.10925398 -0.19005555 1.9983203 95
0.27275723 -0.45786259 2.0880225 58
0.36454174 -0.61148429 1.9901476 38
0.47617182 -0.79812193 1.9846202 95
0.59949601 -1.0048411 1.9840788 87
0.73795092 -1.2369221 1.9813027 87
0.90554219 -1.5178411 1.99433 45
0.99122947 -1.651626 1.9727067 75
1.1995022 -1.9986665 1.9612476 73
1.4724768 -2.4544826 1.9612085 64
1.8308399 -3.0518479 1.9486914 64
1.8696427 -3.1177628 1.5571086 71
3.1671479 -5.2835393 1.8994493 7
3.7378664 -6.235631 1.4717499 27
1.8735931 -3.1268244 0.41955698 22
1.090776 -1.8232658 1.9728094 81
1.3228136 -2.2120023 1.9602337 73
1.6361166 -2.7359135 1.9581357 69
1.8705028 -3.1290944 1.772712 75
1.8800315 -3.1462815 1.3640653 10
3.741307 -6.2636609 1.8504015 35
nan nan nan 0
1.8638269 -3.1228747 0.24037993 84
0.015648508 -0.027216297 2.0041974 80
0.15941505 -0.27037823 1.9958843 96
0.21257485 -0.35865897 2.0278847 50
0.32465115 -0.546947 2.0793068 39
0.41847488 -0.7047568 1.99051 95
0.53363705 -0.89836484 1.9813942 83
0.6657244 -1.1207418 1.9871606 76
0.81468612 -1.3715273 1.9858838 39
0.062500678 -0.1083129 1.9960728 86
0.1085899 -0.19043575 1.9983203 93
0.27115735 -0.45881191 2.0880225 60
0.36416194 -0.61572379 1.9995331 36
0.47338295 -0.79977924 1.9846202 93
0.59598476 -1.0069276 1.9840788 89
0.73362869 -1.2394905 1.9813027 87
0.90023834 -1.5209929 1.99433 45
0.98545814 -1.6550761 1.9727067 75
1.1925182 -2.0028415 1.9612476 73
1.4639 -2.4596074 1.9612085 53
1.8201756 -3.0582201 1.9486914 64
1.8587484 -3.12427 1.5571086 71
3.1437814 -5.2863159 1.896631 5
3.7010121 -6.2233086 1.4661542 28
1.8575774 -3.1247838 0.41866457 28
1.0844048 -1.8270621 1.9728094 81
1.3150843 -2.2166061 1.9602337 73
1.6265565 -2.7416077 1.9581357 69
1.8572539 -3.1317008 1.7706139 75
1.8642211 -3.1446998 1.36078 7
3.7095079 -6.2599559 1.8457123 35
6.1884022 -10.447358 1.7836288 2
1.8503693 -3.1250627 0.24017838 85
0.015532324 -0.027232554 1.9991974 80
0.15847027 -0.27093306 1.9958843 95
0.20925757 -0.35588777 2.0083039 64
0.32273999 -0.54807687 2.0793068 39
0.41601229 -0.70621324 1.99051 93
0.53049797 -0.90022212 1.9813942 83
0.66180819 -1.1230588 1.9871606 80
0.80989367 -1.3743627 1.9858838 39
0.062122215 -0.1085304 1.9960728 88
0.10792448 -0.19081365 1.9983203 93
0.26955414 -0.45975563 2.0880225 60
0.36463016 -0.62145638 2.0136113 34
0.47058836 -0.80142683 1.9846202 93
0.59246635 -1.0090019 1.9840788 89
0.72929764 -1.2420439 1.9813027 87
0.89492369 -1.5241259 1.99433 45
0.97967494 -1.6585058 1.9727067 75
1.1855198 -2.0069919 1.9612476 73
1.4553053 -2.4647024 1.9612085 39
1.8094894 -3.0645549 1.9486914 64
1.8431185 -3.1227543 1.5533626 71
3.1277471 -5.3013887 1.8980402 5
3.679266 -6.2361894 1.4661542 28
1.8415992 -3.1226697 0.41777214 30
1.0780207 -1.8308363 1.9728094 79
1.307339 -2.2211833 1.9602337 75
1.6169766 -2.7472689 1.9581357 68
1.8440094 -3.134253 1.7685159 73
1.8484447 -3.1430466 1.3574946 5
3.6802444 -6.2602963 1.8421954 37
6.1393509 -10.447547 1.7801797 2
1.8369193 -3.1271951 0.23997685 84
0.015437169 -0.027286606 1.9991974 82
0.15752357 -0.27148452 1.9958843 95
0.2069881 -0.35485691 1.9985133 75
0.32082489 -0.54920012 2.0793068 40
0.4135446 -0.70766109 1.99051 93
0.52735227 -0.90206838 1.9813942 85
0.65788388 -1.125362 1.9871606 80
0.80509126 -1.3771814 1.9858838 39
0.061742991 -0.10874659 1.9960728 88
0.10725777 -0.19118921 1.9983203 93
0.26794767 -0.46069375 2.0880225 64
0.3650628 -0.62719977 2.0276897 32
0.46778798 -0.80306453 1.9846202 93
0.58894068 -1.0110638 1.9840788 89
0.7249577 -1.2445819 1.9813027 87
0.88959807 -1.5272405 1.99433 45
0.97568274 -1.6649925 1.9762113 75
1.1785069 -2.0111179 1.9612476 71
1.4466932 -2.4697673 1.9612085 40
1.8010204 -3.0746753 1.9510094 64
1.8298644 -3.1251683 1.5514896 71
3.101953 -5.2998538 1.8938125 8
3.6425872 -6.2235575 1.4605585 31
1.8256582 -3.1204822 0.41687971 32
1.0697396 -1.8313634 1.9694844 81
1.2995775 -2.225733 1.9602337 75
1.6073769 -2.7528963 1.9581357 59
1.8284822 -3.1328313 1.7643198 75
1.8327025 -3.1413219 1.3542092 4
3.646126 -6.25211 1.8363338 32
1.8505135 -3.1743956 0.60404384 2
1.8209616 -3.1249549 0.23957381 84
0.015341828 -0.027340326 1.9991974 78
0.15657496 -0.27203277 1.9958843 95
0.20523831 -0.35469592 1.9936181 80
0.31890586 -0.55031663 2.0793068 39
0.41107187 -0.70910031 1.99051 95
0.52420026 -0.90390372 1.9813942 85
0.65395164 -1.1276517 1.9871606 80
0.80027908 -1.3799832 1.9858838 49
0.061363019 -0.10896146 1.9960728 88
0.10658973 -0.19156244 1.9983203 91
0.26633787 -0.46162623 2.0880225 58
0.36632258 -0.63444817 2.0464609 32
0.46498191 -0.80469257 1.9846202 93
0.58540785 -1.0131134 1.9840788 89
0.72060889 -1.247105 1.9813027 87
0.88426161 -1.5303365 1.99433 47
0.9698649 -1.6683881 1.9762113 77
1.1714796 -2.0152194 1.9612476 73
1.4380634 -2.4748023 1.9612085 50
1.7902768 -3.0809436 1.9510094 64
1.8142877 -3.1235194 1.5477434 71
3.0906608 -5.3230953 1.8980402 8
3.6257741 -6.2447305 1.4624238 5
1.8097548 -3.1182218 0.41598731 36
1.0633404 -1.8350862 1.9694844 81
1.2918004 -2.2302561 1.9602337 75
1.5977577 -2.7584903 1.9581357 47
1.8152611 -3.1352673 1.7622217 77
1.8146297 -3.1354382 1.3492812 4
nan nan nan 0
1.827026 -3.1594007 0.60059476 3
1.807542 -3.126967 0.23937225 84
