# .PCD v0.7 - Point Cloud Data file format
VERSION 0.7
FIELDS x y z intensity
SIZE 4 4 4 4
TYPE F F F F
COUNT 1 1 1 1
WIDTH 1430
HEIGHT 1
VIEWPOINT 0 0 0 1 0 0 0
POINTS 1430
DATA ascii
3.2639091 4.6217518 2.0572784 57
4.7230172 6.6853967 2.0649357 24
5.6818881 8.0396929 1.4635544 32
1.6351293 2.3128033 0.20793343 2
0.018512066 0.025301551 1.9991974 77
0.18301618 0.25595111 2.0008237 96
0.25116974 0.35297027 2.1062086 40
0.35372019 0.49777275 1.9981875 58
0.48032567 0.67616498 2.0135226 93
0.61469626 0.86562377 2.012115 85
0.76614958 1.0788927 2.0160913 58
0.94962078 1.3372482 2.0396011 45
0.073857248 0.10127009 2.0010643 89
0.13039893 0.17688426 2.0032918 91
0.31246009 0.43793997 2.1073792 38
0.41629085 0.58386934 2.0042257 93
0.54560047 0.76577818 2.0071244 88
0.6910699 0.96994048 2.0182064 89
0.85851669 1.2049481 2.0331662 63
1.0433033 1.464292 2.0274065 90
1.1445625 1.6153413 2.025275 75
1.4151537 1.997224 2.0553811 42
1.7180809 2.4238501 2.0324864 56
2.1502833 3.0335898 2.0321403 59
2.8026845 3.9525249 2.0459704 10
3.8610203 5.4430423 2.0502334 23
5.7097311 8.0492449 1.965106 36
1.8241909 2.5706902 0.37538218 45
1.2653707 1.7805588 2.0260069 77
1.5472456 2.1763911 2.0279264 67
1.9245253 2.7070746 2.0366411 27
2.4468884 3.4405677 2.0391645 59
3.285497 4.6180263 2.0605636 43
4.7435069 6.6649094 2.0637634 24
5.7013001 8.0077066 1.4614849 27
1.646091 2.3111508 0.20813498 2
0.018600274 0.025236778 1.9991974 77
0.18390849 0.25531071 2.0008237 97
0.25240028 0.35209137 2.1062086 46
0.35545561 0.496535 1.9981875 53
0.48268297 0.67448425 2.0135226 93
0.61771405 0.86347288 2.012115 83
0.77154827 1.0785003 2.0202241 73
0.95428294 1.3339254 2.0396011 45
0.074210301 0.10101166 2.0010643 89
0.13101557 0.17642801 2.0032918 91
0.31398687 0.43684667 2.1073792 38
0.41832641 0.58241266 2.0042257 93
0.54827023 0.76386905 2.0071244 88
0.69445145 0.96752232 2.0182064 89
0.86096007 1.1994954 2.0291767 63
1.0484083 1.4606413 2.0274065 88
1.1501939 1.6113361 2.025275 75
1.4243782 1.9954402 2.0585186 42
1.7289612 2.421241 2.035228 40
2.1608596 3.0260653 2.0321403 59
2.8164642 3.9427176 2.0459704 11
3.8799965 5.4295316 2.0502334 23
5.7092328 7.9892988 1.9557798 36
1.8360494 2.5683579 0.37582842 45
1.2715782 1.7761309 2.0260069 77
1.5548333 2.1709769 2.0279264 67
1.9339632 2.7003403 2.0366411 38
2.4588833 3.4320056 2.0391645 58
3.2823396 4.5796609 2.0490649 22
4.7639108 6.644361 2.0625911 23
5.7061272 7.955564 1.4559664 24
1.6570609 2.3094499 0.2083365 2
0.018688254 0.025171697 1.9991974 78
0.18479858 0.25466719 2.0008237 97
0.25362778 0.35120818 2.1062086 46
0.35718668 0.49529117 1.9981875 47
0.48503444 0.67279524 2.0135226 91
0.62072444 0.86131132 2.012115 83
0.77530819 1.0758005 2.0202241 73
0.95893335 1.3305861 2.0396011 47
0.074562438 0.100752 2.0010643 89
0.13195097 0.17639676 2.0082631 89
0.31550986 0.43574798 2.1073792 37
0.41934526 0.57955092 1.9995331 91
0.5509333 0.76195061 2.0071244 90
0.69782454 0.96509236 2.0182064 89
0.86514193 1.196483 2.0291767 63
1.0535005 1.4569728 2.0274065 88
1.1558115 1.6073115 2.025275 75
1.4313351 1.9904561 2.0585186 42
1.7349604 2.4117966 2.0324864 33
2.1714091 3.0185044 2.0321403 58
2.83021 3.9328623 2.0459704 15
3.8961225 5.4120617 2.0488243 28
5.7083864 7.9294553 1.9464536 39
1.8479136 2.5659747 0.37627462 48
1.2777704 1.7716815 2.0260069 77
1.5624019 2.1655364 2.0279264 67
1.9433771 2.693573 2.0366411 59
2.4708483 3.4234018 2.0391645 58
3.30107 4.5720043 2.0507076 7
4.7842288 6.6237507 2.0614188 20
5.71066 7.9034858 1.4504478 28
1.668039 2.3077006 0.20853803 2
0.018780388 0.025103033 1.9991974 78
0.18573074 0.25398818 2.0008237 97
0.2549133 0.35027623 2.1062086 49
0.35899958 0.49397871 1.9981875 47
0.48749712 0.67101294 2.0135226 91
0.62387705 0.85903049 2.012115 83
0.78089964 1.0752286 2.0243571 62
0.96380371 1.3270625 2.0396011 47
0.074931212 0.10047804 2.0010643 89
0.13259661 0.17591193 2.0082631 91
0.31710482 0.43458864 2.1073792 38
0.42146659 0.57801002 1.9995331 91
0.55385488 0.75982952 2.0071244 88
0.70152503 0.9624058 2.0182064 87
0.8697297 1.1931522 2.0291767 61
1.059087 1.4529169 2.0274065 85
1.161695 1.6030643 2.025275 75
1.4386208 1.9851967 2.0585186 46
1.7486969 2.4121921 2.0379696 17
2.1824579 3.0105252 2.0321403 58
2.8446054 3.9224627 2.0459704 23
3.9159327 5.3977451 2.0488243 33
5.7157087 7.8756738 1.9389926 42
1.8665303 2.5709503 0.37761325 5
1.2845638 1.7667623 2.0260069 77
1.5707055 2.1595211 2.0279264 67
1.9511696 2.6826048 2.0341086 65
2.4839752 3.4138889 2.0391645 59
3.3519499 4.605113 2.0704198 4
4.806766 6.6014037 2.0602465 13
5.7133565 7.8464704 1.4442395 35
1.6823689 2.3096478 0.2089411 2
0.018867899 0.025037322 1.9991974 78
0.18661618 0.25333828 2.0008237 97
0.25613445 0.34938431 2.1062086 51
0.36072174 0.49272257 1.9981875 47
0.48868248 0.66773063 2.0089202 93
0.62687182 0.85684758 2.012115 83
0.78464812 1.0724962 2.0243571 60
0.96843016 1.3236901 2.0396011 49
0.075281493 0.10021587 2.0010643 89
0.13320984 0.17544802 2.0082631 91
0.31861988 0.4334791 2.1073792 38
0.42348164 0.57653534 1.9995331 91
0.55637151 0.75798869 2.0071244 88
0.70471263 0.96007413 2.0182064 89
0.87368155 1.1902615 2.0291767 61
1.0638993 1.4493968 2.0274065 81
1.1672835 1.5989995 2.025275 75
1.4455415 1.9801627 2.0585186 48
1.7546403 2.4026968 2.035228 11
2.1929533 3.0028889 2.0321403 59
2.8555455 3.9087658 2.0440972 31
3.9319196 5.3801699 2.047415 36
5.6954193 7.79322 1.9240707 38
nan nan nan 0
1.2904154 1.7624928 2.0260069 77
1.577858 2.1543007 2.0279264 67
1.9600546 2.6761196 2.0341086 66
2.4952822 3.4056332 2.0391645 59
3.4090796 4.6511049 2.0950599 3
4.8228822 6.5775871 2.0579019 9
5.7143478 7.7905421 1.4380312 37
1.702243 2.3198729 0.20974723 2
0.018955179 0.02497131 1.9991974 78
0.18749937 0.25268534 2.0008237 96
0.25735247 0.34848806 2.1062086 53
0.36332595 0.49266234 2.0029593 58
0.49101034 0.66602069 2.0089202 93
0.62985897 0.85465413 2.012115 83
0.79005659 1.072016 2.0284901 58
0.97304481 1.3203017 2.0396011 45
0.075630851 0.099952482 2.0010643 89
0.13349658 0.17455825 2.0032918 93
0.32013109 0.43236426 2.1073792 38
0.42549157 0.57505357 1.9995331 91
0.55901396 0.756042 2.0071244 90
0.70805961 0.9576084 2.0182064 89
0.87783092 1.1872046 2.0291767 63
1.0689521 1.4456743 2.0274065 74
1.1728581 1.5949153 2.025275 77
1.4501387 1.9719689 2.0553811 42
1.7952284 2.4403439 2.0708671 8
2.2034221 2.9952159 2.0321403 59
2.8691723 3.8987741 2.0440972 32
3.9478319 5.3625488 2.0460057 37
5.7196755 7.7693357 1.923138 37
nan nan nan 0
1.2965598 1.7579776 2.0260069 77
1.5853683 2.1487796 2.0279264 67
1.9693842 2.6692617 2.0341086 66
2.5071547 3.3969023 2.0391645 58
3.4252939 4.6391764 2.0950599 3
4.8573642 6.5763512 2.0625911 5
5.7120781 7.7307186 1.4311329 40
1.7222087 2.329987 0.21055335 2
0.019042231 0.024904991 1.9991974 77
0.18838027 0.2520293 2.0008237 96
0.25856733 0.34758762 2.1062086 53
0.36504346 0.49139112 2.0029593 67
0.49333221 0.66430271 2.0089202 93
0.63283849 0.85245025 2.012115 83
0.79379386 1.0692517 2.0284901 58
0.97764766 1.316897 2.0396011 45
0.075979292 0.099687867 2.0010643 89
0.13410509 0.17409121 2.0032918 93
0.32088631 0.43023598 2.1025403 38
0.42749631 0.57356483 1.9995331 91
0.56164962 0.75408608 2.0071244 92
0.71139795 0.95513099 2.0182064 87
0.88196975 1.1841331 2.0291767 61
1.073992 1.4419341 2.0274065 74
1.1784182 1.5908114 2.025275 77
1.4570132 1.9668949 2.0553811 42
1.8336104 2.4743769 2.1037648 6
2.211226 2.9839463 2.0298221 60
2.8827639 3.8887353 2.0440972 33
3.9636693 5.3448825 2.0445967 39
nan nan nan 0
nan nan nan 0
1.3026885 1.753441 2.0260069 77
1.5928594 2.1432328 2.0279264 69
1.976118 2.6589105 2.0315762 65
2.518997 3.3881299 2.0391645 59
3.4611952 4.6537175 2.1065588 3
4.9064026 6.5944524 2.0731418 4
5.7124176 7.6749787 1.4249246 45
1.7452494 2.3439968 0.21156099 2
0.019129049 0.024838369 1.9991974 75
0.18925887 0.25137019 2.0008237 96
0.25977907 0.34668294 2.1062086 57
0.3667565 0.49011388 2.0029593 78
0.49564806 0.66257662 2.0089202 91
0.6358102 0.85023606 2.012115 83
0.79752141 1.0664742 2.0284901 60
0.98031861 1.310909 2.0357642 49
0.076150082 0.099192649 1.9960728 88
0.13471197 0.17362203 2.0032918 93
0.32238621 0.42911321 2.1025403 38
0.42949581 0.57206911 1.9995331 91
0.56427854 0.75212097 2.0071244 90
0.71472764 0.95264196 2.0182064 87
0.88609773 1.1810472 2.0291767 61
1.0790187 1.4381765 2.0274065 73
1.1839639 1.5866884 2.025275 77
1.46387 1.9617971 2.0553811 46
1.8497401 2.4780135 2.111989 6
2.2216282 2.9762094 2.0298221 60
2.8990941 3.8823633 2.0459704 28
3.9794314 5.3271708 2.0431874 41
5.4827356 7.3396068 1.8308086 66
nan nan nan 0
1.3088012 1.7488832 2.0260069 77
1.6003308 2.1376595 2.0279264 67
1.9853871 2.6519961 2.0315762 65
2.5308082 3.3793161 2.0391645 57
3.4774187 4.6416078 2.1065588 4
4.9439669 6.5967336 2.0790036 4
5.7124381 7.6193323 1.4187163 44
1.7534208 2.3378906 0.21156099 2
0.019188412 0.024737345 1.9941976 75
0.19013515 0.25070804 2.0008237 96
0.26098767 0.34577402 2.1062086 55
0.36846507 0.48883069 2.0029593 84
0.49795786 0.66084248 2.0089202 91
0.63877422 0.84801149 2.012115 83
0.80123919 1.063684 2.0284901 58
0.98488855 1.3074791 2.0357642 45
0.076495871 0.098926239 1.9960728 89
0.13531719 0.17315073 2.0032918 93
0.32388207 0.42798531 2.1025403 38
0.43149006 0.57056642 1.9995331 91
0.56690049 0.75014669 2.0071244 90
0.71804869 0.95014131 2.0182064 89
0.89021504 1.177947 2.0291767 61
1.0840324 1.4344013 2.0274065 73
1.1894953 1.5825458 2.025275 73
1.4683703 1.9535632 2.052243 39
1.8634045 2.4782259 2.1174719 6
2.2320037 2.9684367 2.0298221 59
2.9126287 3.87222 2.0459704 28
3.9951174 5.3094139 2.0417781 37
5.5083213 7.3204231 1.8308086 73
2.593529 3.4454861 0.47934911 2
1.3171457 1.7472857 2.0293317 71
1.6077831 2.1320603 2.0279264 67
1.9946325 2.6450498 2.0315762 65
2.5425889 3.3704615 2.0391645 58
3.4708421 4.5992846 2.0934174 6
5.0050354 6.6298666 2.0942435 4
5.7151241 7.5677304 1.4131978 44
1.7645824 2.335742 0.21176252 2
0.019274645 0.024670215 1.9941976 77
0.19100913 0.2500428 2.0008237 95
0.26219302 0.34486091 2.1062086 59
0.37016916 0.48754153 2.0029593 86
0.50026155 0.65910029 2.0089202 93
0.64173043 0.84577662 2.012115 83
0.80494732 1.0608807 2.0284901 60
0.98944652 1.3040333 2.0357642 45
0.076840721 0.098658614 1.9960728 89
0.13592078 0.17267734 2.0032918 93
0.3253741 0.42685211 2.1025403 39
0.43452483 0.57042944 2.0042257 93
0.56951547 0.74816328 2.0071244 90
0.72136092 0.94762903 2.0182064 89
0.89432132 1.1748323 2.0291767 63
1.0890326 1.4306085 2.0274065 74
1.1950122 1.578384 2.025275 73
1.4751804 1.9484259 2.052243 39
1.8745687 2.4750397 2.1202135 6
2.242352 2.9606273 2.0298221 59
2.9261277 3.8620293 2.0459704 29
4.0107284 5.2916126 2.040369 37
5.5071359 7.2659178 1.822415 67
2.6205842 3.4562535 0.48158014 3
1.3232369 1.7426775 2.0293317 67
1.6152154 2.126435 2.0279264 67
2.0038531 2.6380713 2.0315762 66
2.5543387 3.3615656 2.0391645 59
3.4668705 4.5608239 2.0819185 7
5.0193205 6.6007481 2.0907266 4
5.7175198 7.5162034 1.4076792 45
1.772725 2.3295684 0.21176252 2
0.019360643 0.024602784 1.9941976 77
0.19188078 0.24937452 2.0008237 95
0.26339522 0.34394357 2.1062086 59
0.37186873 0.48624644 2.0029593 86
0.50255924 0.65735 2.0089202 93
0.64467889 0.84353137 2.012115 83
0.80864555 1.0580643 2.0284901 60
0.99399245 1.3005716 2.0357642 47
0.077184632 0.098389789 1.9960728 89
0.13652271 0.17220183 2.0032918 93
0.32686207 0.42571375 2.1025403 38
0.4365133 0.56890917 2.0042257 93
0.57344872 0.74789882 2.0116253 92
0.72466439 0.94510525 2.0182064 89
0.89841688 1.1717035 2.0291767 61
1.0940199 1.4267985 2.0274065 78
1.2005144 1.574203 2.025275 75
1.4819728 1.9432646 2.052243 42
1.8831966 2.4684813 2.1202135 8
2.2526727 2.9527819 2.0298221 59
2.9367783 3.8481066 2.0440972 37
4.0262647 5.2737679 2.0389597 36
5.5235233 7.2349372 1.8196173 64
2.6326327 3.4470851 0.48158014 3
1.3315806 1.7410142 2.0326567 50
1.6226283 2.120784 2.0279264 67
2.0104301 2.6276364 2.0290439 66
2.566057 3.3526292 2.0391645 58
3.4684153 4.5299463 2.0737052 7
5.0305095 6.5677524 2.0860374 5
5.7196259 7.4647527 1.4021606 46
1.7838851 2.3273311 0.21196404 2
0.019473981 0.024568865 1.9991974 77
0.1927501 0.24870323 2.0008237 96
0.26459423 0.34302208 2.1062086 61
0.37356377 0.48494542 2.0029593 88
0.50485075 0.65559173 2.0089202 95
0.64761937 0.84127587 2.012115 83
0.81233388 1.0552351 2.0284901 60
0.9985261 1.2970939 2.0357642 45
0.077527612 0.098119766 1.9960728 88
0.13712297 0.17172423 2.0032918 93
0.32834613 0.4245702 2.1025403 38
0.43849653 0.56738198 2.0042257 93
0.57605588 0.74589258 2.0116253 92
0.72795898 0.94256991 2.0182064 89
0.9025014 1.1685603 2.0291767 61
1.0989935 1.4229709 2.0274065 81
1.2060021 1.5700029 2.025275 77
1.4887469 1.9380798 2.052243 40
1.8892539 2.4585769 2.1174719 11
2.2629662 2.9449005 2.0298221 59
2.9473672 3.8341563 2.0422242 45
4.0446491 5.2596812 2.0389597 36
5.5337715 7.1961417 1.814954 64
nan nan nan 0
1.3376497 1.7363555 2.0326567 36
1.6324887 2.1183088 2.0308697 67
2.0195899 2.6206028 2.0290439 65
2.5749733 3.3400569 2.0370667 55
3.4669027 4.4953747 2.063849 7
5.044497 6.5386066 2.0825205 9
5.7184167 7.4094577 1.3959523 45
1.7919983 2.3210902 0.21196404 2
0.019555349 0.024504151 1.9991974 77
0.19357376 0.24806269 2.0008237 95
0.26573026 0.34214276 2.1062086 61
0.37516987 0.48370397 2.0029593 86
0.50702202 0.65391397 2.0089202 95
0.65040559 0.83912373 2.012115 83
0.81582874 1.0525355 2.0284901 58
1.002822 1.2937756 2.0357642 47
0.077835485 0.097875722 1.9960728 88
0.13766178 0.17129259 2.0032918 93
0.3296783 0.42353654 2.1025403 38
0.44027683 0.56600159 2.0042257 91
0.5785262 0.7439782 2.0116253 93
0.73108065 0.94015074 2.0182064 87
0.90637153 1.1655611 2.0291767 63
1.1034585 1.4195112 2.0274065 83
1.2112019 1.565995 2.025275 75
1.4951657 1.9331323 2.052243 40
1.8922789 2.4456842 2.111989 11
2.2700086 2.9338768 2.0275044 58
2.9565609 3.8212113 2.0403512 55
4.058217 5.243155 2.0375507 36
5.5365529 7.1505632 1.8084258 67
nan nan nan 0
1.3434004 1.7319102 2.0326567 32
1.6395043 2.1128836 2.0308697 67
2.0278125 2.6142452 2.0290439 65
2.5854537 3.3319509 2.0370667 51
3.4665294 4.4658084 2.0556357 7
5.0560703 6.51121 2.0790036 17
5.7173624 7.3601694 1.3904338 45
1.8023467 2.3193939 0.21216559 2
0.01964503 0.024432313 1.9991974 77
0.19448164 0.24735153 2.0008237 93
0.2669825 0.3411665 2.1062086 63
0.37694022 0.48232564 2.0029593 78
0.50941527 0.65205127 2.0089202 95
0.65347672 0.83673418 2.012115 81
0.81968099 1.0495383 2.0284901 58
1.0075572 1.2900913 2.0357642 47
0.078210719 0.097576134 1.9960728 88
0.13831849 0.17076275 2.0032918 93
0.33130217 0.42226762 2.1025403 39
0.44244692 0.56430691 2.0042257 91
0.58137852 0.74175131 2.0116253 90
0.73468512 0.93733668 2.0182064 89
0.91084021 1.1620722 2.0291767 61
1.1112394 1.4177386 2.0310817 78
1.2169334 1.5615453 2.025275 77
1.5022409 1.9276391 2.052243 40
1.8960885 2.4321368 2.1065061 11
2.2807465 2.9255369 2.0275044 57
2.9683607 3.8061755 2.0384781 54
4.0783191 5.2275343 2.0375507 37
5.5307231 7.0866547 1.7981671 69
1.9612472 2.512094 0.37850568 11
1.3500406 1.7267393 2.0326567 32
1.6476052 2.1065726 2.0308697 67
2.0382907 2.6060841 2.0290439 65
2.5988081 3.3215456 2.0370667 44
3.4640536 4.4258251 2.0441368 8
5.0731778 6.4793801 2.0754867 22
5.7211595 7.3069673 1.3849154 42
1.8143198 2.3163893 0.21236712 2
0.019730195 0.02436359 1.9991974 78
0.19582641 0.24728017 2.0057628 92
0.26817176 0.34023249 2.1062086 61
0.37862158 0.48100695 2.0029593 78
0.51168829 0.65026909 2.0089202 93
0.65639353 0.8344481 2.012115 77
0.82333958 1.0466707 2.0284901 60
1.0120542 1.2865664 2.0357642 47
0.078550845 0.097302534 1.9960728 88
0.13891372 0.17027889 2.0032918 93
0.33277407 0.42110854 2.1025403 39
0.44441399 0.56275904 2.0042257 91
0.58248603 0.73810989 2.0071244 90
0.73778951 0.93489528 2.0182064 83
0.91468889 1.1590453 2.0291767 61
1.1159347 1.4140458 2.0310817 73
1.2223768 1.5572878 2.025275 77
1.5065567 1.9193215 2.0491054 40
1.8968194 2.4156375 2.0982819 8
2.2909446 2.917558 2.0275044 39
2.978765 3.792145 2.0366051 54
4.0935774 5.2094941 2.0361414 34
5.5268779 7.0335131 1.7897735 69
1.9695669 2.5055764 0.37850568 63
1.3696183 1.7398582 2.0526056 35
1.6520808 2.0979218 2.0279264 67
2.0469215 2.5993104 2.0290439 66
2.6098087 3.3129094 2.0370667 35
3.4816344 4.4180231 2.0457797 12
5.0886173 6.4548864 2.0731418 19
5.7220964 7.2558451 1.3793968 42
1.8223945 2.3100421 0.21236712 2
0.019815119 0.02429457 1.9991974 78
0.1976577 0.24780977 2.0156415 88
0.26935777 0.33929434 2.1062086 63
0.38029829 0.47968239 2.0029593 86
0.513955 0.64847898 2.0089202 93
0.65930229 0.83215171 2.012115 71
0.82698816 1.0437903 2.0284901 60
1.0165391 1.2830259 2.0357642 47
0.078890018 0.097027741 1.9960728 88
0.13950726 0.16979297 2.0032918 93
0.33424205 0.41994438 2.1025403 39
0.4463757 0.56120425 2.0042257 91
0.58505899 0.73607212 2.0071244 93
0.7410484 0.93231416 2.0182064 73
0.91872907 1.1558455 2.0291767 63
1.1229733 1.4127955 2.0347569 61
1.2278053 1.5530114 2.025275 77
1.510833 1.9109972 2.0459676 42
1.8974583 2.3991625 2.0900574 7
2.3011148 2.909543 2.0275044 36
2.9919839 3.781724 2.0366051 56
4.1117373 5.1951733 2.0361414 34
5.5148125 6.9679556 1.778582 65
1.9752096 2.4947813 0.37805945 48
1.3826437 1.7438455 2.0625803 37
1.659394 2.0921421 2.0279264 67
2.0559821 2.5921495 2.0290439 65
2.621357 3.3037791 2.0370667 23
3.4999707 4.4095416 2.0474222 22
5.105073 6.429471 2.0707972 25
5.7227483 7.2048049 1.3738782 43
1.8335551 2.3075783 0.21256864 2
0.019895572 0.024228729 1.9991974 78
0.19945168 0.24836434 2.0255198 88
0.27048141 0.33839923 2.1062086 63
0.38188687 0.47841862 2.0029593 84
0.51610267 0.64677113 2.0089202 95
0.66205823 0.82996082 2.012115 64
0.83219981 1.0432421 2.0326231 60
1.0207882 1.2796478 2.0357642 47
0.079194441 0.096779428 1.9960728 88
0.14004 0.16935384 2.0032918 93
0.33555967 0.41889229 2.1025403 40
0.44813654 0.55979925 2.0042257 91
0.58749664 0.73412794 2.0071244 90
0.74413592 0.92985159 2.0182064 58
0.92255688 1.1527925 2.0291767 61
1.1274062 1.4092609 2.0347569 54
1.2329485 1.5489314 2.025275 77
1.517162 1.9059765 2.0459676 39
1.9001943 2.3863146 2.0845745 6
2.3107505 2.9018965 2.0275044 24
3.0038495 3.772306 2.0366051 38
4.1250491 5.1784778 2.0347321 34
5.5225825 6.9304209 1.773919 64
1.9834719 2.4882178 0.37805945 48
1.4023974 1.7567617 2.0825293 71
1.6663225 2.086628 2.0279264 67
2.0614257 2.5823083 2.0265114 65
2.6317229 3.2955275 2.0370667 17
3.5167537 4.4022145 2.0490649 25
5.1191788 6.405808 2.0684528 26
5.7206168 7.1558475 1.3683597 42
1.8439156 2.3057082 0.21277016 2
0.019984242 0.024155645 1.9991974 77
0.20133841 0.24883953 2.0353985 86
0.2717199 0.33740559 2.1062086 65
0.38363779 0.47701573 2.0029593 84
0.51846969 0.64487517 2.0089202 95
0.66509575 0.82752866 2.012115 52
0.83601785 1.040185 2.0326231 60
1.0254716 1.2758977 2.0357642 45
0.079750083 0.096697718 2.0010643 88
0.14068922 0.16881488 2.0032918 93
0.33716559 0.41760072 2.1025403 44
0.45028269 0.55807436 2.0042257 93
0.59031111 0.73186666 2.0071244 90
0.74770081 0.92698747 2.0182064 39
0.92697656 1.1492417 2.0291767 61
1.1330543 1.4047236 2.0347569 52
1.2386174 1.544402 2.025275 77
1.5217019 1.8973664 2.0428298 39
1.9010779 2.3695498 2.07635 6
2.3213711 2.8934073 2.0275044 24
3.0183122 3.7607443 2.0366051 38
4.1449018 5.1626005 2.0347321 34
5.5306959 6.8861847 1.7683231 63
1.9930111 2.4805832 0.37805945 75
1.4138145 1.7571828 2.089179 83
1.6743225 2.0802143 2.0279264 66
2.0717754 2.5740125 2.0265114 65
2.6449308 3.2849367 2.0370667 17
3.5343971 4.3880615 2.0490649 33
5.138752 6.3776369 2.066108 26
5.7263031 7.1068335 1.363531 45
1.8590258 2.3063908 0.21317324 2
0.020040045 0.024052611 1.9941976 77
0.20367873 0.24994186 2.0502162 83
0.27289602 0.33645505 2.1062086 63
0.38530055 0.47567368 2.0029593 84
0.52071756 0.6430614 2.0089202 95
0.66798031 0.82520199 2.012115 39
0.83964372 1.0372603 2.0326231 60
1.0299189 1.2723105 2.0357642 49
0.08008714 0.096418738 2.0010643 89
0.14127764 0.16832274 2.0032918 93
0.33862129 0.41642123 2.1025403 45
0.45222801 0.55649918 2.0042257 91
0.59273487 0.72990519 2.0071244 90
0.75077069 0.92450291 2.0182064 38
0.93078244 1.1461613 2.0291767 61
1.1398433 1.4035903 2.0384321 52
1.2440008 1.540069 2.025275 77
1.5283157 1.8920431 2.0428298 39
1.9014534 2.3531423 2.0681257 5
2.3314569 2.8852868 2.0275044 25
3.0314209 3.7501853 2.0366051 40
4.1628976 5.1481009 2.0347321 33
5.5349693 6.8448892 1.7627274 62
2.0106223 2.4855764 0.37939808 58
1.4149326 1.7466815 2.0825293 73
1.6837562 2.0777912 2.0308697 60
2.0802996 2.5671282 2.0265114 65
2.6529515 3.2726221 2.0349686 30
3.5519035 4.3799853 2.0507076 36
5.1568108 6.3567858 2.0649357 25
5.7261095 7.0560412 1.3580126 48
1.8733629 2.3076448 0.21357632 2
0.020123882 0.02398251 1.9941976 77
0.20652229 0.25163138 2.0699732 80
0.2740688 0.33550042 2.1062086 63
0.38695863 0.47432581 2.0029593 86
0.52295911 0.64123982 2.0089202 93
0.67085671 0.82286531 2.012115 39
0.84325927 1.0343232 2.0326231 52
1.0343539 1.2687078 2.0357642 47
0.080423221 0.096138597 2.0010643 89
0.14186433 0.16782857 2.0032918 91
0.34007278 0.41523671 2.1025403 47
0.45416778 0.55491722 2.0042257 91
0.5952791 0.72783166 2.0071244 88
0.75399327 0.92187661 2.0182064 38
0.93477768 1.1429054 2.0291767 61
1.1447359 1.3996029 2.0384321 50
1.249369 1.5357172 2.025275 75
1.5324539 1.8836766 2.0396919 39
1.9043771 2.3400044 2.0626428 5
2.3415143 2.8771307 2.0275044 35
3.0444934 3.7395809 2.0366051 40
4.1808424 5.1335382 2.0347321 33
5.5371146 6.7988648 1.7561991 63
2.0255775 2.4862647 0.38029051 34
1.4139388 1.7330509 2.0725548 66
1.6909988 2.0719011 2.0308697 39
2.0892477 2.5598507 2.0265114 65
2.6643591 3.2633414 2.0349686 37
3.5671711 4.3675599 2.0507076 37
5.1758928 6.3349824 2.0637634 25
5.7256336 7.0053353 1.352494 48
1.8908936 2.3126948 0.21418089 2
0.020207476 0.023912121 1.9941976 78
0.20838976 0.25210652 2.0798519 80
0.27523822 0.33454168 2.1062086 63
0.38861197 0.47297221 2.0029593 86
0.52519423 0.63941044 2.0089202 93
0.67372495 0.82051861 2.012115 39
0.84686458 1.0313734 2.0326231 52
1.038776 1.2650894 2.0357642 47
0.080758318 0.095857278 2.0010643 89
0.1424493 0.16733237 2.0032918 91
0.34152013 0.41404709 2.1025403 45
0.45610204 0.55332851 2.0042257 91
0.59781611 0.72574937 2.0071244 90
0.75720662 0.91923904 2.0182064 39
0.93876147 1.1396353 2.0291767 61
1.1496145 1.3955986 2.0384321 50
1.2547221 1.5313468 2.025275 75
1.5390199 1.878316 2.0396919 37
1.9045814 2.3236411 2.0544183 5
2.3515429 2.8689401 2.0275044 45
3.0575285 3.7289307 2.0366051 41
4.1987367 5.1189132 2.0347321 34
5.5421219 6.7567072 1.7506034 63
nan nan nan 0
1.4152379 1.7223345 2.0659051 64
1.6982208 2.0659857 2.0308697 30
2.0981705 2.5525422 2.0265114 65
2.675734 3.2540212 2.0349686 39
3.5793948 4.3514342 2.0490649 37
5.1979747 6.3168764 2.0637634 25
5.7280207 6.9585428 1.3476653 48
1.9053063 2.3137934 0.21458396 2
0.02029082 0.023841437 1.9941976 78
0.210263 0.25257164 2.0897303 80
0.27640429 0.33357888 2.1062086 63
0.39026055 0.47161281 2.0029593 84
0.52742302 0.6375733 2.0089202 95
0.67658496 0.81816185 2.012115 39
0.84866625 1.0262424 2.0284901 60
1.0431858 1.2614558 2.0357642 43
0.081092432 0.095574804 2.0010643 89
0.14303254 0.1668341 2.0032918 93
0.34296337 0.41285244 2.1025403 40
0.45803076 0.55173308 2.0042257 93
0.60034579 0.72365814 2.0071244 90
0.76207602 0.91859752 2.0224724 42
0.94273376 1.1363516 2.0291767 63
1.1523144 1.388968 2.0347569 50
1.2600597 1.5269576 2.025275 75
1.545567 1.8729323 2.0396919 37
1.907357 2.3105292 2.0489354 5
2.3615429 2.8607142 2.0275044 50
3.0705261 3.7182353 2.0366051 40
4.219635 5.107924 2.0361414 34
5.5406451 6.7070227 1.7431425 64
nan nan nan 0
1.4140989 1.7087532 2.0559306 40
1.7054222 2.0600455 2.0308697 26
2.1070681 2.545203 2.0265114 65
2.6870763 3.2446613 2.0349686 42
3.5945623 4.3389134 2.0490649 37
5.2168918 6.2949514 2.0625911 24
5.7301512 6.911819 1.3428366 53
1.91975 2.3148196 0.21498701 2
0.020402772 0.023803193 1.9991974 77
0.2116427 0.25243142 2.0946693 80
0.27756706 0.33261204 2.1062086 63
0.39190444 0.47024766 2.0029593 84
0.52964532 0.63572836 2.0089202 95
0.67943674 0.81579512 2.012115 39
0.85224336 1.0232736 2.0284901 60
1.0475827 1.2578067 2.0357642 42
0.081425548 0.095291145 2.0010643 89
0.14361402 0.16633381 2.0032918 91
0.34440243 0.41165274 2.1025403 39
0.45995384 0.55013084 2.0042257 91
0.6028682 0.72155815 2.0071244 90
0.76527786 0.91593188 2.0224724 46
0.94669467 1.1330539 2.0291767 63
1.1571558 1.3849373 2.0347569 49
1.2653822 1.5225499 2.025275 75
1.5520953 1.8675259 2.0396919 38
1.9073911 2.2942114 2.0407109 6
2.3715143 2.8524532 2.0275044 52
3.0834868 3.7074947 2.0366051 40
4.2374392 5.0931635 2.0361414 34
5.5388889 6.6574316 1.7356815 62
nan nan nan 0
1.4152731 1.6980691 2.0492809 40
1.7151911 2.057184 2.0338128 26
2.1159396 2.537832 2.0265114 68
2.698386 3.2352619 2.0349686 42
3.6096859 4.3263397 2.0490649 37
5.2388334 6.2767029 2.0625911 24
5.7320242 6.8651643 1.3380078 53
1.9342237 2.315773 0.21539009 2
0.020485736 0.023731828 1.9991974 75
0.21302401 0.25228471 2.0996087 82
0.27872637 0.33164111 2.1062086 63
0.39354351 0.46887681 2.0029593 84
0.53186125 0.63387567 2.0089202 95
0.68228036 0.81341845 2.012115 39
0.85581011 1.0202925 2.0284901 62
1.0519669 1.2541422 2.0357642 47
0.08175768 0.095006347 2.0010643 89
0.14419375 0.16583148 2.0032918 91
0.34583724 0.41044807 2.1025403 37
0.46187139 0.548522 2.0042257 91
0.60538316 0.71944934 2.0071244 88
0.76847035 0.91325486 2.0224724 56
0.9506439 1.1297424 2.0291767 63
1.161983 1.3808895 2.0347569 47
1.2706891 1.5181236 2.025275 75
1.5586048 1.8620967 2.0396919 38
1.9100187 2.2811275 2.035228 7
2.3814569 2.8441579 2.0275044 52
3.0964091 3.6967082 2.0366051 40
4.2551918 5.078341 2.0361414 34
5.5400095 6.6117001 1.729153 62
nan nan nan 0
1.4307956 1.7045599 2.0625803 48
1.7223616 2.0511844 2.0338128 28
2.1247854 2.5304308 2.0265114 69
2.7067435 3.222348 2.0328705 43
3.6247659 4.3137131 2.0490649 37
5.2607112 6.258378 2.0625911 24
5.7304568 6.8147926 1.3324893 51
1.9487275 2.3166535 0.21579313 2
0.020568453 0.023660176 1.9991974 77
0.21390334 0.25153959 2.0996087 82
0.27988234 0.33066615 2.1062086 61
0.39517781 0.46750021 2.0029593 84
0.53407061 0.63201523 2.0089202 95
0.68511552 0.81103194 2.012115 40
0.85936636 1.0172989 2.0284901 60
1.0563384 1.2504625 2.0357642 47
0.082088821 0.094720379 2.0010643 89
0.14477175 0.16532715 2.0032918 91
0.34726787 0.40923837 2.1025403 32
0.46378326 0.54690641 2.0042257 93
0.60789084 0.71733177 2.0071244 88
0.77165353 0.91056693 2.0224724 66
0.95458174 1.1264172 2.0291767 63
1.1667962 1.3768251 2.0347569 49
1.2759808 1.5136789 2.025275 75
1.5650953 1.8566449 2.0396919 38
1.9125787 2.2680533 2.0297451 8
2.3913703 2.8358278 2.0275044 53
3.1063049 3.6823337 2.0347321 40
4.2697983 5.0597901 2.0347321 35
5.5377102 6.5622883 1.7216921 63
2.9167387 3.4551673 0.49808994 2
1.4415586 1.7052588 2.0692301 48
1.7295109 2.0451598 2.0338128 34
2.1336052 2.5229983 2.0265114 68
2.7179751 3.2128799 2.0328705 44
3.6398013 4.301034 2.0490649 38
5.2825251 6.2399764 2.0625911 23
5.7286067 6.7645149 1.3269708 52
1.9632608 2.317461 0.21619621 2
0.020650916 0.023588233 1.9991974 77
0.21478006 0.25079137 2.0996087 82
0.28103486 0.32968715 2.1062086 61
0.39680728 0.46611792 2.0029593 86
0.53627354 0.63014716 2.0089202 93
0.68794239 0.80863547 2.012115 48
0.86291218 1.0142931 2.0284901 60
1.0606968 1.2467676 2.0357642 47
0.082228184 0.094215423 1.9960728 89
0.14534795 0.16482079 2.0032918 86
0.34869424 0.40802369 2.1025403 22
0.46568951 0.54528415 2.0042257 93
0.61039108 0.71520549 2.0071244 92
0.7748273 0.90786779 2.0224724 81
0.95850784 1.1230782 2.0291767 61
1.171595 1.3727438 2.0347569 50
1.2812566 1.5092157 2.025275 75
1.5715665 1.8511704 2.0396919 38
1.9177773 2.2581758 2.0270035 13
2.4012549 2.8274629 2.0275044 53
3.1191397 3.671468 2.0347321 40
4.2874346 5.0448551 2.0347321 35
5.5351348 6.5129728 1.7142311 63
2.9287817 3.4449649 0.49808994 2
1.4547645 1.7087466 2.0792046 77
1.7366393 2.0391102 2.0338128 37
2.1423991 2.5155354 2.0265114 66
2.7291734 3.203373 2.0328705 44
3.6547925 4.2883024 2.0490649 37
5.3074279 6.2251973 2.0637634 25
5.7264767 6.7143335 1.3214523 51
1.9778235 2.3181951 0.21659926 2
0.020733129 0.023516005 1.9991974 78
0.21565418 0.25004011 2.0996087 82
0.28218397 0.32870418 2.1062086 61
0.3984319 0.46472999 2.0029593 86
0.53846985 0.6282714 2.0089202 91
0.69076085 0.80622917 2.012115 56
0.86644745 1.0112747 2.0284901 60
1.0650425 1.2430574 2.0357642 45
0.082556553 0.093927816 1.9960728 89
0.14592241 0.16431242 2.0032918 88
0.34929582 0.40585071 2.0977008 14
0.46759003 0.54365528 2.0042257 93
0.61288393 0.71307045 2.0071244 88
0.77799165 0.90515757 2.0224724 87
0.96242231 1.1197256 2.0291767 61
1.1763797 1.3686459 2.0347569 50
1.286517 1.504734 2.025275 75
1.5805488 1.8486323 2.0428298 38
1.9256479 2.2514679 2.0270035 17
2.4111097 2.8190639 2.0275044 54
3.1319368 3.660558 2.0347321 41
4.3050184 5.0298581 2.0347321 35
5.5322819 6.4637561 1.7067702 56
2.979656 3.4801152 0.50344443 8
1.4655817 1.7093279 2.0858543 77
1.7437465 2.0330358 2.0338128 36
2.1511669 2.5080416 2.0265114 66
2.7403388 3.1938269 2.0328705 44
3.6697395 4.2755189 2.0490649 37
5.3291249 6.2066331 2.0637634 25
5.7143855 6.6529808 1.3138644 43
1.9891595 2.3150663 0.21680079 2
0.020815087 0.02344349 1.9991974 78
0.21652566 0.24928583 2.0996087 83
0.28332964 0.32771716 2.1062086 59
0.40005171 0.46333638 2.0029593 86
0.53938317 0.6249091 2.0043178 89
0.69357091 0.80381304 2.012115 66
0.86997211 1.008244 2.0284901 60
1.0693749 1.2393322 2.0357642 45
0.082883917 0.093639061 1.9960728 89
0.14649507 0.16380206 2.0032918 88
0.34988654 0.40367857 2.0928619 13
0.46948493 0.54201978 2.0042257 93
0.61536926 0.71092677 2.0071244 88
0.78114653 0.90243638 2.0224724 81
0.96632493 1.1163592 2.0291767 61
1.18115 1.3645312 2.0347569 52
1.2917618 1.500234 2.025275 75
1.586992 1.8431039 2.0428298 39
1.9334953 2.2447324 2.0270035 28
2.4209354 2.8106303 2.0275044 54
3.1416693 3.6460915 2.0328591 41
4.3225493 5.0148005 2.0347321 34
5.5323606 6.4183602 1.7002418 55
2.9787774 3.4546068 0.50165963 4
1.4568959 1.687243 2.0659051 39
1.7508327 2.0269365 2.0338128 32
2.1599085 2.5005174 2.0265114 65
2.7514706 3.184242 2.0328705 44
3.6846414 4.2626829 2.0490649 37
5.3539376 6.1916695 2.0649357 25
5.7246141 6.6180115 1.311105 34
2.0037665 2.3156645 0.21720386 2
0.020896796 0.023370689 1.9991974 77
0.21739452 0.24852848 2.0996087 83
0.28447187 0.32672614 2.1062086 57
0.40166658 0.46193713 2.0029593 86
0.54156125 0.6230225 2.0043178 89
0.69480103 0.79957879 2.0077264 71
0.87348622 1.0052012 2.0284901 58
1.0736945 1.2355919 2.0357642 45
0.083210275 0.093349174 1.9960728 89
0.14706595 0.16328971 2.0032918 89
0.35046631 0.40150723 2.0880225 13
0.4702397 0.53907728 1.9995331 91
0.61784714 0.70877439 2.0071244 90
0.7842918 0.89970416 2.0224724 77
0.97021592 1.1129793 2.0291767 63
1.1859059 1.3603998 2.0347569 52
1.2969906 1.4957157 2.025275 75
1.5934161 1.837553 2.0428298 37
1.9385792 2.2348108 2.0242622 38
2.4278288 2.798816 2.0251863 53
3.1543775 3.6351025 2.0328591 41
4.3400278 4.999681 2.0347321 34
5.5321903 6.3730426 1.6937135 57
2.9777572 3.4291472 0.49987477 2
1.4480739 1.6652397 2.0459561 39
1.7578973 2.0208127 2.0338128 22
2.1686239 2.4929626 2.0265114 65
2.762569 3.174618 2.0328705 43
3.6994987 4.2497954 2.0490649 36
5.3755178 6.1729436 2.0649357 24
5.7346692 6.5830522 1.3083458 30
2.0216842 2.3199553 0.21780846 2
0.020978246 0.023297602 1.9991974 78
0.21826072 0.24776813 2.0996087 83
0.28561065 0.32573116 2.1062086 51
0.40327662 0.46053222 2.0029593 82
0.5437327 0.62112832 2.0043178 93
0.69758785 0.79714853 2.0077264 77
0.87698972 1.002146 2.0284901 58
1.0780009 1.2318363 2.0357642 45
0.083535612 0.093058147 1.9960728 89
0.14763504 0.16277535 2.0032918 91
0.34937423 0.39744741 2.0735047 14
0.47211856 0.53743255 1.9995331 91
0.62031746 0.7066133 2.0071244 88
0.78914821 0.89892083 2.0267382 69
0.97409505 1.1095859 2.0291767 63
1.1906475 1.3562518 2.0347569 52
1.3022037 1.4911793 2.025275 77
1.5998205 1.8319798 2.0428298 37
1.9463685 2.2280304 2.0242622 46
2.4375834 2.790324 2.0251863 53
3.167047 3.6240697 2.0328591 39
4.3574533 4.9845018 2.0347321 34
5.5317707 6.327805 1.6871853 57
2.9897091 3.4187319 0.49987477 2
1.4587984 1.6657935 2.0526056 40
1.7622771 2.0116241 2.0308697 14
2.1773126 2.4853778 2.0265114 65
2.7706423 3.1615424 2.0307724 43
3.7143106 4.2368555 2.0490649 36
5.400238 6.1577964 2.066108 24
5.7445502 6.5481033 1.3055865 26
2.0396562 2.3241494 0.21841304 2
0.021059442 0.023224233 1.9991974 78
0.21912426 0.24700475 2.0996087 82
0.28674591 0.32473224 2.1062086 51
0.40488175 0.4591217 2.0029593 82
0.54718941 0.62069196 2.0089202 93
0.7003662 0.79470873 2.0077264 79
0.88048255 0.99907863 2.0284901 60
1.0822945 1.228066 2.0357642 47
0.083859935 0.092765987 1.9960728 89
0.14820234 0.16225901 2.0032918 91
0.34742433 0.39245838 2.054148 18
0.47399166 0.53578132 1.9995331 91
0.6227802 0.70444375 2.0071244 88
0.79228115 0.89616072 2.0267382 69
0.9779622 1.1061789 2.0291767 61
1.1953743 1.3520876 2.0347569 50
1.3074009 1.4866246 2.025275 77
1.6062057 1.8263842 2.0428298 38
1.9541339 2.2212226 2.0242622 66
2.4473088 2.7817986 2.0251863 44
3.179678 3.6129925 2.0328591 39
4.374826 4.9692607 2.0347321 33
5.5343499 6.286335 1.6815896 58
2.99175 3.3970628 0.49853611 2
1.4720145 1.6690935 2.0625803 40
1.7826587 2.0206151 2.0455854 11
2.1859748 2.4777622 2.0265114 65
2.781661 3.1518517 2.0307724 44
3.7259517 4.220324 2.0474222 37
5.4249177 6.1425519 2.0672803 24
5.7575355 6.5168772 1.303517 28
2.0576818 2.3282461 0.21901764 2
0.021144422 0.02314689 1.9991974 78
0.22002812 0.24619997 2.0996087 82
0.28793418 0.32367906 2.1062086 53
0.40656176 0.45763466 2.0029593 84
0.54946065 0.61868221 2.0089202 93
0.70327425 0.79213637 2.0077264 81
0.88413846 0.99584484 2.0284901 60
1.0867882 1.2240908 2.0357642 45
0.084199384 0.092457995 1.9960728 89
0.14879607 0.16171473 2.0032918 93
0.34634873 0.38836634 2.0396304 26
0.47595221 0.53404039 1.9995331 93
0.62535793 0.70215636 2.0071244 90
0.79556042 0.89325088 2.0267382 67
0.98201001 1.102587 2.0291767 61
1.2003219 1.3476971 2.0347569 50
1.3128409 1.4818228 2.025275 77
1.6103072 1.8175709 2.0396919 37
1.9622618 2.2140458 2.0242622 66
2.4545493 2.7694943 2.0228682 44
3.1928985 3.6013141 2.0328591 39
4.3930097 4.9531932 2.0347321 33
5.5377965 6.2439585 1.6759937 61
3.0041807 3.3860748 0.49853611 3
1.4806023 1.6664786 2.0659051 66
1.8142192 2.0412586 2.0720739 8
2.1950417 2.4697335 2.0265114 64
2.7931948 3.1416352 2.0307724 48
3.7413948 4.2066398 2.0474222 38
5.4538569 6.1298904 2.0696251 27
5.7451663 6.4550405 1.2959291 37
2.0761681 2.3318825 0.21962222 2
0.021225091 0.023072941 1.9991974 78
0.22088617 0.24543042 2.0996087 85
0.28906226 0.32267201 2.1062086 49
0.40815675 0.4562127 2.0029593 86
0.55161697 0.61676049 2.0089202 93
0.70603502 0.78967667 2.0077264 81
0.88760918 0.99275249 2.0284901 60
1.0910544 1.2202898 2.0357642 45
0.084521614 0.092163518 1.9960728 89
0.14935963 0.16119435 2.0032918 91
0.34434029 0.38341197 2.0202737 35
0.47781348 0.53237575 1.9995331 91
0.62780511 0.69996923 2.0071244 90
0.80041516 0.89240998 2.0310042 69
0.98585284 1.0991524 2.0291767 63
1.205019 1.3434991 2.0347569 50
1.3180054 1.4772311 2.025275 77
1.6166419 1.8119389 2.0396919 37
1.9699783 2.2071824 2.0242622 66
2.4642022 2.7609096 2.0228682 50
3.2054503 3.590147 2.0328591 39
4.4102736 4.9378285 2.0347321 31
5.5399256 6.2026076 1.670398 66
2.9927557 3.3495722 0.49541265 9
1.4988608 1.6752154 2.0825293 75
1.8509862 2.0680435 2.1044486 7
2.2007742 2.4588442 2.0239789 64
2.8041441 3.131866 2.0307724 54
3.7560561 4.1935539 2.0474222 37
5.4784632 6.1144347 2.0707972 30
5.7412214 6.4054451 1.2904106 41
2.1009707 2.3432195 0.2206299 2
0.021305501 0.022998711 1.9991974 78
0.22174154 0.24465789 2.0996087 85
0.29018685 0.32166106 2.1062086 46
0.40974674 0.45478517 2.0029593 86
0.55507404 0.61628288 2.0135226 95
0.7087872 0.78720737 2.0077264 81
0.89106911 0.98964822 2.0284901 60
1.0953074 1.2164739 2.0357642 45
0.084842801 0.091867931 1.9960728 89
0.1499214 0.16067201 2.0032918 91
0.34398901 0.38034195 2.0105951 39
0.47966892 0.53070468 1.9995331 91
0.63024461 0.69777352 2.0071244 93
0.80352533 0.88961059 2.0310042 69
0.98968357 1.0957044 2.0291767 63
1.2097013 1.3392845 2.0347569 49
1.323154 1.4726216 2.025275 75
1.6229569 1.8062847 2.0396919 38
1.9776709 2.2002928 2.0242622 66
2.4738243 2.7522912 2.0228682 50
3.2148631 3.5754888 2.0309861 39
4.424274 4.9188366 2.033323 29
5.5418324 6.1613188 1.6648023 72
3.0310774 3.3687215 0.49898234 77
1.4922005 1.6561016 2.0659051 48
1.8663124 2.0705769 2.1132779 7
2.2093437 2.4511471 2.0239789 65
2.8150592 3.1220584 2.0307724 60
3.7706711 4.1804175 2.0474222 37
5.5030289 6.0988827 2.0719695 33
5.7336817 6.3522801 1.2842022 52
2.1057892 2.3321636 0.22042835 2
0.02138165 0.022927932 1.9991974 78
0.22255164 0.24392121 2.0996087 83
0.29125193 0.32069698 2.1062086 46
0.41125259 0.45342392 2.0029593 84
0.55711466 0.61443883 2.0135226 95
0.71139377 0.78485262 2.0077264 79
0.89434606 0.98668784 2.0284901 60
1.0993354 1.2128351 2.0357642 45
0.08513099 0.091600932 1.9960728 88
0.15042542 0.16020022 2.0032918 91
0.3443355 0.37832925 2.0057559 49
0.48133379 0.52919513 1.9995331 91
0.63255507 0.69567972 2.0071244 90
0.80647099 0.88694113 2.0310042 69
0.99331164 1.0924165 2.0291767 63
1.2139027 1.3354776 2.0347569 47
1.3280301 1.4682257 2.025275 69
1.6315494 1.80378 2.0428298 38
1.9849564 2.1937222 2.0242622 66
2.4829373 2.7440724 2.0228682 50
3.2260799 3.5653713 2.0309861 40
4.4397054 4.9049129 2.033323 23
5.5424504 6.1210589 1.6592065 76
3.0589485 3.3771064 0.50121343 23
1.4951752 1.6483783 2.0625803 44
1.8786007 2.0703633 2.1191642 7
2.2170331 2.4441941 2.0239789 65
2.8248534 3.1131995 2.0307724 59
3.780612 4.1650543 2.0457797 39
5.5221624 6.0815639 2.0719695 44
5.7336321 6.312242 1.2800634 52
2.1097457 2.3218389 0.22022682 2
0.021461554 0.022853158 1.9991974 78
0.22340171 0.24314287 2.0996087 83
0.2923696 0.31967837 2.1062086 44
0.41283283 0.45198563 2.0029593 84
0.55925602 0.61249036 2.0135226 95
0.71412909 0.78236461 2.0077264 79
0.89778477 0.98355997 2.0284901 56
1.1035622 1.2089902 2.0357642 43
0.085466161 0.091288298 1.9960728 89
0.15101157 0.15964781 2.0032918 91
0.34571984 0.37706462 2.0057559 60
0.48327014 0.52742743 1.9995331 91
0.63497961 0.69346744 2.0071244 90
0.80956209 0.88412058 2.0310042 71
0.99711883 1.0889425 2.0291767 63
1.2187895 1.3310195 2.0347569 47
1.333147 1.463581 2.025275 48
1.6404572 1.8009516 2.0459676 38
1.9926018 2.18678 2.0242622 66
2.492501 2.7353885 2.0228682 50
3.239126 3.5535233 2.0309861 41
4.457653 4.8886075 2.033323 19
5.5439243 6.0798965 1.6536108 73
3.0673621 3.3627288 0.50076717 6
1.4958829 1.6376346 2.0559306 39
1.8858161 2.0637929 2.1191642 7
2.2259769 2.4360518 2.0239789 65
2.8362451 3.1028249 2.0307724 58
3.7958524 4.1511698 2.0457797 38
5.5345745 6.0505252 2.0684528 61
5.7400136 6.2729168 1.2766142 54
2.1148682 2.3104057 0.2200253 2
0.021541195 0.022778105 1.9991974 80
0.22424908 0.24236159 2.0996087 83
0.29279384 0.31790692 2.1013131 42
0.41440803 0.45054182 2.0029593 84
0.56006825 0.60909635 2.0089202 95
0.71847701 0.78163087 2.012115 79
0.90121251 0.98042011 2.0284901 56
1.1077757 1.2051308 2.0357642 45
0.085784294 0.090989418 1.9960728 89
0.15156794 0.15911971 2.0032918 91
0.34618062 0.37493148 2.0009167 62
0.48510826 0.52573723 1.9995331 91
0.6373964 0.69124669 2.0071244 90
0.81264323 0.8812893 2.0310042 71
1.0009139 1.0854554 2.0291767 59
1.2234281 1.326757 2.0347569 49
1.3406585 1.4615467 2.0287795 37
1.6493651 1.7980832 2.0491054 39
2.0002229 2.1798115 2.0242622 66
2.5020342 2.7266717 2.0228682 50
3.2515104 3.5421948 2.0309861 39
4.4746904 4.8730178 2.033323 19
5.5451789 6.0387979 1.6480151 74
3.0891879 3.363004 0.50210577 6
1.4990619 1.6296546 2.0526056 39
1.8930087 2.0571978 2.1191642 9
2.2344668 2.4282668 2.0239789 66
2.8470588 3.0929055 2.0307724 55
3.8103197 4.1378946 2.0457797 38
5.5457807 6.020443 2.0649357 72
5.7450953 6.2346334 1.2731652 57
2.12292 2.3030093 0.2200253 2
0.021620575 0.022702772 1.9991974 80
0.22509372 0.24157733 2.0996087 83
0.29390174 0.31688297 2.1013131 40
0.41597819 0.44909254 2.0029593 84
0.56219095 0.60713768 2.0089202 95
0.721201 0.77911812 2.012115 79
0.90462935 0.97726834 2.0284901 60
1.1119756 1.2012565 2.0357642 42
0.086101383 0.090689413 1.9960728 89
0.15212244 0.15858968 2.0032918 91
0.3474873 0.37372079 2.0009167 62
0.4869405 0.5240407 1.9995331 93
0.63980544 0.68901759 2.0071244 92
0.8157146 0.87844735 2.0310042 69
1.0046967 1.081955 2.0291767 61
1.2257452 1.3199942 2.0310817 47
1.3457521 1.456858 2.0287795 23
1.6609145 1.7980341 2.0553811 39
2.0078197 2.172816 2.0242622 66
2.5115368 2.7179213 2.0228682 50
3.2638552 3.5308235 2.0309861 39
4.491673 4.8573685 2.033323 21
5.5495486 6.0013719 1.6433519 76
3.1042905 3.3558562 0.50255203 6
1.5022036 1.6216723 2.0492809 40
1.9029255 2.0535421 2.1221075 12
2.2429292 2.4204524 2.0239789 65
2.8578374 3.0829489 2.0307724 55
3.8215289 4.1211061 2.0441368 38
5.5535402 5.9867949 2.0602465 79
5.7466121 6.1927605 1.2690263 57
2.1139519 2.2772772 0.21901764 2
0.021699689 0.022627164 1.9991974 82
0.22646739 0.24135664 2.104548 83
0.2950061 0.31585515 2.1013131 42
0.41754329 0.44763774 2.0029593 84
0.5643068 0.6051715 2.0089202 93
0.72391635 0.77659595 2.012115 79
0.90803522 0.97410458 2.0284901 60
1.1161619 1.1973677 2.0357642 42
0.086417422 0.090388313 1.9960728 88
0.15267509 0.15805769 2.0032918 91
0.34964943 0.37342367 2.0057559 64
0.48876673 0.52233773 1.9995331 91
0.64220655 0.68677998 2.0071244 93
0.81877595 0.87559456 2.0310042 69
1.0084673 1.0784411 2.0291767 63
1.2303451 1.3157074 2.0310817 45
1.3532583 1.4547627 2.032284 18
1.675135 1.8007761 2.0647943 66
2.0153921 2.1657941 2.0242622 66
2.521009 2.7091377 2.0228682 46
3.2761602 3.5194089 2.0309861 39
4.5118704 4.845171 2.0347321 23
5.5503778 5.9603939 1.6377563 77
nan nan nan 0
1.5078552 1.6164188 2.0492809 39
1.9100822 2.0468876 2.1221075 16
2.2513647 2.4126084 2.0239789 65
2.8654845 3.0696366 2.0286746 55
3.8358912 4.1077409 2.0441368 39
5.5544958 5.9460611 2.0532124 88
5.7479067 6.1509547 1.2648873 57
2.1662397 2.3173294 0.22163755 2
0.021778543 0.02255128 1.9991974 77
0.22730848 0.24056463 2.104548 82
0.29610685 0.31482342 2.1013131 40
0.41910332 0.44617754 2.0029593 84
0.56641585 0.60319805 2.0089202 93
0.72662264 0.77406424 2.012115 81
0.91142988 0.97092903 2.0284901 62
1.1203347 1.1934643 2.0357642 45
0.086732402 0.090086102 1.9960728 88
0.1532259 0.15752378 2.0032918 93
0.35095081 0.37220091 2.0057559 62
0.49058709 0.52062845 1.9995331 93
0.64459997 0.68453419 2.0071244 90
0.82182735 0.87273115 2.0310042 69
1.0122255 1.0749145 2.0291767 63
1.2349304 1.3114048 2.0310817 47
1.3607662 1.4526328 2.0357888 18
1.689395 1.803441 2.0742075 67
2.0229399 2.158746 2.0242622 66
2.527421 2.6970887 2.0205503 39
3.2884254 3.5079513 2.0309861 38
4.5287557 4.829392 2.0347321 28
5.5509892 5.9194841 1.6321607 76
nan nan nan 0
1.5109315 1.6084238 2.0459561 39
1.9255195 2.0490439 2.1309371 18
2.2597725 2.4047351 2.0239789 65
2.8761821 3.0596154 2.0286746 53
3.8469713 4.0908866 2.0424941 38
5.5585651 5.9089336 2.0473509 88
5.7489805 6.1092148 1.2607485 57
2.1811643 2.3170292 0.22204059 2
0.021857128 0.022475122 1.9991974 77
0.22814685 0.23976971 2.104548 82
0.29720396 0.31378788 2.1013131 40
0.41963181 0.44362688 1.9981875 84
0.56851792 0.60121727 2.0089202 91
0.72767448 0.76978213 2.0077264 79
0.91481352 0.96774161 2.0284901 60
1.124494 1.1895463 2.0357642 43
0.08704634 0.089782804 1.9960728 89
0.15377481 0.15698798 2.0032918 93
0.35224786 0.37097356 2.0057559 62
0.49240142 0.51891285 1.9995331 93
0.64698553 0.68227988 2.0071244 88
0.8248688 0.86985707 2.0310042 71
1.0159715 1.0713745 2.0291767 61
1.2395006 1.307086 2.0310817 49
1.3682756 1.4504681 2.0392931 24
1.6823232 1.7833743 2.0585186 50
2.0275931 2.1486304 2.0215206 66
2.5398607 2.6914718 2.0228682 37
3.3038328 3.4998226 2.0328591 31
4.5422921 4.8100662 2.033323 30
5.5547547 5.8822141 1.6274976 76
nan nan nan 0
1.5165367 1.6031399 2.0459561 39
1.9243252 2.0335026 2.1221075 18
2.2681527 2.3968322 2.0239789 65
2.8868446 3.049557 2.0286746 49
3.8579803 4.0740037 2.0408514 38
5.5591011 5.8683228 2.0403171 89
5.7498322 6.0675416 1.2566097 58
2.1961131 2.3166528 0.22244367 5
0.021935448 0.022398688 1.9991974 78
0.2289824 0.23897186 2.104548 82
0.29829746 0.31274858 2.1013131 40
0.42117783 0.44215938 1.9981875 84
0.57061315 0.59922904 2.0089202 91
0.73035711 0.76723742 2.0077264 77
0.91818601 0.96454245 2.0284901 60
1.1286395 1.1856138 2.0357642 43
0.087359205 0.089478418 1.9960728 89
0.15432186 0.15645026 2.0032918 93
0.35354069 0.36974174 2.0057559 64
0.49420977 0.51719087 1.9995331 91
0.64936322 0.68001735 2.0071244 88
0.82790011 0.86697251 2.0310042 69
1.0197052 1.0678217 2.0291767 61
1.2440555 1.3027514 2.0310817 47
1.3757865 1.4482685 2.0427978 28
1.6858572 1.7746687 2.0553811 54
2.0350809 2.1415393 2.0215206 66
2.5492399 2.6825898 2.0228682 37
3.3032527 3.4748285 2.0253668 17
4.5590549 4.7941818 2.033323 31
5.5549431 5.8414307 1.6219018 76
2.6222451 2.7565217 0.43383569 2
1.5221235 1.5978365 2.0459561 38
1.9230464 2.0179946 2.1132779 16
2.2765055 2.3889003 2.0239789 65
2.8974719 3.0394616 2.0286746 45
3.86566 4.0536766 2.0375662 35
5.5594211 5.8277802 2.033283 86
5.7504635 6.0259385 1.2524706 56
2.2041864 2.3089728 0.22244367 5
0.0220135 0.022321984 1.9991974 77
0.22981519 0.23817113 2.104548 80
0.29938737 0.31170541 2.1013131 42
0.42271867 0.44068652 1.9981875 84
0.57270133 0.59723359 2.0089202 91
0.73303074 0.76468331 2.0077264 79
0.92154723 0.96133155 2.0284901 58
1.132771 1.1816669 2.0357642 45
0.087671012 0.08917293 1.9960728 89
0.15486704 0.15591061 2.0032918 93
0.35482916 0.36850542 2.0057559 66
0.49601209 0.51546264 1.9995331 91
0.65173292 0.67774653 2.0071244 88
0.83092141 0.86407733 2.0310042 67
1.0234263 1.0642557 2.0291767 63
1.2509453 1.3008444 2.0347569 49
1.3832986 1.4460344 2.0463023 35
1.6866596 1.7631472 2.0491054 37
2.0425439 2.1344228 2.0215206 66
2.5585887 2.6736748 2.0228682 38
3.3185675 3.4666259 2.02724 9
4.572444 4.7747741 2.031914 31
5.5549145 5.8007178 1.6163061 77
2.6525214 2.768929 0.43651295 3
1.5276917 1.5925136 2.0459561 38
1.9216828 2.0025203 2.1044486 13
2.2848303 2.380939 2.0239789 65
2.9112072 3.032603 2.0307724 35
3.873244 4.0333462 2.0342808 30
5.5628939 5.7908125 2.0274215 86
5.7508745 5.9844046 1.2483318 56
nan nan nan 0
0.022091284 0.022245005 1.9991974 77
0.23064515 0.23736748 2.104548 80
0.3004736 0.31065845 2.1013131 40
0.42425439 0.43920827 1.9981875 84
0.57478255 0.59523088 2.0089202 91
0.73569566 0.76211995 2.0077264 79
0.92489743 0.9581089 2.0284901 60
1.136889 1.1777058 2.0357642 45
0.087981753 0.088866346 1.9960728 89
0.15541032 0.15536907 2.0032918 93
0.35611334 0.36726457 2.0057559 67
0.49780837 0.51372802 1.9995331 91
0.65409482 0.67546737 2.0071244 88
0.83211815 0.85929793 2.0267382 69
1.0271351 1.0606768 2.0291767 63
1.2554785 1.2964699 2.0347569 45
1.388338 1.4411969 2.0463023 39
1.6901031 1.7544452 2.0459676 37
2.0499818 2.12728 2.0215206 66
2.5709801 2.6679177 2.0251863 38
3.3660407 3.4917343 2.0478432 5
4.5890832 4.7587838 2.031914 31
5.5546699 5.760076 1.6107104 78
2.6794584 2.7775738 0.43874401 3
1.5332412 1.5871712 2.0459561 39
1.9202348 1.9870807 2.095619 11
2.2931275 2.3729494 2.0239789 65
2.9217753 3.0224226 2.0307724 30
3.880734 4.0130119 2.0309954 22
5.5661755 5.7538919 2.02156 86
5.7510667 5.9429421 1.244193 55
nan nan nan 0
0.0221688 0.022167757 1.9991974 78
0.2314723 0.23656091 2.104548 82
0.30155617 0.30960771 2.1013131 40
0.42578492 0.43772468 1.9981875 84
0.57549489 0.5918203 2.0043178 91
0.73835146 0.75954723 2.0077264 77
0.92823619 0.95487452 2.0284901 58
1.140993 1.17373 2.0357642 42
0.088291422 0.088558704 1.9960728 89
0.15595172 0.15482564 2.0032918 93
0.35739312 0.36601928 2.0057559 66
0.49959859 0.51198727 1.9995331 93
0.6564486 0.67318004 2.0071244 88
0.83511257 0.85638809 2.0267382 69
1.0308312 1.0570849 2.0291767 63
1.2599964 1.2920796 2.0347569 47
1.3933603 1.436342 2.0463023 39
1.6935065 1.7457411 2.0428298 38
