# .PCD v0.7 - Point Cloud Data file format
VERSION 0.7
FIELDS x y z intensity
SIZE 4 4 4 4
TYPE F F F F
COUNT 1 1 1 1
WIDTH 1396
HEIGHT 1
VIEWPOINT 0 0 0 1 0 0 0
POINTS 1396
DATA ascii
-0.029206898 0.011393958 1.9991974 49
-0.2943657 0.11115181 2.0008237 95
-0.3884725 0.14566931 2.0180943 91
-0.48938641 0.18314406 1.7166559 38
-0.5517683 0.20638824 1.447412 40
-0.99220294 0.37095565 2.0077264 81
-1.2368206 0.46241719 2.0119584 75
-1.5212487 0.5687632 2.0204165 76
-0.11630078 0.045164254 1.9910811 73
-0.20543137 0.080995962 2.0132346 89
-0.47994924 0.18065766 2.0105951 97
-0.48867083 0.18375461 1.4739432 33
-0.88224465 0.3314217 2.0116253 93
-1.1124365 0.41790199 2.0139403 87
-1.4301469 0.53726095 2.0969982 23
-1.6799301 0.63110125 2.0237315 85
-1.8584322 0.6926136 2.0287795 25
-2.2535281 0.83986521 2.0208654 73
-2.748502 1.0248842 2.0078135 39
-3.4591377 1.289876 2.0182323 15
-4.7004046 1.753667 2.1152725 8
-6.3598714 2.3740604 2.084054 8
-9.9128532 3.7003458 2.1003361 36
-9.9228601 3.7060544 1.0420197 47
-2.0492878 0.76700711 2.0293317 28
-2.4780216 0.92796773 2.0102675 62
nan nan nan 0
-3.9705403 1.4876814 2.0475569 32
-5.3289747 1.997721 2.0687771 15
-7.7186813 2.8951097 2.0790036 15
-9.9079847 3.7182431 1.5663369 54
-9.7562065 3.6632271 0.51405889 24
-0.02916494 0.011500929 1.9991974 51
-0.29395634 0.11222996 2.0008237 95
-0.387936 0.14709215 2.0180943 91
-0.4901087 0.18546517 1.7214276 38
-0.55100816 0.20840916 1.447412 40
-0.99083668 0.37458974 2.0077264 81
-1.2377497 0.46794242 2.0160913 79
-1.5221525 0.57546872 2.0242534 78
-0.11640382 0.045696478 1.9960728 73
-0.20513313 0.081748351 2.0132346 91
-0.48045942 0.18286304 2.0154345 97
-0.48799402 0.18554445 1.4739432 34
-0.88096559 0.33480683 2.0116253 93
-1.1108239 0.42217034 2.0139403 87
-1.4308909 0.54381913 2.1009874 25
-1.6774945 0.63754702 2.0237315 85
-1.8558811 0.69942045 2.0287795 25
-2.2504346 0.84811914 2.0208654 73
-2.7408149 1.0334759 2.0050719 37
-2.2563937 0.85081744 1.3483224 4
-4.6982832 1.7725196 2.1171455 7
-6.3601041 2.400743 2.0868723 8
-9.9123583 3.7435877 2.1031337 34
-9.9225321 3.7494087 1.0433584 40
-2.0463276 0.77487004 2.0293317 39
-2.4593208 0.93174762 1.9984947 48
-2.348069 0.88960081 1.5605448 4
-3.9647989 1.5029161 2.0475569 30
-5.3212643 2.018168 2.0687771 15
-7.7029638 2.9230018 2.0778313 13
-9.9035482 3.7580462 1.5677165 52
-9.7520561 3.7025073 0.51446199 16
-0.029124618 0.011602664 1.9991974 51
-0.2935628 0.11325537 2.0008237 93
-0.38742018 0.1484454 2.0180943 89
-0.48945829 0.18717484 1.7214276 38
-0.55027729 0.21033128 1.447412 40
-0.98952305 0.37804615 2.0077264 81
-1.2361088 0.47226012 2.0160913 75
-1.5201344 0.58077848 2.0242534 78
-0.1162436 0.046102524 1.9960728 75
-0.20484652 0.082463898 2.0132346 91
-0.4798182 0.18453903 2.0154345 97
-0.48895431 0.18786575 1.4786361 35
-0.87985057 0.33772638 2.0116253 95
-1.1094177 0.4258517 2.0139403 87
-1.4290797 0.54856116 2.1009874 29
-1.6753711 0.64310634 2.0237315 85
-1.8534286 0.70589447 2.0287795 29
-2.2474606 0.85596949 2.0208654 73
-2.7332833 1.0415478 2.0023305 35
-2.2202914 0.84606826 1.3297782 2
-4.6963987 1.7905601 2.1190186 6
-6.3561673 2.4246392 2.0882816 9
-9.9090691 3.7799394 2.1049991 30
-9.9240026 3.7876198 1.044697 37
-2.0437467 0.78165168 2.0293317 66
-2.4260173 0.92834139 1.9749495 36
-2.3410797 0.8958416 1.5580124 4
-3.9597933 1.5160557 2.0475569 27
-5.3145432 2.0358028 2.0687771 16
-7.6977668 2.9502687 2.0790036 13
-9.9088669 3.799686 1.5704758 72
-9.7530651 3.7418945 0.51506656 31
-0.029083937 0.011704258 1.9991974 51
-0.29316568 0.1142794 2.0008237 93
-0.38784915 0.15016456 2.0229895 87
-0.49019507 0.18942063 1.7261993 38
-0.54953974 0.21225084 1.447412 40
-0.98819739 0.38149792 2.0077264 81
-1.2344527 0.47657207 2.0160913 75
-1.5180979 0.58608121 2.0242534 78
-0.11608196 0.046508007 1.9960728 77
-0.2045574 0.083178453 2.0132346 91
-0.47917107 0.18621278 2.0154345 97
-0.48829556 0.18957137 1.4786361 36
-0.87866628 0.34079558 2.0116253 95
-1.1079245 0.42972168 2.0139403 89
-1.4271561 0.55354625 2.1009874 32
-1.673116 0.64895052 2.0237315 85
-1.8509532 0.71235979 2.0287795 32
-2.2444589 0.86380941 2.0208654 73
-2.7257288 1.0495797 1.999589 33
nan nan nan 0
-4.6901202 1.8069427 2.1190186 7
-6.361094 2.4519877 2.0925093 8
-9.9095659 3.8198059 2.1077969 29
-9.9246607 3.8276141 1.0460356 38
-2.0410058 0.78878093 2.0293317 79
-2.4152219 0.93388855 1.9690632 37
-2.3339171 0.90245324 1.55548 4
-3.9544771 1.5298687 2.0475569 27
-5.303 2.0526371 2.0671344 18
-7.696486 2.9806318 2.0813482 11
-9.9093952 3.8396187 1.5725453 58
-9.7539186 3.7813334 0.51567113 28
-0.029044963 0.011800639 1.9991974 51
-0.29278508 0.11525095 2.0008237 93
-0.38734907 0.15144987 2.0229895 87
-0.48956421 0.19104512 1.7261993 38
-0.54883289 0.21407199 1.447412 40
-0.98692685 0.38477281 2.0077264 83
-1.2354872 0.48168522 2.0202241 81
-1.519133 0.59227681 2.0280902 73
-0.11593529 0.046872463 1.9960728 78
-0.20429508 0.083820671 2.0132346 89
-0.47858369 0.18771721 2.0154345 96
-0.48930427 0.19173412 1.4833288 37
-0.87753129 0.34370744 2.0116253 93
-1.1064932 0.43339333 2.0139403 89
-1.4281189 0.55937505 2.1049771 35
-1.671069 0.65420359 2.0237315 83
-1.8519046 0.71978581 2.032284 37
-2.2415822 0.87124753 2.0208654 73
-2.7183363 1.0570974 1.9968475 34
-3.4696939 1.349287 2.0344584 17
-4.6541758 1.8099066 2.1059072 8
-6.3623013 2.4754388 2.0953276 7
-9.9059982 3.85621 2.1096621 25
-9.9304743 3.8677337 1.0478204 37
-2.038379 0.79554486 2.0293317 81
-2.4347024 0.95071399 1.9867221 48
-2.2427142 0.87529671 1.4997666 5
-3.9496512 1.5422845 2.0475569 29
-5.2965255 2.0692868 2.0671344 14
-7.700666 3.0101051 2.0848651 10
-9.9157324 3.8779459 1.5753045 55
-9.7559481 3.8174188 0.5162757 24
-0.029003596 0.011901952 1.9991974 53
-0.29238099 0.11627226 2.0008237 93
-0.38681802 0.15280107 2.0229895 87
-0.48889437 0.19275285 1.7261993 38
-0.54808229 0.21598649 1.447412 40
-0.98557776 0.38821548 2.0077264 83
-1.2337984 0.48599496 2.0202241 81
-1.5170563 0.59757596 2.0280902 73
-0.11603059 0.047407039 2.0010643 78
-0.2039865 0.084568888 2.0132346 89
-0.47789246 0.18947005 2.0154345 96
-0.48859823 0.19352622 1.4833288 37
-0.8763262 0.34676853 2.0116253 93
-1.1049738 0.43725309 2.0139403 87
-1.4261577 0.56435668 2.1049771 37
-1.6718123 0.66157138 2.0274065 83
-1.8493809 0.72624576 2.032284 42
-2.2385273 0.87906677 2.0208654 64
-2.7107379 1.0650506 1.9941061 34
-3.4484694 1.35491 2.0251863 13
-4.6259379 1.8184727 2.0965421 8
-6.3576493 2.5004969 2.0967369 6
-9.9016209 3.8943608 2.1115274 35
-9.9354506 3.9096687 1.0496054 41
-2.0321157 0.80128551 2.0260069 81
-2.4388888 0.96217364 1.9926084 52
-2.2555323 0.88983941 1.5098963 11
-3.9439719 1.5567503 2.0475569 33
-5.2845135 2.086951 2.0654917 13
-7.6986227 3.0418813 2.0872097 10
-9.9198742 3.9215453 1.5780638 48
-9.7558279 3.8586631 0.51688033 27
-0.028961875 0.012003122 1.9991974 51
-0.2926943 0.11758197 2.0057628 93
-0.38533664 0.15377291 2.0180943 89
-0.48960608 0.19501098 1.730971 38
-0.54732507 0.21789832 1.447412 39
-0.98421663 0.39165345 2.0077264 81
-1.2320944 0.49029875 2.0202241 81
-1.5149611 0.60286784 2.0280902 80
-0.11586439 0.047811776 2.0010643 80
-0.20319781 0.085073605 2.0082631 91
-0.47722819 0.19113706 2.0154345 96
-0.48952189 0.1958717 1.4880216 38
-0.87308836 0.34901699 2.0071244 93
-1.1034408 0.44110748 2.0139403 87
-1.4241792 0.56933147 2.1049771 38
-1.6694928 0.66740304 2.0274065 85
-1.8468344 0.73269689 2.032284 58
-2.235445 0.88687533 2.0208654 64
-2.7070036 1.0745063 1.9941061 30
-3.4437189 1.3669392 2.0251863 12
-4.5980191 1.8260535 2.087177 9
-6.3577991 2.526217 2.0995553 6
-9.9016619 3.9343419 2.1143253 34
-9.9448814 3.9535246 1.0518364 33
-2.0293064 0.80837405 2.0260069 81
-2.4542894 0.97816348 2.0073245 48
-3.0573938 1.2185365 2.018914 39
-3.938514 1.5705079 2.0475569 32
-5.27281 2.1036348 2.063849 13
-7.6969867 3.07234 2.0895545 14
-9.9153223 3.9598215 1.5794433 46
-9.756218 3.8982551 0.51748496 25
-0.028879788 0.01208674 1.9941976 51
-0.29228204 0.11860295 2.0057628 93
-0.38479751 0.15511703 2.0180943 91
-0.48892236 0.19671883 1.730971 38
-0.54656106 0.21980752 1.447412 39
-0.98284352 0.39508659 2.0077264 81
-1.2277646 0.49354702 2.0160913 81
-1.5098729 0.6069566 2.0242534 78
-0.11569679 0.048215929 2.0010643 82
-0.20289961 0.085782379 2.0082631 91
-0.47539207 0.19232994 2.0105951 96
-0.49043509 0.19822599 1.4927144 38
-0.87186474 0.35206252 2.0071244 95
-1.1018943 0.44495654 2.0139403 89
-1.4249777 0.57542783 2.1089666 39
-1.6671529 0.67322659 2.0274065 85
-1.8442657 0.73913908 2.032284 64
-2.2323356 0.89467311 2.0208654 56
-2.7032366 1.083949 1.9941061 23
-3.4389265 1.3789517 2.0251863 12
-4.5571966 1.8282834 2.0721927 10
-6.3533945 2.5501814 2.1009643 7
-9.9015436 3.9743705 2.1171229 27
-9.9402628 3.9919262 1.0527288 28
-2.0264723 0.81545269 2.0260069 79
-2.4471104 0.98521495 2.0043812 39
-3.069119 1.235642 2.0290439 45
-3.933008 1.5842463 2.0475569 31
-5.2610545 2.1202621 2.0622063 12
-7.695231 3.102824 2.0918989 16
-9.9289951 4.0055246 1.5835823 54
-9.7610817 3.9397664 0.51829106 23
-0.028837422 0.012187475 1.9941976 55
-0.2918663 0.11962248 2.0057628 92
-0.38425371 0.1564593 2.0180943 89
-0.4896163 0.19898665 1.7357427 38
-0.54579049 0.22171403 1.447412 39
-0.98145837 0.39851496 2.0077264 81
-1.2260343 0.49782971 2.0160913 83
-1.5077449 0.61222333 2.0242534 78
-0.11552778 0.04861949 2.0010643 84
-0.20259894 0.08649011 2.0082631 89
-0.47471786 0.19398817 2.0105951 96
-0.48974019 0.19993672 1.4927144 39
-0.8706305 0.35510373 2.0071244 93
-1.1027491 0.44978508 2.0182064 89
-1.4229603 0.58039838 2.1089666 40
-1.6647928 0.67904192 2.0274065 85
-1.8416743 0.74557227 2.032284 64
-2.2291989 0.90245998 2.0208654 56
-2.6994362 1.0933784 1.9941061 21
-3.4381983 1.3926105 2.0275044 15
-4.550787 1.84418 2.0721927 10
-6.3488998 2.574146 2.1023736 7
-9.8967152 4.0126004 2.1189883 22
-9.9216528 4.0247278 1.0522826 32
-2.0201538 0.8211152 2.022682 79
-2.4361682 0.99070579 1.9984947 35
-3.0847554 1.2544682 2.0417061 57
-3.9274538 1.5979654 2.0475569 30
-5.2536211 2.1386137 2.0622063 12
-7.6933565 3.1333337 2.0942435 14
-9.9195395 4.042028 1.5842721 49
-9.7611494 3.9794731 0.51889563 64
-0.028794706 0.012288062 1.9941976 55
-0.29144695 0.12064056 2.0057628 92
-0.38370526 0.15779963 2.0180943 89
-0.49030042 0.20126176 1.7405144 38
-0.54501325 0.22361787 1.447412 39
-0.98006135 0.40193847 2.0077264 81
-1.2242892 0.50210631 2.0160913 83
-1.5055988 0.6174826 2.0242534 78
-0.11535737 0.049022462 2.0010643 84
-0.20229581 0.087196782 2.0082631 91
-0.4740378 0.19564408 2.0105951 95
-0.49063462 0.20230289 1.4974072 39
-0.86938566 0.35814065 2.0071244 93
-1.1011724 0.45363167 2.0182064 89
-1.4209257 0.58536196 2.1089666 42
-1.6592779 0.68355775 2.0237315 85
-1.8390605 0.75199634 2.032284 50
-2.2260354 0.91023576 2.0208654 73
-2.6994734 1.1043779 1.9968475 17
-3.4374161 1.406281 2.0298221 21
-4.5271597 1.8530293 2.0647006 11
-6.3443151 2.5981102 2.1037827 7
-9.8917398 4.0508456 2.1208537 28
-9.9167595 4.0631127 1.053175 37
-2.0172751 0.82816178 2.022682 79
-2.428956 0.99766779 1.9955517 28
-3.0843453 1.2668662 2.0442383 50
-3.9218521 1.611665 2.0475569 30
-5.2461243 2.156939 2.0622063 13
-7.6868668 3.1620181 2.0954158 15
-9.9282656 4.0860519 1.5877212 54
-9.7656765 4.0211306 0.51970178 51
-0.028751636 0.012388499 1.9941976 53
-0.29030722 0.12135731 2.0008237 93
-0.38315204 0.15913805 2.0180943 89
-0.48959488 0.20297201 1.7405144 38
-0.54422933 0.22551893 1.447412 39
-0.98086572 0.40627387 2.012115 83
-1.2225289 0.50637686 2.0160913 81
-1.5004724 0.62150753 2.0204165 76
-0.11518554 0.049424838 2.0010643 86
-0.20199019 0.087902389 2.0082631 91
-0.47335202 0.19729759 2.0105951 95
-0.48992547 0.20401429 1.4974072 39
-0.86813021 0.36117318 2.0071244 93
-1.0995822 0.45747274 2.0182064 89
-1.4216566 0.59147614 2.112956 42
-1.6568817 0.68934548 2.0237315 85
-1.8364245 0.75841129 2.032284 37
-2.2228444 0.91800058 2.0208654 75
-2.6956019 1.1137941 1.9968475 17
-3.4324863 1.4182712 2.0298221 13
-4.5078111 1.8635073 2.0590816 15
-6.3440738 2.6239071 2.1066012 5
-9.8866196 4.0891047 2.1227188 27
nan nan nan 0
-2.0143721 0.8351984 2.022682 79
-2.4217253 1.0045916 1.9926084 23
-3.0719399 1.2743211 2.0391736 40
-3.9203947 1.627085 2.049655 28
-5.2385631 2.1752386 2.0622063 15
-7.6757822 3.1888311 2.0954158 14
nan nan nan 0
-9.7700338 4.0628676 0.52050787 23
-0.028708216 0.012488786 1.9941976 55
-0.28988186 0.12236994 2.0008237 93
-0.38259426 0.16047454 2.0180943 93
-0.49026105 0.20525663 1.7452862 38
-0.54343879 0.22741728 1.447412 39
-0.97944152 0.4096953 2.012115 85
-1.2207539 0.51064116 2.0160913 81
-1.4982939 0.62674141 2.0204165 76
-0.11501232 0.049826607 2.0010643 86
-0.20168214 0.088606931 2.0082631 89
-0.47266039 0.1989487 2.0105951 95
-0.49080107 0.20639223 1.5020999 39
-0.8668642 0.36420131 2.0071244 93
-1.0979786 0.46130818 2.0182064 87
-1.4195833 0.59643507 2.112956 42
-1.6544653 0.69512492 2.0237315 85
-1.8337659 0.764817 2.032284 22
-2.2160337 0.92425561 2.0177276 71
-2.6878383 1.1215864 1.9941061 18
-3.4316034 1.4319504 2.0321403 13
-4.5226698 1.8881617 2.0684466 11
-6.3437285 2.649734 2.1094196 6
-9.8768177 4.1254835 2.1236515 15
-10.205205 4.2647409 1.0839635 38
-2.0114443 0.84222472 2.022682 81
-2.4182038 1.0130389 1.9926084 22
-3.0634966 1.2833705 2.0366411 35
-3.9146912 1.6407597 2.049655 28
-5.2309384 2.1935112 2.0622063 15
-7.6690874 3.2174857 2.0965884 13
-10.219137 4.2894311 1.6360084 41
-9.7603979 4.0988817 0.52070946 16
-0.028664447 0.012588921 1.9941976 56
-0.28945294 0.12338106 2.0008237 93
-0.38203174 0.16180906 2.0180943 91
-0.48954162 0.2069667 1.7452862 38
-0.54444128 0.23007339 1.4520147 38
-0.97800553 0.41311169 2.012115 83
-1.218964 0.51489931 2.0160913 79
-1.496097 0.6319676 2.0204165 78
-0.11483769 0.050227772 2.0010643 88
-0.20137161 0.089310393 2.0082631 91
-0.47196308 0.20059738 2.0105951 95
-0.49007761 0.20810416 1.5020999 39
-0.86759233 0.36807555 2.0116253 95
-1.0963616 0.46513805 2.0182064 87
-1.4174927 0.60138673 2.112956 40
-1.6520288 0.70089585 2.0237315 85
-1.831085 0.77121341 2.032284 22
-2.1984432 0.92594129 2.0051763 64
-2.683907 1.1309619 1.9941061 18
-3.4265842 1.4439203 2.0321403 26
-4.5203228 1.905738 2.0703199 3
-6.3344412 2.6718616 2.1094196 7
-9.8623562 4.1599355 2.1236515 8
-10.199431 4.3042102 1.0848559 32
-2.0084922 0.8492409 2.022682 79
-2.4109306 1.019899 1.9896654 22
-3.0510571 1.2906969 2.0315762 29
-3.9131196 1.6561836 2.051753 25
-5.2275987 2.2135987 2.063849 17
-7.6578093 3.2442362 2.0965884 14
-10.20866 4.3270082 1.636698 39
-9.7644281 4.1407275 0.52151555 47
-0.028620329 0.012688901 1.9941976 56
-0.28902051 0.12439069 2.0008237 93
-0.3814646 0.16314162 2.0180943 91
-0.49018976 0.2092607 1.7500579 38
-0.54363483 0.23197246 1.4520147 38
-0.97435385 0.41558307 2.0077264 81
-1.2171593 0.51915115 2.0160913 79
-1.4938818 0.63718611 2.0204165 78
-0.11466166 0.050628323 2.0010643 88
-0.20154567 0.090231553 2.0132346 91
-0.47125998 0.20224361 2.0105951 95
-0.49093422 0.21049368 1.5067927 39
-0.86630219 0.3711018 2.0116253 95
-1.0947313 0.46896225 2.0182064 85
-1.4181552 0.60751784 2.1169455 39
-1.6495721 0.70665824 2.0237315 83
-1.8283818 0.77760035 2.032284 35
-2.1844509 0.929039 1.9957631 56
nan nan nan 0
-3.4215233 1.4558725 2.0321403 32
-4.5349703 1.9305847 2.0796847 3
-6.3250761 2.6939566 2.1094196 6
-9.8477755 4.1943355 2.1236515 8
-10.207253 4.3495479 1.087087 40
-2.0055156 0.85624665 2.022682 79
-2.4073555 1.0283085 1.9896654 25
-3.0386038 1.2979521 2.0265114 16
-3.9073145 1.6698328 2.051753 24
-5.2241821 2.2336895 2.0654917 23
-7.6464381 3.270947 2.0965884 17
-10.193494 4.3626165 1.636698 44
-9.8509541 4.2180505 0.52594924 39
-0.028575864 0.012788728 1.9941976 56
-0.28858453 0.1253988 2.0008237 93
-0.38089281 0.16447218 2.0180943 91
-0.4894563 0.21097052 1.7500579 38
-0.54282176 0.23386869 1.4520147 38
-0.97289723 0.41898167 2.0077264 81
-1.2153397 0.52339661 2.0160913 81
-1.4945929 0.6436649 2.0242534 76
-0.11448424 0.051028259 2.0010643 88
-0.20122945 0.09093453 2.0132346 91
-0.47055113 0.20388739 2.0105951 95
-0.49019647 0.21220608 1.5067927 39
-0.86500156 0.37412351 2.0116253 93
-1.0930877 0.4727807 2.0182064 87
-1.4160259 0.61246443 2.1169455 38
-1.6502069 0.71375781 2.0274065 86
-1.8256564 0.78397787 2.032284 42
-2.1597328 0.92744207 1.9769365 37
-2.0228298 0.86907041 1.5280567 4
-3.4164202 1.4678068 2.0321403 31
-4.5154262 1.9409106 2.0740657 24
-6.3068194 2.7122283 2.1066012 7
-9.8285618 4.2267447 2.1227188 9
-10.22403 4.3989291 1.0902104 39
-2.0025146 0.86324203 2.022682 81
-2.4037514 1.0367055 1.9896654 29
-3.0261369 1.3051362 2.0214465 11
-3.9014618 1.6834618 2.051753 24
-5.2163529 2.2519116 2.0654917 23
-7.6305113 3.2956908 2.0954158 18
-10.19184 4.4040656 1.6387675 51
-10.047112 4.3436069 0.53521967 33
-0.028531048 0.012888398 1.9941976 56
-0.28814507 0.12640539 2.0008237 93
-0.38031635 0.16580074 2.0180943 91
-0.49008635 0.21327378 1.7548296 38
-0.54021066 0.23498268 1.447412 38
-0.97142875 0.42237517 2.0077264 81
-1.2135053 0.52763575 2.0160913 81
-1.492337 0.64887804 2.0242534 78
-0.11430541 0.051427573 2.0010643 88
-0.20091084 0.091636397 2.0132346 89
-0.46983656 0.20552868 2.0105951 95
-0.49103397 0.21460703 1.5114855 39
-0.86369032 0.37714061 2.0116253 93
-1.0914307 0.47659341 2.0182064 87
-1.4138794 0.61740351 2.1169455 37
-1.6477053 0.71951371 2.0274065 85
-1.8229086 0.79034579 2.032284 66
-2.1600535 0.9365238 1.9800742 37
-2.019784 0.87612617 1.5280567 4
-3.4112761 1.4797235 2.0321403 33
-4.5001187 1.9529694 2.0703199 26
-6.2885127 2.7304053 2.1037827 8
-9.8092422 4.2590704 2.1217861 9
-10.217749 4.4385595 1.0911028 38
-1.9994891 0.87022686 2.022682 79
-2.4038241 1.0467035 1.9926084 39
-3.0176101 1.3139703 2.018914 10
-3.8997226 1.6988826 2.0538511 25
-5.2127895 2.2719932 2.0671344 23
-7.6189604 3.3223062 2.0954158 22
-10.199101 4.4495153 1.6422166 58
-10.21962 4.4605904 0.54348242 56
-0.028485883 0.012987912 1.9941976 56
-0.28770205 0.12741043 2.0008237 93
-0.37973529 0.16712728 2.0180943 93
-0.49070629 0.21558401 1.7596014 38
-0.53938705 0.23686697 1.447412 38
-0.96994859 0.42576352 2.0077264 81
-1.2116561 0.53186852 2.0160913 79
-1.490063 0.65408331 2.0242534 78
-0.11412521 0.051826261 2.0010643 89
-0.20058973 0.092337146 2.0132346 89
-0.46911627 0.20716746 2.0105951 93
-0.49028185 0.21631977 1.5114855 39
-0.86236858 0.38015315 2.0116253 95
-1.0897604 0.48040029 2.0182064 87
-1.4144735 0.62355089 2.1209352 36
-1.6451837 0.72526097 2.0274065 83
-1.8201387 0.79670411 2.032284 75
-2.16747 0.94874114 1.9894875 54
-1.982241 0.86807483 1.5033835 4
-3.4060903 1.4916221 2.0321403 33
-4.4847813 1.964945 2.0665736 22
-6.2701559 2.7484882 2.1009643 8
-9.780818 4.2873688 2.1189883 10
-10.220435 4.4821992 1.0928876 38
-1.9964392 0.87720108 2.022682 73
-2.4001555 1.0550879 1.9926084 56
-3.0090582 1.3227607 2.0163815 10
-3.8937688 1.712485 2.0538511 27
-5.2091498 2.2920775 2.0687771 23
-7.607317 3.3488812 2.0954158 23
-10.201635 4.4930744 1.6449759 51
-10.222275 4.5042949 0.54428858 56
-0.028440375 0.013087267 1.9941976 60
-0.28725556 0.12841392 2.0008237 93
-0.37914959 0.16845179 2.0180943 93
-0.48995078 0.21729557 1.7596014 38
-0.53855699 0.23874831 1.447412 39
-0.97064674 0.43011728 2.012115 83
-1.2123648 0.53723472 2.0202241 81
-1.4877707 0.6592806 2.0242534 78
-0.1139436 0.052224316 2.0010643 89
-0.2002662 0.093036771 2.0132346 89
-0.46839029 0.20880371 2.0105951 93
-0.49110013 0.21873201 1.5161781 39
-0.86103642 0.38316107 2.0116253 95
-1.0880769 0.48420131 2.0182064 87
-1.4122883 0.62848455 2.1209352 34
-1.6426421 0.73099929 2.0274065 83
-1.8173466 0.80305278 2.032284 75
-2.1677058 0.95787466 1.9926252 60
-1.9753743 0.87329811 1.5006422 4
-3.4008625 1.5035025 2.0321403 35
-4.4736552 1.9787124 2.0647006 18
-6.2473631 2.7645342 2.0967369 7
-9.7523174 4.3155212 2.1161904 11
-10.218389 4.5238957 1.0942264 34
-1.993365 0.88416457 2.022682 71
-2.3964581 1.0634598 1.9926084 60
-3.0004823 1.3315074 2.0138493 11
-3.8877673 1.7260664 2.0538511 28
-5.2011175 2.3102467 2.0687771 29
-7.6000228 3.3773892 2.0965884 20
-10.203991 4.536705 1.6477351 50
-10.211054 4.5419807 0.5444901 56
-0.028394518 0.013186462 1.9941976 60
-0.28680557 0.12941584 2.0008237 93
-0.37855929 0.16977425 2.0180943 93
-0.4905524 0.21961482 1.7643731 38
-0.53772032 0.24062678 1.447412 39
-0.96913946 0.43350285 2.012115 83
-1.2104821 0.54146343 2.0202241 77
-1.4854603 0.6644699 2.0242534 78
-0.11376061 0.052621737 2.0010643 88
-0.19945708 0.09350802 2.0082631 91
-0.46765858 0.21043742 2.0105951 93
-0.49033362 0.22044496 1.5161781 39
-0.85969365 0.38616431 2.0116253 95
-1.0863801 0.48799649 2.0182064 89
-1.4100859 0.63341051 2.1209352 31
-1.6400805 0.73672867 2.0274065 85
-1.8145323 0.80939156 2.032284 71
-2.1714592 0.96860713 1.9989008 64
-1.964677 0.87677991 1.4951591 6
-3.3996391 1.5171701 2.0344584 37
-4.4624877 1.9924265 2.0628276 18
-6.2245345 2.7804551 2.0925093 10
-9.7282238 4.3455296 2.1143253 10
-10.216175 4.5656328 1.0955648 50
-1.9902666 0.89111733 2.022682 67
-2.3927312 1.0718185 1.9926084 69
-2.995816 1.3419731 2.0138493 11
-3.8817184 1.7396265 2.0538511 27
-5.197331 2.3303201 2.0704198 24
-7.5881872 3.4038978 2.0965884 18
-10.210683 4.5824342 1.6511842 51
-10.217924 4.5878272 0.54549772 57
-0.028348316 0.013285497 1.9941976 60
-0.28635207 0.1304162 2.0008237 95
-0.37796438 0.17109463 2.0180943 93
-0.48978278 0.22132581 1.7643731 38
-0.5350967 0.24169807 1.4428096 39
-0.96762031 0.43688315 2.012115 83
-1.2085847 0.54568553 2.0202241 77
-1.4860537 0.67097038 2.0280902 78
-0.11357623 0.053018514 2.0010643 88
-0.19912946 0.094203681 2.0082631 91
-0.46692115 0.21206859 2.0105951 95
-0.48956114 0.22215518 1.5161781 39
-0.85834038 0.38916287 2.0116253 95
-1.0846699 0.49178571 2.0182064 87
-1.4078661 0.63832879 2.1209352 29
-1.6374987 0.74244922 2.0274065 83
-1.8116961 0.81572056 2.032284 71
-2.1680651 0.97618109 1.9989008 64
nan nan nan 0
-3.3943226 1.5290276 2.0344584 35
-4.4555058 2.0079913 2.0628276 18
-6.2016711 2.7962503 2.0882816 10
-9.7532988 4.3976326 2.1227188 10
-10.213794 4.6074095 1.0969036 42
-1.9871439 0.89805919 2.022682 66
-2.3926585 1.0818294 1.9955517 77
-2.987185 1.350646 2.0113168 10
-3.8756225 1.7531657 2.0538511 26
-5.1934667 2.3503952 2.0720625 24
-7.5762596 3.4303646 2.0965884 17
-10.203647 4.6221356 1.6525639 50
-10.233702 4.6379023 0.54690844 11
-0.028301768 0.01338437 1.9941976 60
-0.28589508 0.13141495 2.0008237 95
-0.37736481 0.17241292 2.0180943 93
-0.48900726 0.22303416 1.7643731 38
-0.53424972 0.24356444 1.4428096 39
-0.96608943 0.44025812 2.012115 81
-1.2041118 0.54873401 2.0160913 81
-1.4837025 0.6761536 2.0280902 73
-0.11339047 0.053414643 2.0010643 89
-0.19879942 0.094898209 2.0082631 91
-0.46617806 0.21369715 2.0105951 93
-0.49035162 0.22458136 1.5208709 39
-0.85697681 0.39215663 2.0116253 93
-1.0829468 0.4955689 2.0182064 89
-1.4056295 0.64323926 2.1209352 27
-1.63798 0.74957138 2.0310817 80
-1.805591 0.82056415 2.0287795 73
-2.1646442 0.98374307 1.9989008 64
-2.6741211 1.2158442 2.0105548 37
-3.3929977 1.5427004 2.0367765 35
-4.4484696 2.0235319 2.0628276 22
-6.174407 2.8099325 2.0826449 10
-9.7423592 4.4336867 2.1236515 11
-10.206714 4.647162 1.097796 39
-1.983997 0.90499014 2.022682 75
-2.3888676 1.0901748 1.9955517 77
-2.9863741 1.3628548 2.0138493 9
-3.8653505 1.7647985 2.051753 26
-5.1852312 2.3685095 2.0720625 27
-7.564239 3.4567897 2.0965884 21
-10.214473 4.6700792 1.6567028 60
-10.172017 4.6528153 0.54489315 10
-0.028254876 0.013483081 1.9941976 62
-0.2854346 0.13241212 2.0008237 95
-0.37676069 0.17372912 2.0180943 91
-0.48958242 0.22536433 1.7691448 38
-0.53162152 0.24461114 1.438207 40
-0.96454674 0.44362772 2.012115 83
-1.2021891 0.55293381 2.0160913 79
-1.4813333 0.68132854 2.0280902 73
-0.11320333 0.053810127 2.0010643 89
-0.19846694 0.09559156 2.0082631 91
-0.46542928 0.21532312 2.0105951 93
-0.48956469 0.22629163 1.5208709 39
-0.85560268 0.39514565 2.0116253 93
-1.0812104 0.49934605 2.0182064 89
-1.4061118 0.64940566 2.1249244 25
-1.6353534 0.75528443 2.0310817 73
-1.799474 0.82537496 2.025275 73
-2.1541207 0.98804718 1.9926252 58
-2.681262 1.2304031 2.0187793 66
-3.3875921 1.5545349 2.0367765 37
-4.4455919 2.0409818 2.0647006 27
-6.1471229 2.8234587 2.077008 14
-9.7446795 4.4758677 2.1273818 12
-10.194956 4.6848412 1.0982422 45
-1.9604729 0.90254021 2.002733 81
-2.3887188 1.1001978 1.9984947 79
-2.9815991 1.3732711 2.0138493 8
-3.8550446 1.776381 2.049655 33
-5.1812205 2.388572 2.0737052 23
-7.5521264 3.4831729 2.0965884 17
-10.211599 4.7119303 1.6587722 56
-10.155714 4.6882939 0.54489315 37
-0.028207639 0.013581626 1.9941976 58
-0.28497067 0.13340767 2.0008237 95
-0.37615195 0.1750432 2.0180943 93
-0.48879281 0.22707191 1.7691448 38
-0.53076446 0.24646536 1.438207 40
-0.96299237 0.44699189 2.012115 83
-1.2002517 0.55712682 2.0160913 79
-1.478946 0.68649518 2.0280902 78
-0.11275394 0.054079287 1.9960728 88
-0.19861197 0.096517734 2.0132346 91
-0.4646748 0.21694645 2.0105951 95
-0.49033561 0.22872871 1.5255637 39
-0.85421813 0.39812985 2.0116253 93
-1.0794607 0.50311714 2.0182064 89
-1.4038365 0.65430987 2.1249244 25
-1.6357799 0.76242042 2.0347569 57
-1.7901093 0.828655 2.018266 69
-2.1541913 0.99719584 1.9957631 58
-2.6769507 1.2397549 2.0187793 64
-3.3821449 1.5663503 2.0367765 38
-4.4384408 2.0564873 2.0647006 26
-6.1459346 2.8489339 2.0798266 11
-9.7334518 4.5119214 2.1283145 11
-10.223719 4.7413516 1.1027043 49
-1.9200572 0.89206982 1.9661596 85
-2.3775332 1.1051217 1.9926084 79
-2.984606 1.3873048 2.018914 7
-3.8529358 1.7917407 2.051753 32
-5.1728511 2.4066434 2.0737052 17
-7.5487356 3.5136158 2.098933 15
-10.195088 4.7475467 1.6587722 57
nan nan nan 0
-0.028199034 0.013699619 1.9991974 58
-0.28450325 0.13440157 2.0008237 95
-0.37553868 0.17635515 2.0180943 93
-0.48934945 0.22941077 1.7739165 38
-0.52813184 0.24748752 1.4336045 40
-0.9614262 0.45035064 2.012115 83
-1.1982996 0.56131309 2.0160913 81
-1.4765407 0.69165355 2.0280902 78
-0.11282491 0.054599117 2.0010643 88
-0.19827387 0.09721043 2.0132346 91
-0.46391469 0.21856715 2.0105951 95
-0.4895342 0.2304389 1.5255637 39
-0.85282326 0.40110925 2.0116253 93
-1.0776979 0.50688213 2.0182064 89
-1.4015439 0.65920627 2.1249244 24
-1.6331085 0.76812577 2.0347569 33
-1.7807437 0.83187973 2.0112567 64
-2.1189542 0.98988026 1.9675231 52
-2.6574545 1.2420099 2.0078135 56
-3.3806698 1.5800223 2.0390942 38
-4.4312348 2.0719676 2.0647006 26
-6.1359525 2.8703699 2.0798266 11
-9.775486 4.572928 2.1404386 5
-10.207106 4.77701 1.1027043 48
-1.8831201 0.88291377 1.932911 87
-2.3736608 1.113414 1.9926084 77
nan nan nan 0
-3.846658 1.8051788 2.051753 29
-5.1686935 2.426692 2.0753479 18
-7.5452237 3.5440772 2.1012774 15
-10.124671 4.7578311 1.6504945 30
nan nan nan 0
-0.028151043 0.013797969 1.9991974 62
-0.28473368 0.13572839 2.0057628 93
-0.37492076 0.17766497 2.0180943 91
-0.4898957 0.23175624 1.7786882 38
-0.52726471 0.24932954 1.4336045 40
-0.95984834 0.45370391 2.012115 83
-1.1963331 0.56549251 2.0160913 81
-1.4741174 0.69680339 2.0280902 80
-0.11263364 0.054992616 2.0010643 89
-0.19793332 0.097901948 2.0132346 89
-0.46314892 0.22018518 2.0105951 96
-0.49028558 0.23288676 1.5302565 39
-0.8514179 0.40408367 2.0116253 92
-1.075922 0.51064092 2.0182064 89
-1.3992343 0.66409451 2.1249244 23
-1.6304173 0.77382165 2.0347569 29
-1.7713776 0.83504921 2.0042477 66
-2.0943589 0.98731101 1.9486964 54
-2.6266294 1.2387929 1.988623 51
-3.3751342 1.5918133 2.0390942 37
-4.4197836 2.0854447 2.0628276 30
-6.134572 2.8958666 2.0826449 15
-9.6795063 4.5692787 2.1236515 21
-10.118319 4.778583 1.0955648 30
-1.8867778 0.89267582 1.9395608 73
-2.3113058 1.0940243 1.9455179 96
-1.743474 0.82525051 1.2186674 4
-3.8403332 1.8185953 2.051753 18
-5.1559238 2.4426978 2.0737052 15
-7.537199 3.5724754 2.1024497 13
-10.121426 4.79951 1.6525639 25
nan nan nan 0
-0.028102707 0.013896149 1.9991974 64
-0.28425819 0.13672146 2.0057628 93
-0.37429833 0.17897259 2.0180943 91
-0.49043161 0.23410837 1.78346 38
-0.52639121 0.25116852 1.4336045 40
-0.95825875 0.45705166 2.012115 81
-1.1943518 0.56966507 2.0160913 79
-1.4716761 0.70194483 2.0280902 78
-0.11244099 0.055385444 2.0010643 89
-0.19759038 0.098592259 2.0132346 89
-0.46237755 0.22180052 2.0105951 95
-0.49102578 0.23534268 1.5349492 39
-0.85000223 0.40705326 2.0116253 81
-1.074133 0.51439345 2.0182064 87
-1.3969077 0.66897476 2.1249244 23
-1.6277062 0.77950817 2.0347569 29
-1.7587906 0.83663166 1.9937341 66
-2.0241072 0.96284318 1.8890786 71
nan nan nan 0
-3.365557 1.6016815 2.0367765 13
-4.4124765 2.1008599 2.0628276 16
-6.1330886 2.9213889 2.0854633 9
-9.7300196 4.6347246 2.1376407 12
-10.02515 4.7774525 1.0879793 21
-1.8600602 0.88799453 1.9162869 40
nan nan nan 0
-1.7250215 0.82389897 1.2085377 17
-3.8257713 1.8280758 2.0475569 18
-5.1601477 2.4667907 2.0786333 13
-7.5641465 3.6176374 2.1130006 10
-10.001864 4.7856493 1.636698 33
nan nan nan 0
-0.028054029 0.013994162 1.9991974 62
-0.2837792 0.13771287 2.0057628 93
-0.37367129 0.18027805 2.0180943 87
-0.49095696 0.236467 1.7882317 38
-0.52551126 0.25300443 1.4336045 39
-0.95665747 0.46039379 2.012115 81
-1.192356 0.57383066 2.0160913 79
-1.4692168 0.70707762 2.0280902 76
-0.11224698 0.055777602 2.0010643 88
-0.19724502 0.099281386 2.0132346 91
-0.46160051 0.22341318 2.0105951 95
-0.49020129 0.23705524 1.5349492 39
-0.850537 0.41096529 2.0161262 78
-1.0723308 0.51813972 2.0182064 87
-1.3945639 0.67384678 2.1249244 23
-1.6249753 0.78518522 2.0347569 38
-1.7751499 0.85202491 2.0147614 60
-2.0207341 0.96990275 1.8890786 73
-2.6405332 1.2679601 2.0050719 58
-3.343971 1.6057488 2.0275044 12
-4.4051166 2.1162496 2.0628276 16
-6.1358256 2.9490139 2.0896909 8
nan nan nan 0
-9.9769955 4.7973118 1.0848559 15
-1.9006861 0.91554981 1.9595098 38
-2.3509479 1.1329453 1.9837791 58
nan nan nan 0
-3.8193667 1.841419 2.0475569 14
-5.1387448 2.4786329 2.0737052 10
-7.5208297 3.6292322 2.1047945 24
-9.962801 4.8097677 1.633249 69
nan nan nan 0
-0.02800501 0.014092002 1.9991974 62
-0.28329676 0.1387026 2.0057628 92
-0.37303975 0.18158129 2.0180943 87
-0.49147183 0.23883216 1.7930034 38
-0.52638215 0.25569093 1.438207 39
-0.9528895 0.46268386 2.0077264 81
-1.1903458 0.57798928 2.0160913 79
-1.4667398 0.71220183 2.0280902 74
-0.11205158 0.056169078 2.0010643 89
-0.19689727 0.09996929 2.0132346 91
-0.46081778 0.22502311 2.0105951 95
-0.49092174 0.23952168 1.539642 39
-0.84909731 0.41393176 2.0161262 66
-1.0705156 0.52187973 2.0182064 89
-1.3922033 0.67871064 2.1249244 23
-1.6222247 0.79085267 2.0347569 57
-1.7753747 0.85977048 2.018266 73
-2.0874088 1.0108854 1.9518343 66
-2.632328 1.2753463 2.0023305 39
nan nan nan 0
-4.3977022 2.1316135 2.0628276 15
-6.1427603 2.9787869 2.0953276 9
nan nan nan 0
nan nan nan 0
-1.9109136 0.92870837 1.9728094 46
-2.3215332 1.1287724 1.9631768 21
-1.7386136 0.8453477 1.2211998 3
-3.7802658 1.8388577 2.0307724 23
-5.147047 2.5048213 2.080276 9
-7.4993753 3.6512074 2.1024497 19
-9.9281416 4.8358407 1.6304897 61
nan nan nan 0
-0.027955648 0.014189673 1.9991974 62
-0.2821143 0.13934639 2.0008237 93
-0.37240365 0.18288234 2.0180943 91
-0.49063516 0.24054627 1.7930034 38
-0.52548647 0.25752679 1.438207 38
-0.95126861 0.46600726 2.0077264 83
-1.1883209 0.5821408 2.0160913 81
-1.4642448 0.7173174 2.0280902 74
-0.11185484 0.056559868 2.0010643 89
-0.19654711 0.10065598 2.0132346 91
-0.46002954 0.2266303 2.0105951 95
-0.49008265 0.24123386 1.539642 39
-0.84764719 0.41689309 2.0161262 50
-1.0686874 0.52561331 2.0182064 89
-1.3871212 0.68223596 2.1209352 23
-1.6194541 0.79651046 2.0347569 74
-1.778771 0.8690936 2.025275 71
-2.1153464 1.0335462 1.9800742 66
-2.6316168 1.2863634 2.0050719 40
nan nan nan 0
-4.3902349 2.1469512 2.0628276 15
-6.1150875 2.9917779 2.0896909 17
-9.7162514 4.7536321 2.1451018 13
nan nan nan 0
-1.934484 0.94852543 1.9994081 58
-1.8276771 0.89655077 1.5658503 6
-1.7704879 0.86849988 1.2439916 4
-3.8104932 1.8700379 2.049655 34
nan nan nan 0
-7.4734969 3.670934 2.098933 15
-9.9112005 4.8704672 1.6304897 62
-9.4732275 4.6572952 0.51950026 25
-0.027903453 0.01429204 1.9991974 64
-0.28160167 0.14037944 2.0008237 93
-0.37173083 0.18424605 2.0180943 93
-0.49108884 0.24300538 1.7977751 37
-0.52629018 0.2603173 1.4428096 38
-0.9495542 0.46949074 2.0077264 81
-1.1861792 0.58649236 2.0160913 79
-1.4616058 0.72267932 2.0280902 73
-0.11164678 0.056969456 2.0010643 89
-0.19617686 0.10137568 2.0132346 91
-0.45919582 0.22831486 2.0105951 95
-0.49074066 0.2437963 1.5443348 39
-0.84799063 0.42111337 2.020627 39
-1.0666614 0.52971292 2.0182064 89
-1.3844914 0.6875571 2.1209352 23
-1.6163838 0.80272281 2.0347569 85
-1.7723753 0.87402999 2.0217705 66
-2.1255097 1.0481794 1.9926252 67
-2.6231346 1.2941501 2.0023305 55
-3.3465509 1.6510593 2.0390942 30
-4.3823366 2.1630278 2.0628276 29
-6.0911775 3.0077987 2.0854633 17
-9.728756 4.8061342 2.1516299 10
-9.9200363 4.9027834 1.0844097 14
-1.9408674 0.96091706 2.0093827 69
-1.7952449 0.88920957 1.542305 6
-1.7207804 0.8523289 1.2136025 4
-3.8114178 1.8886855 2.0538511 22
nan nan nan 0
-7.4462824 3.6931238 2.0954158 18
-9.9465208 4.9331656 1.6387675 91
-9.5097971 4.7186322 0.52191859 37
-0.027853394 0.014389354 1.9991974 64
-0.28110993 0.14136156 2.0008237 93
-0.37108546 0.18554251 2.0180943 91
-0.49157384 0.24538521 1.8025469 38
-0.52537829 0.26215279 1.4428096 38
-0.94790965 0.47280243 2.0077264 81
-1.1866429 0.59188533 2.0202241 79
-1.4590744 0.72777689 2.0280902 62
-0.11119999 0.057206478 1.9960728 88
-0.19583961 0.10202567 2.0132346 91
-0.45843613 0.22983634 2.0105951 95
-0.49147239 0.24619529 1.5490276 39
-0.84658945 0.42392308 2.020627 35
-1.0672309 0.53441495 2.0224724 89
-1.3822037 0.69214445 2.1209352 24
-1.6108224 0.80627948 2.0310817 85
-1.7693137 0.88021147 2.0217705 56
-2.1218383 1.0555925 1.9926252 67
-2.6186013 1.3032986 2.0023305 55
-3.3407671 1.6627309 2.0390942 30
-4.3792892 2.1796141 2.0647006 30
-6.0682855 3.0215659 2.0812356 17
-9.6863832 4.8252282 2.1460345 10
-9.9349241 4.9512014 1.0875332 7
-1.9410115 0.96901602 2.0127075 71
-1.7778221 0.88793367 1.5305324 6
nan nan nan 0
-3.8217065 1.9087619 2.0622432 9
-5.0867386 2.5416958 2.0671344 17
-7.4476867 3.7230191 2.098933 15
-9.9345379 4.9683371 1.6394573 81
-9.6996222 4.8529711 0.53118902 7
-0.027805526 0.01448164 1.9991974 64
-0.28063962 0.14229298 2.0008237 93
-0.37046814 0.18677203 2.0180943 89
-0.49209148 0.24768554 1.8073186 38
-0.52450609 0.26389357 1.4428096 39
-0.94847679 0.47701967 2.012115 83
-1.1846735 0.59581709 2.0202241 79
-1.4595169 0.7340517 2.0319271 52
-0.11100968 0.057574913 1.9960728 88
-0.1955002 0.10267454 2.0132346 91
-0.45879397 0.23192284 2.0154345 95
-0.49219358 0.24860176 1.5537202 39
-0.84517902 0.42672816 2.020627 30
-1.0654529 0.53795111 2.0224724 89
-1.3799009 0.69672418 2.1209352 25
-1.6081399 0.81161666 2.0310817 83
-1.7663851 0.88607395 2.0217705 42
-2.1113665 1.0591321 1.9863497 64
-2.6105275 1.3100995 1.999589 64
-3.3233564 1.6678388 2.0321403 35
-4.3720379 2.1941242 2.0647006 24
-6.0496578 3.0373676 2.0784173 10
-9.6571598 4.850708 2.1432364 8
nan nan nan 0
-1.9377875 0.97544724 2.0127075 69
-1.727937 0.87018973 1.4922712 6
-3.0322363 1.5263791 2.0796924 8
-3.8275161 1.9275484 2.0685375 7
-5.0698476 2.5543005 2.063849 20
-7.4352994 3.7476959 2.098933 13
-9.9180079 5.0012541 1.6394573 61
-9.6745539 4.8806086 0.53078598 14
-0.027754806 0.014578611 1.9991974 67
-0.28014123 0.14327171 2.0008237 93
-0.36981389 0.18806408 2.0180943 91
-0.49255559 0.25007793 1.8120903 38
-0.52532375 0.26660702 1.447412 39
-0.94680589 0.48032755 2.012115 83
-1.1825866 0.59994876 2.0202241 79
-1.4569457 0.73914188 2.0319271 40
-0.1107979 0.057981398 1.9960728 88
-0.1946511 0.10313981 2.0082631 91
-0.45794088 0.23360284 2.0154345 96
-0.4912791 0.25040409 1.5537202 39
-0.84174389 0.42868748 2.0161262 27
-1.0635686 0.54166692 2.0224724 89
-1.3774605 0.70153672 2.1209352 26
-1.6051545 0.81750536 2.0310817 85
-1.7632813 0.89223433 2.0217705 42
-2.1041834 1.064738 1.983212 66
-2.6059384 1.3192039 1.999589 39
-3.3175144 1.6794293 2.0321403 36
-4.3639665 2.2101338 2.0647006 23
-6.0427642 3.0616887 2.0798266 7
-9.6839886 4.90659 2.1525626 7
nan nan nan 0
-1.9277114 0.97882408 2.006058 62
-1.7320962 0.87987727 1.4981575 6
-3.0381525 1.5433403 2.0872896 8
-3.8325636 1.9477327 2.0748315 6
-5.0772901 2.5814266 2.0704198 19
-7.4258456 3.7771258 2.100105 13
nan nan nan 0
nan nan nan 0
-0.027703747 0.014675405 1.9991974 67
-0.27963942 0.14424872 2.0008237 93
-0.3691552 0.18935382 2.0180943 91
-0.49300891 0.25247657 1.816862 38
-0.52438998 0.26843911 1.447412 44
-0.94512349 0.48362958 2.012115 81
-1.1804852 0.60407305 2.0202241 81
-1.4572107 0.74568361 2.0357642 37
-0.11059483 0.058367804 1.9960728 88
-0.19428989 0.10381865 2.0082631 91
-0.45712265 0.23519993 2.0154345 96
-0.49193677 0.2529065 1.558413 39
-0.84024227 0.4316231 2.0161262 26
-1.0616713 0.54537624 2.0224724 87
-1.3750032 0.70634067 2.1209352 27
-1.6022909 0.82310337 2.0310817 85
-1.760156 0.89838386 2.0217705 48
-2.1004539 1.0720764 1.983212 64
-2.586422 1.3206861 1.988623 30
-3.3155777 1.6930141 2.0344584 38
-4.356225 2.2253535 2.0647006 21
-6.0320401 3.0827632 2.0798266 11
-9.6580544 4.9358926 2.1506975 6
-7.5377769 3.8539519 0.85148811 13
-1.9209588 0.98384464 2.002733 58
nan nan nan 0
-2.9982145 1.5362422 2.0644977 6
-3.8015089 1.9486773 2.0622432 25
-5.0682483 2.5991337 2.0704198 18
-7.4126153 3.8030238 2.100105 13
-7.5821691 3.8916848 1.2793735 24
-7.5994644 3.9022379 0.43828326 23
-0.027652353 0.014772019 1.9991974 67
-0.27913418 0.14522398 2.0008237 92
-0.36849198 0.19064127 2.0180943 91
-0.49212465 0.25419596 1.816862 38
-0.52344972 0.27026796 1.447412 53
-0.94342953 0.48692575 2.012115 81
-1.1783694 0.60819012 2.0202241 75
-1.4545989 0.75076562 2.0357642 35
-0.11039042 0.058753494 1.9960728 88
-0.1939263 0.10449621 2.0082631 91
-0.45629886 0.23679416 2.0154345 96
-0.49258286 0.25541657 1.5631058 39
-0.83873051 0.43455347 2.0161262 25
-1.0597612 0.54907882 2.0224724 87
-1.3725293 0.71113598 2.1209352 29
-1.599408 0.82869142 2.0310817 88
-1.7601801 0.90615475 2.025275 62
-2.0932376 1.0776199 1.9800742 67
-2.5929482 1.3354501 1.9968475 31
-3.3096476 1.7045774 2.0344584 38
-4.3484306 2.2405457 2.0647006 21
-6.0212426 3.1038001 2.0798266 12
-9.601469 4.9493189 2.1423037 6
-7.5242782 3.8802404 0.85148811 12
-1.9108772 0.98711616 1.9960833 52
-2.3112159 1.1944344 1.9778926 33
-3.000494 1.5506573 2.0695627 6
-3.790652 1.9598507 2.0601451 35
-5.0591445 2.6168094 2.0704198 18
-7.4036131 3.8311095 2.1012774 10
-7.4673877 3.8657634 1.2635077 17
-7.5369978 3.9034677 0.43606642 28
-0.02760062 0.014868454 1.9991974 64
-0.27862555 0.14619745 2.0008237 93
-0.36782426 0.19192638 2.0180943 91
-0.49255893 0.25660238 1.8216337 39
-0.52250314 0.27209347 1.447412 55
-0.94172412 0.49021596 2.012115 81
-1.1737432 0.6110003 2.0160913 73
-1.4519694 0.75583857 2.0357642 33
-0.11018465 0.059138473 1.9960728 88
-0.19356036 0.1051725 2.0082631 93
-0.45546952 0.2383855 2.0154345 96
-0.49168831 0.25713447 1.5631058 39
-0.83720857 0.43747854 2.0161262 24
-1.0578381 0.55277473 2.0224724 89
-1.3700386 0.71592265 2.1209352 29
-1.5965056 0.8342694 2.0310817 88
-1.7570062 0.91229349 2.025275 73
-2.0894632 1.0849202 1.9800742 69
-2.5956922 1.348348 2.0023305 37
-3.3036776 1.7161199 2.0344584 35
-4.3405833 2.2557113 2.0647006 27
-6.0061154 3.1225865 2.0784173 21
-9.5710583 4.9760065 2.1395061 7
-7.4488335 3.8743098 0.84524119 16
-1.9041084 0.992055 1.9927584 56
-2.303448 1.2006265 1.9749495 66
-2.9874167 1.5571362 2.0644977 6
-3.7717149 1.9667752 2.0538511 36
-5.0499797 2.6344531 2.0704198 23
-7.3858852 3.8546808 2.100105 13
-7.4318995 3.8803458 1.2600586 14
-7.4701881 3.9019966 0.43364808 27
-0.027507894 0.01494815 1.9941976 64
-0.27808782 0.14721768 2.0008237 95
-0.36711836 0.19327325 2.0180943 95
-0.49293709 0.25910091 1.8264054 39
-0.52150238 0.27400672 1.447412 56
-0.93992102 0.49366426 2.012115 81
-1.1714959 0.61529821 2.0160913 81
-1.4463511 0.75966442 2.0319271 31
-0.10996717 0.059541922 1.9960728 88
-0.19317359 0.10588124 2.0082631 91
-0.4545927 0.24005327 2.0154345 95
-0.49226874 0.2597402 1.5677986 39
-0.83552265 0.44068995 2.0161262 24
-1.0557078 0.55683243 2.0224724 89
-1.3672796 0.721178 2.1209352 31
-1.5932906 0.84039336 2.0310817 85
-1.7568098 0.92038214 2.0287795 71
-2.0854728 1.0925711 1.9800742 67
-2.6018434 1.363676 2.0105548 61
-3.2973657 1.7282168 2.0344584 30
-4.3322864 2.2716053 2.0647006 31
-5.9946299 3.1445787 2.0784173 16
-9.5257835 4.9990234 2.1339102 7
-7.3413067 3.8542683 0.83587074 13
-1.9002852 0.99935889 1.9927584 60
-2.2415867 1.1793499 1.9278591 78
-3.004308 1.5806397 2.0796924 8
-3.7601192 1.9791291 2.051753 33
-5.0398269 2.6538241 2.0704198 24
-7.3710299 3.8830121 2.100105 14
-7.343143 3.8683214 1.2483318 20
-7.4027991 3.9013987 0.43122968 29
-0.027458174 0.015039287 1.9941976 67
-0.27759814 0.14813904 2.0008237 95
-0.3664754 0.1944896 2.0180943 93
-0.49207515 0.26073411 1.8264054 38
-0.52059084 0.27573457 1.447412 56
-0.93827885 0.49677843 2.012115 81
-1.1694491 0.61917967 2.0160913 79
-1.4438239 0.76445651 2.0319271 31
-0.10977957 0.0598871 1.9960728 88
-0.19284 0.10648758 2.0082631 91
-0.45383635 0.24148022 2.0154345 93
-0.49145034 0.26128542 1.5677986 39
-0.83413404 0.44331264 2.0161262 25
-1.0539532 0.56014627 2.0224724 87
-1.3650072 0.72546983 2.1209352 31
-1.59079 0.84511703 2.0310817 85
-1.7537479 0.92620283 2.0287795 71
-2.0783961 1.0976629 1.9769365 71
-2.6083982 1.3781568 2.0187793 66
-3.2916162 1.7391418 2.0344584 31
-4.3292279 2.2873697 2.0665736 32
-5.9804802 3.161154 2.077008 15
-9.4883204 5.0174441 2.1292472 7
-7.337966 3.8819702 0.8367632 11
-1.8971362 1.0053239 1.9927584 58
-2.2057302 1.169347 1.9013705 55
-3.0148427 1.5976214 2.0898221 8
-3.7582405 1.9924027 2.0538511 35
-5.0319304 2.6687658 2.0704198 24
-7.3594761 3.9048653 2.100105 11
-7.3353286 3.8936932 1.2490216 16
-7.3463821 3.9012046 0.42921436 21
-0.02740551 0.015135042 1.9941976 64
-0.27707931 0.14910713 2.0008237 95
-0.36579427 0.19576764 2.0180943 91
-0.49247929 0.26315415 1.8311771 38
-0.51962513 0.2775501 1.447412 55
-0.93442571 0.4989222 2.0077264 81
-1.1672807 0.62325799 2.0160913 79
-1.4411467 0.76949179 2.0319271 34
-0.10955933 0.060289059 1.9960728 86
-0.19244841 0.10719366 2.0082631 91
-0.45294824 0.24314201 2.0154345 95
-0.49201009 0.26390067 1.5724913 39
-0.83258152 0.44622162 2.0161262 27
-1.0519916 0.56382191 2.0224724 89
-1.3624665 0.73023021 2.1209352 30
-1.5876819 0.8509419 2.0310817 85
-1.7505044 0.93231893 2.0287795 73
-2.0745518 1.1049112 1.9769365 75
-2.6035717 1.3872533 2.0187793 66
-3.2855256 1.7506211 2.0344584 32
-4.3208151 2.3032219 2.0665736 30
-5.9688535 3.1830523 2.077008 18
-9.4404068 5.0343537 2.1227188 10
-7.2364941 3.8606791 0.82783902 17
-1.8936154 1.01194 1.9927584 60
-2.233716 1.1941906 1.9278591 51
-3.0279768 1.6188239 2.102484 8
-3.7509124 2.0061641 2.0538511 33
-5.0221152 2.687191 2.0704198 17
-7.3451147 3.9318128 2.100105 11
-7.2729859 3.8948352 1.2414336 22
-7.2835941 3.9021525 0.42699754 18
-0.027352512 0.015230613 1.9941976 64
-0.27655715 0.15007342 2.0008237 93
-0.3651087 0.19704331 2.0180943 91
-0.49287251 0.26558012 1.8359488 38
-0.51865321 0.27936223 1.447412 55
-0.9326784 0.50218087 2.0077264 81
-1.1650978 0.62732881 2.0160913 79
-1.4384519 0.77451766 2.0319271 35
-0.10934822 0.060671125 1.9960728 88
-0.19207306 0.10786477 2.0082631 91
-0.45209676 0.24472159 2.0154345 95
-0.49108592 0.26561651 1.5724913 39
-0.83101881 0.44912514 2.0161262 29
-1.050017 0.56749058 2.0224724 87
-1.3599092 0.7349816 2.1209352 30
-1.5847018 0.85647869 2.0310817 85
-1.7472394 0.93842363 2.0287795 69
-2.0638235 1.108462 1.9706609 67
-2.5802965 1.3864372 2.0050719 56
-3.2793946 1.762079 2.0344584 33
-4.3168325 2.3204856 2.0684466 28
-5.9577065 3.2038682 2.077008 17
-9.4314299 5.0719295 2.1245842 9
-7.1703463 3.8576019 0.82248449 15
-1.8933586 1.0203153 1.9960833 66
-2.2651129 1.2211617 1.9572905 85
-3.0412824 1.6396132 2.1151462 8
-3.7478809 2.0213993 2.055949 28
-5.0127048 2.704705 2.0704198 18
-7.3356233 3.9597371 2.1012774 12
-7.1721988 3.8731375 1.2276374 17
-7.2303686 3.9061811 0.42518377 27
-0.027299181 0.015325999 1.9941976 66
-0.27603161 0.15103787 2.0008237 92
-0.36441866 0.19831657 2.0180943 93
-0.49194244 0.26729894 1.8359488 38
-0.51767486 0.28117096 1.447412 53
-0.93091977 0.5054335 2.0077264 81
-1.1629009 0.63139194 2.0160913 79
-1.4357395 0.77953404 2.0319271 35
-0.10913576 0.061052449 1.9960728 88
-0.19169536 0.10853458 2.0082631 91
-0.45013574 0.24569553 2.0105951 95
-0.49167073 0.26815543 1.5771841 39
-0.82944602 0.45202321 2.0161262 33
-1.0480297 0.57115233 2.0224724 89
-1.3546889 0.73828185 2.1169455 29
-1.5817026 0.86200517 2.0310817 85
-1.740817 0.94281846 2.025275 69
-2.0530953 1.1119516 1.9643854 60
-2.5680883 1.3914516 1.999589 38
-3.2771192 1.7756261 2.0367765 32
-4.3087058 2.3355396 2.0684466 25
-5.9464865 3.2246449 2.077008 15
-9.3920765 5.093112 2.119921 8
-7.1393266 3.8731079 0.82069963 15
-1.8897855 1.0269182 1.9960833 71
-2.2927971 1.246436 1.9837791 91
-3.0279651 1.646101 2.1100814 7
-3.7408023 2.0344694 2.055949 28
-5.007381 2.7244434 2.0720625 22
-7.326026 3.9876428 2.1024497 10
-7.1542854 3.8957813 1.2269475 15
-7.1640429 3.9027157 0.42276537 25
-0.027283184 0.015443218 1.9991974 67
-0.27550271 0.15200047 2.0008237 92
-0.36372417 0.19958742 2.0180943 93
-0.49231619 0.26973221 1.8407205 38
-0.51669025 0.2829763 1.447412 51
-0.93125123 0.50983042 2.012115 81
-1.1606899 0.63544732 2.0160913 79
-1.4330097 0.78454095 2.0319271 33
-0.10892199 0.061433032 1.9960728 88
-0.1917787 0.10946832 2.0132346 91
-0.44927534 0.24726529 2.0105951 95
-0.49224374 0.27070165 1.5818769 39
-0.82595456 0.45386693 2.0116253 37
-1.0460296 0.57480717 2.0224724 89
-1.3521036 0.74300605 2.1169455 28
-1.578684 0.86752111 2.0310817 85
-1.7375152 0.94888932 2.025275 69
-2.0321186 1.109782 1.9486964 39
-2.5448682 1.3903834 1.9858816 36
-3.2709012 1.7870545 2.0367765 35
-4.3005271 2.3505659 2.0684466 25
-5.935194 3.2453821 2.077008 15
-9.3871708 5.1329355 2.1227188 10
nan nan nan 0
-1.8829148 1.0317141 1.9927584 73
-2.3026099 1.2622035 1.9955517 87
-3.0146396 1.6525159 2.1050165 7
-3.7336776 2.0475149 2.055949 27
-4.9978409 2.7419057 2.0720625 22
-7.3163218 4.0155296 2.1036222 11
nan nan nan 0
-7.124104 3.9132679 0.4215562 24
-0.0272264 0.015543112 1.9991974 66
-0.27494374 0.15300922 2.0008237 93
-0.36299023 0.2009192 2.0180943 89
-0.49263144 0.2722573 1.8454924 38
-0.51564956 0.28486815 1.447412 51
-0.92937636 0.51324022 2.012115 81
-1.1583531 0.63969719 2.0160913 79
-1.4329311 0.79133779 2.0357642 27
-0.10870688 0.061812866 1.9960728 88
-0.19139543 0.11013709 2.0132346 91
-0.4484095 0.24883205 2.0105951 96
-0.492805 0.27325514 1.5865697 39
-0.82428545 0.45689118 2.0116253 40
-1.0439159 0.57863718 2.0224724 87
-1.3467351 0.7464956 2.112956 28
-1.5726805 0.87138331 2.0274065 85
-1.7277784 0.9518097 2.018266 60
-1.9734821 1.0871687 1.898492 26
-2.5470793 1.4037379 1.9913646 37
-3.2682087 1.8011692 2.0390942 38
-4.2922959 2.3655629 2.0684466 25
-5.9238296 3.2660801 2.077008 23
-9.4113083 5.1910315 2.132045 8
-7.329442 4.0443969 0.84301013 11
-1.8791207 1.0386083 1.9927584 73
-2.294431 1.2686784 1.9926084 85
-2.9937599 1.6546867 2.0948868 7
-3.7225366 2.0583396 2.0538511 26
-4.9882393 2.7593346 2.0720625 16
-7.3107667 4.0457511 2.1059668 13
-7.4778485 4.1399183 1.2828226 12
-7.0666962 3.9139059 0.41954088 23
-0.027174708 0.015633311 1.9991974 66
-0.27443483 0.15392014 2.0008237 93
-0.36321113 0.20261796 2.0229895 87
-0.49303064 0.27461624 1.8502641 38
-0.51470214 0.28657654 1.447412 49
-0.92766935 0.51631933 2.012115 83
-1.1562254 0.6435349 2.0160913 79
-1.4331001 0.79764432 2.0396011 23
-0.10850131 0.062173013 1.9960728 88
-0.19102916 0.11077117 2.0132346 91
-0.44758186 0.25031766 2.0105951 96
-0.49340251 0.27572972 1.5912623 39
-0.82086468 0.45856005 2.0071244 55
-1.0419912 0.58209574 2.0224724 89
-1.3389899 0.74801761 2.1049771 29
-1.5697823 0.87659371 2.0274065 78
-1.6965516 0.94195384 1.986725 46
-1.9868834 1.1031554 1.9141809 25
-2.5497212 1.4162376 1.9968475 40
-3.2660911 1.8141483 2.0414124 38
