# .PCD v0.7 - Point Cloud Data file format
VERSION 0.7
FIELDS x y z intensity
SIZE 4 4 4 4
TYPE F F F F
COUNT 1 1 1 1
WIDTH 1440
HEIGHT 1
VIEWPOINT 0 0 0 1 0 0 0
POINTS 1440
DATA ascii
-0.48058638 0.38156179 2.007731 84
-0.49662825 0.39416447 1.5532701 39
-0.83544469 0.66286135 2.0208921 27
-1.0410084 0.82596755 2.0243571 79
-1.1768366 0.93374294 1.8746125 11
-0.097196884 0.079140954 2.0010643 89
-0.17010738 0.13996553 2.0082631 91
-0.40200695 0.32042244 2.0154345 95
-0.49475357 0.39408267 1.7742803 39
-0.52268428 0.41604003 1.4445202 52
-0.92567509 0.73682636 2.0054085 81
-1.1481295 0.91390467 2.0172081 76
-1.2820424 1.0205034 1.8546739 11
-1.250185 0.98980904 1.6467839 38
-1.8794211 1.4880025 2.0145898 31
-2.3191683 1.8368255 2.0242622 9
-3.1024172 2.4571791 2.1573136 5
-3.9758508 3.1500869 2.137749 2
-5.4141183 4.2911735 2.1192839 4
-8.5270815 6.7584767 2.1572256 12
-9.8258104 7.7906289 1.2164878 36
-1.6405199 1.3025857 1.9462105 91
-2.0878181 1.6583402 2.0249834 21
-2.5940893 2.0604727 2.0315762 33
-3.3410354 2.6547205 2.0601451 25
-4.4958224 3.5735731 2.0868468 22
-6.6465669 5.2850204 2.1387918 14
-9.7587185 7.7624307 1.8291568 48
-9.8043699 7.8015375 0.59910494 37
-0.024211355 0.01991671 1.9991974 42
-0.24576905 0.1977196 2.0057628 95
-0.32306275 0.25868332 2.0131991 93
-0.47925159 0.38323703 2.007731 86
-0.49677527 0.39711553 1.5578727 39
-0.83312583 0.66577351 2.0208921 29
-1.0381187 0.82959634 2.0243571 79
-1.1710658 0.93584383 1.8707756 11
-0.096920036 0.079479739 2.0010643 89
-0.16961779 0.14055847 2.0082631 91
-0.400886 0.32182378 2.0154345 95
-0.494721 0.39688718 1.7789731 39
-0.52122885 0.41786203 1.4445202 52
-0.92513222 0.74168444 2.0096743 81
-1.1308233 0.90659517 1.9932711 63
-1.2890525 1.0334548 1.8693745 11
-1.2439342 0.9919436 1.6432794 38
-1.8498665 1.4751371 1.9894875 31
-2.3192801 1.850125 2.0297451 9
-3.1249907 2.4928579 2.1781759 4
nan nan nan 0
-5.3541164 4.2741308 2.1023736 15
-8.5034389 6.7882013 2.1572256 10
-9.720726 7.7627268 1.2075635 34
-1.6067988 1.2849811 1.912962 97
-2.0788608 1.663093 2.0220401 19
-2.5868812 2.0695152 2.0315762 38
-3.3317482 2.6663668 2.0601451 27
-4.4833202 3.5892446 2.0868468 24
-6.6015201 5.2869196 2.1305854 16
-9.6735907 7.7500033 1.8188095 49
-9.7458897 7.8107185 0.59749269 40
-0.024174895 0.020029403 2.0041974 40
-0.24507737 0.19857629 2.0057628 95
-0.32215777 0.25980946 2.0131991 93
-0.47907406 0.3858445 2.0125027 86
-0.49690777 0.4000724 1.5624752 39
-0.83079678 0.66867763 2.0208921 34
-1.0352167 0.833215 2.0243571 79
-1.1702893 0.94193602 1.8746125 13
-0.096642017 0.079817578 2.0010643 89
-0.16871662 0.14080705 2.0032918 93
-0.39976019 0.32322115 2.0154345 95
-0.49467483 0.39969626 1.7836659 39
-0.51976705 0.4196789 1.4445202 49
-0.92456681 0.74654776 2.0139403 81
-1.1182719 0.90296304 1.9773132 38
-1.2379601 0.99961144 1.8032216 11
-1.240464 0.99627972 1.6432794 38
-1.8295306 1.4693969 1.9737986 29
-2.3160675 1.8608285 2.0324864 11
-3.0610123 2.4593549 2.1410875 7
nan nan nan 0
-5.2905607 4.2537155 2.084054 10
-8.5103178 6.8424659 2.1646867 20
-9.6625252 7.7716417 1.2039939 29
-1.6052117 1.2929245 1.9162869 97
-2.0698953 1.6678035 2.0190971 19
-2.5829983 2.0812378 2.0341086 39
-3.3188868 2.675132 2.0580471 30
-4.4707646 3.6048722 2.0868468 16
-6.567893 5.2977247 2.1258962 17
-9.6079388 7.752625 1.8119113 33
-9.6835785 7.8164487 0.59567893 41
-0.024104832 0.020113669 2.0041974 40
-0.24378084 0.19893916 2.0008237 93
-0.32203922 0.26157445 2.0180943 91
-0.47772431 0.38751441 2.0125027 86
-0.49702567 0.40303507 1.5670776 39
-0.8247354 0.66855621 2.012115 38
-1.0323018 0.83682346 2.0243571 79
-1.1968789 0.97024149 1.9206557 16
-0.096362807 0.080154441 2.0010643 89
-0.16822407 0.14139512 2.0032918 93
-0.39862952 0.32461461 2.0154345 95
-0.49461505 0.40250984 1.7883586 39
-0.51829898 0.42149067 1.4445202 43
-0.92600197 0.75306147 2.0224724 81
-1.1010835 0.89545119 1.9533762 35
-1.2370933 1.0060655 1.8068967 11
-1.2342061 0.99836075 1.6397748 37
-1.7850443 1.4439467 1.9330075 14
-2.3160586 1.8741622 2.0379696 12
-3.0110824 2.436583 2.1132712 8
nan nan nan 0
-5.2980494 4.2902718 2.0925093 5
-8.4634762 6.8535829 2.159091 22
-9.6275988 7.7990532 1.2031015 26
-1.6035889 1.3008726 1.9196117 98
-2.0640612 1.6750185 2.0190971 23
-2.5790653 2.092958 2.0366411 40
-3.306005 2.6838403 2.055949 33
-4.4581537 3.6204562 2.0868468 16
-6.5191793 5.2961001 2.1165175 23
-9.5692892 7.7767463 1.8098419 29
-9.5787048 7.7871737 0.59164834 42
-0.024034474 0.020197688 2.0041974 39
-0.24308492 0.1997889 2.0008237 93
-0.32112417 0.26269692 2.0180943 91
-0.47636876 0.38917962 2.0125027 86
-0.49712893 0.40600339 1.5716803 40
-0.81126201 0.6623401 1.9857829 48
-1.0293745 0.8404218 2.0243571 79
-1.208385 0.98657864 1.9436773 24
-0.096082427 0.080490313 2.0010643 91
-0.1677295 0.14198148 2.0032918 93
-0.39749396 0.32600412 2.0154345 95
-0.49454162 0.40532789 1.7930514 39
-0.51682448 0.42329732 1.4445202 40
-0.92538518 0.75794184 2.0267382 87
-1.0932877 0.89546973 1.9453971 35
-1.2702916 1.040452 1.8583488 12
-1.2307135 1.0026628 1.6397748 38
-1.8162097 1.4796747 1.9706609 9
-2.3127441 1.8848771 2.0407109 13
-2.9476128 2.4022977 2.0761828 9
-3.845247 3.1349859 2.0927961 6
-5.2904768 4.3148036 2.0953276 6
-8.4280806 6.8737702 2.1562932 21
-9.5578699 7.7979822 1.1981932 34
-1.6192812 1.3230013 1.9428856 97
-2.061331 1.6847712 2.0220401 25
-2.571744 2.1019478 2.0366411 40
-3.2966163 2.695364 2.055949 35
-4.4418335 3.6330061 2.0852039 26
-6.5232239 5.3372908 2.1235516 15
-9.5459175 7.8132391 1.8105316 43
-9.5823879 7.8458824 0.59326059 32
-0.023963824 0.02028146 2.0041974 39
-0.24238606 0.20063621 2.0008237 93
-0.32020524 0.26381627 2.0180943 95
-0.47500733 0.39084008 2.0125027 86
-0.49721748 0.40897733 1.5762829 40
-0.76823431 0.63169193 1.8892323 73
-1.0264345 0.84400988 2.0243571 73
-1.2296964 1.0111526 1.982047 33
-0.095800877 0.08082521 2.0010643 89
-0.16763873 0.142913 2.0082631 93
-0.39635357 0.32738963 2.0154345 95
-0.49578539 0.40924886 1.8024368 39
-0.51534379 0.42509881 1.4445202 40
-0.92273384 0.76116741 2.0267382 87
-1.0994552 0.90695214 1.9613551 39
-1.3032645 1.0750825 1.9098014 13
-1.2244493 1.0046905 1.6362704 37
-1.8080242 1.4835361 1.9675231 9
-2.3093822 1.8955915 2.0434525 13
-2.9186628 2.3957071 2.0622747 16
-3.8199492 3.1366212 2.085304 6
-5.2902112 4.3454242 2.1009643 13
-8.3888521 6.890676 2.1525626 20
-9.5883074 7.8787227 1.2048863 41
-1.6233039 1.3357641 1.9528601 98
-2.0554376 1.6919564 2.0220401 26
-2.5677197 2.113652 2.0391736 40
-3.2836845 2.7039704 2.0538511 33
-4.4291253 3.6484888 2.0852039 17
-6.5083046 5.3631206 2.1247239 20
-9.5759048 7.8937626 1.8208789 48
-9.5703602 7.8919973 0.59406668 28
-0.023892883 0.020364987 2.0041974 38
-0.24228093 0.20197876 2.0057628 95
-0.31928238 0.26493239 2.0180943 95
-0.47364014 0.39249581 2.0125027 84
-0.49729127 0.41195679 1.5808854 40
-0.66823107 0.55338162 1.6566333 93
-1.0234823 0.84758765 2.0243571 73
-1.2261593 1.0154389 1.982047 38
-0.095518164 0.08115913 2.0010643 89
-0.16713886 0.14349729 2.0082631 93
-0.39520836 0.32877117 2.0154345 95
-0.49568078 0.41208023 1.8071296 39
-0.51385683 0.42689508 1.4445202 40
-0.92207742 0.76605046 2.0310042 83
-1.1009192 0.91463655 1.9693341 40
-1.3673021 1.1359524 2.0053556 16
-1.2154367 1.004415 1.6292613 36
-1.8118371 1.4972779 1.9769365 11
-2.3027513 1.9036411 2.0434525 13
-2.8863809 2.3861215 2.0460486 26
-3.8089771 3.1499362 2.085304 6
-5.2787066 4.3669224 2.1023736 23
-8.3571777 6.9136548 2.1506975 14
-9.5837669 7.9311948 1.2075635 35
-1.6272573 1.3485711 1.9628347 98
-2.0557423 1.7042801 2.0279264 26
-2.5603261 2.1226022 2.0391736 40
-3.274226 2.715416 2.0538511 34
-4.4163623 3.6639273 2.0852039 20
-6.5007648 5.3951182 2.1282408 18
-9.5635328 7.9397936 1.8236382 45
-9.5465975 7.9285474 0.5942682 25
-0.023821652 0.020448264 2.0041974 38
-0.24157442 0.20282324 2.0057628 96
-0.31835565 0.26604527 2.0180943 95
-0.47226721 0.39414671 2.0125027 84
-0.49735034 0.41494176 1.5854878 40
-0.62765914 0.52348602 1.5644714 71
-1.0205173 0.8511551 2.0243571 81
-1.2299931 1.0258731 1.9935577 40
-0.095234282 0.081492059 2.0010643 89
-0.16663694 0.14407983 2.0082631 93
-0.39405832 0.3301487 2.0154345 95
-0.49556237 0.41491577 1.8118224 39
-0.51236349 0.42868617 1.4445202 40
-0.91939771 0.7692644 2.0310042 79
-1.1023428 0.922342 1.9773132 48
-1.3789288 1.1537713 2.0274065 19
-1.2091821 1.0063702 1.6257566 35
-1.8155758 1.5110639 1.9863497 21
-2.2960925 1.9116677 2.0434525 16
-2.8712246 2.3905129 2.0414124 36
-3.790834 3.1572793 2.081558 9
-5.267117 4.3883924 2.1037827 13
-8.3443165 6.9522181 2.1534953 19
-9.5828028 7.9869194 1.210687 33
-1.6454756 1.3733861 1.9894335 95
-2.0497808 1.7114457 2.0279264 24
-2.552901 2.1315265 2.0391736 39
-3.2647274 2.7268286 2.0538511 35
-4.3999214 3.6762924 2.0835612 31
-6.4856215 5.4208941 2.1294129 10
-9.5661526 7.9985409 1.8291568 37
-9.561017 7.9970822 0.59648508 28
-0.02375013 0.020531293 2.0041974 36
-0.24086496 0.20366526 2.0057628 97
-0.31742504 0.26715496 2.0180943 93
-0.47088847 0.39579284 2.0125027 84
-0.49739459 0.41793212 1.5900904 40
-0.59831125 0.5025599 1.4986415 40
-1.0175401 0.85471219 2.0243571 81
-1.2288597 1.0322223 1.9973947 49
-0.094949238 0.081823982 2.0010643 89
-0.166133 0.14466064 2.0082631 93
-0.39290348 0.3315222 2.0154345 95
-0.49543029 0.41775551 1.8165152 39
-0.51086396 0.43047202 1.4445202 40
-0.91670686 0.77246898 2.0310042 69
-1.1014214 0.92812651 1.9813027 55
-1.3956326 1.1760544 2.0568078 24
-1.2029289 1.0082941 1.6222522 35
-1.8073069 1.5148917 1.983212 36
-2.2862017 1.9169844 2.0407109 20
-2.8594682 2.3976746 2.0390942 35
-3.7762382 3.1675129 2.0796847 17
-5.2554412 4.4098344 2.1051919 20
-8.3199978 6.9813018 2.1534953 18
-9.5777512 8.0395308 1.2133644 30
-1.6406715 1.3791215 1.9894335 95
-2.0592625 1.7315974 2.0426424 21
-2.5421455 2.13765 2.0366411 36
-3.2586617 2.7411292 2.055949 34
-4.3870625 3.6916292 2.0835612 25
-6.5038452 5.474802 2.1411362 5
-9.5646896 8.0542126 1.8339854 32
-9.5597906 8.0529385 0.59789574 33
-0.023678318 0.020614073 2.0041974 36
-0.24015257 0.2045048 2.0057628 97
-0.31649059 0.26826131 2.0180943 91
-0.46950406 0.39743412 2.0125027 84
-0.49742404 0.42092785 1.5946929 40
-0.58374989 0.49381414 1.4679209 38
-1.0145503 0.8582589 2.0243571 79
-1.2276965 1.038576 2.0012317 55
-0.094663039 0.08215493 2.0010643 89
-0.16562702 0.14523967 2.0082631 93
-0.39174387 0.33289167 2.0154345 95
-0.49528432 0.42059943 1.8212079 39
-0.50935829 0.43225268 1.4445202 40
-0.91400498 0.77566421 2.0310042 46
-1.1004727 0.93391573 1.9852921 57
-1.3863492 1.1765317 2.0494576 27
-1.1994019 1.0124869 1.6222522 35
-1.8049823 1.5237021 1.9863497 38
-2.2763014 1.922255 2.0379696 28
-2.854466 2.4104996 2.0414124 35
-3.7651584 3.1806753 2.0796847 18
-5.2400165 4.428153 2.1051919 31
-8.2993298 7.013473 2.154428 20
-9.576252 8.0954199 1.2164878 23
-1.6158962 1.3679501 1.9661596 91
-2.0285294 1.7178776 2.0190971 15
-2.5346682 2.1465108 2.0366411 35
-3.2490735 2.7524877 2.055949 33
-4.3741493 3.7069201 2.0835612 19
-6.447619 5.4660397 2.1294129 8
-9.5667334 8.1131754 1.8395039 45
-9.5620995 8.1121149 0.59950799 31
-0.023606215 0.020696599 2.0041974 35
-0.23943725 0.20534185 2.0057628 96
-0.31555223 0.26936445 2.0180943 93
-0.4681139 0.39907059 2.0125027 86
-0.49743858 0.42392886 1.5992955 39
-0.57655168 0.49118775 1.4547548 38
-1.0115483 0.86179513 2.0243571 79
-1.2240636 1.0428551 2.0012317 57
-0.094375692 0.082484864 2.0010643 89
-0.16511905 0.14581692 2.0082631 93
-0.39057946 0.3342571 2.0154345 95
-0.49643603 0.42456904 1.8305935 39
-0.5078463 0.43402806 1.4445202 40
-0.91129178 0.77885002 2.0310042 34
-1.1017884 0.94166785 1.9932711 65
-1.3796569 1.1791611 2.0457823 26
-1.1931432 1.0143574 1.6187476 35
-1.7877892 1.5199075 1.9737986 36
-2.2695773 1.9301891 2.0379696 27
-2.8460343 2.420449 2.0414124 36
-3.7505019 3.1907947 2.077812 28
-5.2245274 4.4464169 2.1051919 24
-8.2747974 7.0423999 2.154428 18
-9.5706863 8.1481686 1.2191651 4
-1.594061 1.3590457 1.9462105 96
-2.0317464 1.7328167 2.0279264 13
-2.5205994 2.14975 2.0315762 35
-3.2428982 2.7667577 2.0580471 35
-4.3611832 3.7221661 2.0835612 20
-6.4285002 5.488513 2.1294129 6
-9.5684805 8.1722488 1.8450224 37
-9.5641117 8.1714058 0.60112023 26
-0.023533825 0.020778872 2.0041974 35
-0.23871902 0.20617639 2.0057628 95
-0.31461006 0.2704643 2.0180943 93
-0.46671802 0.40070218 2.0125027 86
-0.49743822 0.42693511 1.6038979 40
-0.57301539 0.49163723 1.4503663 38
-1.0063982 0.86348838 2.0202241 77
-1.2204161 1.0471215 2.0012317 61
-0.094087183 0.082813792 2.0010643 89
-0.16460903 0.14639241 2.0082631 93
-0.38941032 0.33561844 2.0154345 96
-0.4962585 0.42742556 1.8352863 39
-0.50632817 0.43579808 1.4445202 42
-0.90856755 0.78202623 2.0310042 24
-1.0984946 0.94550806 1.9932711 65
-1.3524076 1.1640652 2.0127058 24
-1.1923043 1.0208355 1.6222522 36
nan nan nan 0
-2.2596502 1.9353796 2.035228 17
-2.8409328 2.4332504 2.0437305 36
-3.739341 3.2038672 2.077812 35
-5.2089744 4.4646273 2.1051919 14
-8.2427053 7.0648479 2.1525626 20
-9.5686502 8.2042189 1.2222885 3
-1.5864741 1.362169 1.9428856 96
-2.0256853 1.7398982 2.0279264 13
-2.5130801 2.1585355 2.0315762 31
-3.2332208 2.7780607 2.0580471 34
-4.3481636 3.7373667 2.0835612 30
-6.4240451 5.5235958 2.1341023 6
-9.5661755 8.2282047 1.8498511 21
-9.5506773 8.2177734 0.60192633 22
-0.02342895 0.020831451 1.9991974 32
-0.23799787 0.20700841 2.0057628 95
-0.31366405 0.27156088 2.0180943 93
-0.46531644 0.40232885 2.0125027 86
-0.49742296 0.42994648 1.6085005 40
-0.57129574 0.49363446 1.4503663 39
-1.0012488 0.86515629 2.0160913 71
-1.2167534 1.0513753 2.0012317 62
-0.093797542 0.083141722 2.0010643 89
-0.16409703 0.1469661 2.0082631 93
-0.38823643 0.33697569 2.0154345 96
-0.49737066 0.43141678 1.8446718 39
-0.5048039 0.43756285 1.4445202 42
-0.90583223 0.78519297 2.0310042 22
-1.0997423 0.95328504 2.00125 67
-1.340651 1.1621172 2.0016804 19
-1.1833317 1.0203333 1.615243 36
-0.93394762 0.80530202 1.0763943 7
-2.2528808 1.9432555 2.035228 10
-2.832422 2.4431524 2.0437305 35
-3.7281349 3.2169003 2.077812 29
-5.1897268 4.4796481 2.1037827 12
-8.2217131 7.0967875 2.1534953 14
-9.5701075 8.2636061 1.2258582 10
-1.5732352 1.3603708 1.932911 97
nan nan nan 0
-2.4990091 2.1616535 2.0265114 30
-3.2235041 2.7893302 2.0580471 34
-4.3315206 3.7494314 2.0819185 15
nan nan nan 0
-9.5673409 8.2874861 1.8553697 15
-9.5672417 8.2903233 0.60434473 32
-0.023356093 0.020913105 1.9991974 32
-0.23727381 0.20783791 2.0057628 97
-0.31271419 0.27265409 2.0180943 91
-0.46390924 0.40395066 2.0125027 86
-0.49739262 0.43296289 1.613103 40
-0.56776196 0.49405292 1.4459776 39
-0.99822271 0.86864603 2.0160913 62
-1.2106576 1.0535115 1.9973947 64
-0.093506746 0.083468616 2.0010643 89
-0.16358303 0.14753802 2.0082631 95
-0.38705775 0.33832884 2.0154345 95
-0.49716133 0.43428564 1.8493646 39
-0.50327337 0.43932229 1.4445202 43
-0.90505052 0.79006523 2.03527 22
-1.0941375 0.955136 1.9972607 70
-1.3033854 1.1378065 1.9539032 21
-1.1959193 1.0384876 1.6362704 38
-0.92819166 0.80600488 1.0732565 7
-2.246084 1.9511076 2.035228 10
-2.8272212 2.4559298 2.0460486 37
-3.7168829 3.2298944 2.077812 32
-5.1704378 4.4945889 2.1023736 18
-8.2005978 7.1286654 2.154428 10
-9.5712681 8.3231049 1.2294278 13
-1.6219851 1.4124498 1.9960833 83
nan nan nan 0
-2.4979496 2.1760273 2.0315762 29
-3.213748 2.8005652 2.0580471 37
-4.3184066 3.7645285 2.0819185 15
nan nan nan 0
-9.5682087 8.3468742 1.8608881 26
-9.5796509 8.3598022 0.6065616 49
-0.023282949 0.020994507 1.9991974 29
-0.23654689 0.20866489 2.0057628 97
-0.31099549 0.27307212 2.0131991 93
-0.46249634 0.40556759 2.0125027 84
-0.49734735 0.43598437 1.6177055 40
-0.5660339 0.49603176 1.4459776 39
-0.99306816 0.87027043 2.0119584 42
-1.2069728 1.0577312 1.9973947 66
-0.093214825 0.083794519 2.0010643 91
-0.16267224 0.14774865 2.0032918 95
-0.38587445 0.33967784 2.0154345 95
-0.49693796 0.43715829 1.8540574 39
-0.50173682 0.44107634 1.4445202 45
-0.90228719 0.79321957 2.03527 23
-1.0862697 0.95496935 1.9892817 63
-1.3299593 1.1692098 1.9980052 20
-1.2110786 1.0590891 1.6608021 42
nan nan nan 0
-2.2361124 1.956183 2.0324864 16
-2.8186309 2.4657838 2.0460486 37
-3.7090745 3.2459021 2.0796847 32
-5.1511073 4.5094495 2.1009643 10
-8.2643681 7.2349033 2.1768107 5
-9.5721283 8.3827114 1.2329975 10
-1.6142374 1.4156411 1.9927584 81
-2.022547 1.7743435 2.0426424 16
-2.4968202 2.1904199 2.0366411 24
-3.2039526 2.8117659 2.0580471 34
-4.3052392 3.7795792 2.0819185 26
nan nan nan 0
-9.5687771 8.4063711 1.8664067 25
-9.5879383 8.4261694 0.60857689 52
-0.023209523 0.021075651 1.9991974 29
-0.23581707 0.20948933 2.0057628 98
-0.31004041 0.27415603 2.0131991 93
-0.46107784 0.40717953 2.0125027 82
-0.49875161 0.4403038 1.6269106 40
-0.56429899 0.49800459 1.4459776 39
-0.9858045 0.87000757 2.0036924 37
-1.2032733 1.0619378 1.9973947 59
-0.092921756 0.084119387 2.0010643 89
-0.16215551 0.14831559 2.0032918 93
-0.38468638 0.34102273 2.0154345 95
-0.49670064 0.44003463 1.8587501 39
-0.50019413 0.44282505 1.4445202 49
-0.89951283 0.79636431 2.03527 30
-1.0739032 0.95076382 1.9733237 51
-1.3258697 1.1738453 1.9980052 20
-1.3010454 1.1458052 1.7834612 83
-1.7609909 1.5508773 1.9737986 48
-2.2261331 1.9612124 2.0297451 21
-2.8133307 2.4785359 2.0483663 36
-3.6977217 3.2588291 2.0796847 25
-5.1317363 4.5242305 2.0995553 6
-8.2022161 7.2312222 2.1674845 23
-9.5726891 8.4424248 1.2365671 18
-1.13905 1.0059686 1.4341838 96
-2.0011952 1.7680117 2.0279264 20
-2.4923902 2.2019768 2.0391736 13
-3.1975193 2.8259387 2.0601451 36
-4.2884827 3.7914567 2.080276 17
nan nan nan 0
-9.569047 8.4659719 1.8719252 18
-9.5996189 8.4960079 0.61079371 47
-0.023139507 0.0211525 1.9991974 27
-0.2351211 0.21027015 2.0057628 98
-0.30912957 0.27518266 2.0131991 93
-0.45972508 0.40870625 2.0125027 82
-0.49874899 0.44325313 1.6315131 40
-0.56264442 0.4998731 1.4459776 39
-0.9808104 0.87140274 1.9995594 37
-1.1973484 1.0637928 1.9935577 64
-0.09265703 0.084410883 2.0010643 89
-0.16168875 0.14882427 2.0032918 93
-0.38361311 0.34222957 2.0154345 95
-0.49660382 0.4427413 1.8634429 39
-0.49872291 0.44448128 1.4445202 54
-0.89686704 0.79934281 2.03527 38
-1.0324947 0.92022854 1.9055022 37
-1.3323003 1.1870257 2.0127058 17
-1.358614 1.2045283 1.8640658 87
-1.7878799 1.5851163 2.0083144 58
-2.210232 1.9602602 2.0215206 28
-2.8050961 2.4878516 2.0483663 36
-3.6874654 3.2704298 2.0796847 26
-5.1139092 4.5371456 2.098146 6
-8.1708441 7.2518601 2.1656194 18
-9.5781574 8.5038805 1.2405831 25
-1.1189631 0.99485266 1.4142349 95
-1.9983417 1.7773246 2.0308697 22
-2.4886823 2.2126606 2.0417061 10
-3.1886256 2.8359702 2.0601451 39
-4.2730217 3.8017712 2.0786333 14
-6.3758335 5.6746707 2.1493423 2
-9.5682945 8.5190449 1.876754 12
-9.6027269 8.5527067 0.61240596 47
-0.023061823 0.02123717 1.9991974 26
-0.23434885 0.21113051 2.0057628 98
-0.30811891 0.27631381 2.0131991 93
-0.45822394 0.4103885 2.0125027 84
-0.49857655 0.44638136 1.6361156 40
-0.56080854 0.50193197 1.4459776 39
-0.97760999 0.87499177 1.9995594 37
-1.1934414 1.0681742 1.9935577 64
-0.092332236 0.084766038 2.0010643 89
-0.16111612 0.14944403 2.0032918 93
-0.38229626 0.34370005 2.0154345 95
-0.49618378 0.44579822 1.8681357 39
-0.49701256 0.44639301 1.4445202 57
-0.89379114 0.80278069 2.03527 50
-0.98859286 0.88793451 1.8336914 26
-1.335091 1.1991606 2.0237315 15
-1.4419636 1.2878957 1.9797159 81
-1.7820581 1.5916585 2.0083144 56
-2.1999147 1.965562 2.0187793 31
-2.7992628 2.5010681 2.0506845 31
-3.6714242 3.2814753 2.077812 28
-5.0785694 4.540761 2.0911002 11
nan nan nan 0
-9.5788364 8.5704813 1.244599 25
-1.1179162 1.0016338 1.4175596 97
-1.9884924 1.7822865 2.0279264 24
-2.4829903 2.2255104 2.0442383 11
-3.1805947 2.8517768 2.0622432 38
-4.2542105 3.8157403 2.0769906 12
nan nan nan 0
-9.5686865 8.5854864 1.8829623 32
-9.5995598 8.6162119 0.6140182 63
-0.023019128 0.021347653 2.0041974 23
-0.23361042 0.21194725 2.0057628 98
-0.30715251 0.27738768 2.0131991 93
-0.45678866 0.41198552 2.0125027 86
-0.49991724 0.45073554 1.6453207 40
-0.55905306 0.50388652 1.4459776 39
-0.97245955 0.87651485 1.9954264 37
-1.1897055 1.0723336 1.9935577 64
-0.092035785 0.085087828 2.0010643 89
-0.16059348 0.1500055 2.0032918 93
-0.38109419 0.34503242 2.0154345 95
-0.4971838 0.44984314 1.8775212 39
-0.49714482 0.44949928 1.449021 57
-0.89305866 0.80748934 2.039536 66
-0.97222948 0.87907934 1.8097541 28
-1.3135048 1.1876652 1.9980052 14
-1.4321561 1.2881513 1.9727067 71
-1.7909632 1.6108861 2.0240033 58
-2.1774981 1.9592448 2.0050719 30
-2.7905152 2.510824 2.0506845 12
-3.6599472 3.2942708 2.077812 14
-5.0947738 4.5873508 2.1037827 8
nan nan nan 0
-9.5873661 8.6355295 1.2490611 23
nan nan nan 0
-1.9885731 1.7942865 2.0338128 26
-2.4755967 2.233732 2.0442383 16
-3.1744893 2.8653491 2.0643413 36
-4.2625637 3.8488162 2.0868468 11
nan nan nan 0
-9.5533562 8.6321144 1.8857216 35
-9.6027822 8.6798191 0.61583197 42
-0.02297594 0.021458097 2.009197 23
-0.23286916 0.21276142 2.0057628 98
-0.30693558 0.27914327 2.0180943 93
-0.45534775 0.4135775 2.0125027 86
-0.49978715 0.45379111 1.6499232 40
-0.55729073 0.50583488 1.4459776 39
-0.96939397 0.87990403 1.9954264 36
-1.185955 1.0764799 1.9935577 66
-0.091738209 0.085408568 2.0010643 89
-0.1600689 0.15056518 2.0032918 93
-0.37988749 0.34636056 2.0154345 96
-0.4968861 0.4527382 1.882214 39
-0.49557275 0.4512319 1.449021 47
-0.8921628 0.81235766 2.0438018 66
-0.9646979 0.87840927 1.8017752 34
-1.2993243 1.1831129 1.9833045 14
-1.3615721 1.2332891 1.885093 79
-1.7824438 1.6145144 2.0208654 54
-2.1799417 1.9752569 2.0132964 34
-2.7850168 2.523524 2.0530026 9
-3.6484258 3.3070264 2.077812 15
-5.0964994 4.6212192 2.1108286 8
-8.1150093 7.3582358 2.1712151 6
-9.5903616 8.6990547 1.253077 19
-1.6113989 1.4636847 2.0193572 81
-1.9852893 1.8039351 2.036756 28
-2.4677842 2.2423596 2.0442383 31
-3.1678262 2.8794653 2.0664394 37
-4.2595849 3.8732026 2.0917747 10
nan nan nan 0
-9.5817719 8.7187357 1.8967587 37
-9.6019812 8.7401896 0.61744422 36
-0.022932265 0.0215685 2.0141969 19
-0.23212507 0.21357299 2.0057628 98
-0.30595931 0.280213 2.0180943 93
-0.45390138 0.41516444 2.0125027 86
-0.49964184 0.45685127 1.6545256 40
-0.55552161 0.50777709 1.4459776 39
-0.96631664 0.88328248 1.9954264 36
-1.1821903 1.0806131 1.9935577 69
-0.091439515 0.08572828 2.0010643 89
-0.15954235 0.151123 2.0032918 93
-0.37867615 0.3476845 2.0154345 95
-0.49657419 0.45563662 1.8869067 39
-0.49559969 0.45443082 1.4535218 39
-0.89124399 0.81722957 2.0480678 52
-0.96829009 0.88788229 1.8137437 37
-1.292688 1.1853501 1.9796295 14
-1.2755808 1.1635305 1.7764521 60
-1.7624167 1.607609 2.0051763 46
-2.1761222 1.9856727 2.0160377 35
-2.776191 2.5332303 2.0530026 9
-3.6368601 3.3197417 2.077812 15
-5.0945072 4.6519203 2.1164656 9
-8.09653 7.3931432 2.1730802 6
-9.6003847 8.7694244 1.2579854 39
-1.6062801 1.4693005 2.0193572 83
-1.9819623 1.8135827 2.0396991 28
-2.4599421 2.2509604 2.0442383 38
-3.1577556 2.890506 2.0664394 37
-4.2564874 3.8976154 2.0967026 12
-6.1721067 5.6537085 2.1094837 10
-9.5877895 8.7855864 1.9036568 30
-9.608243 8.8074121 0.61945957 67
-0.022856839 0.021648416 2.0141969 19
-0.23137814 0.21438196 2.0057628 98
-0.30497932 0.28127927 2.0180943 93
-0.45244938 0.41674629 2.0125027 84
-0.49948126 0.45991597 1.6591282 40
-0.55374581 0.50971317 1.4459776 39
-0.96529794 0.888556 1.9995594 38
-1.178411 1.0847331 1.9935577 64
-0.091139711 0.086046942 2.0010643 89
-0.15901385 0.15167899 2.0032918 93
-0.37746021 0.34900424 2.0154345 95
-0.4962481 0.45853832 1.8915994 39
-0.49561036 0.45763537 1.4580227 37
-0.89221811 0.82387429 2.0565999 39
-0.96297067 0.88921207 1.8097541 39
-1.3034866 1.2036546 2.0016804 14
-1.0298853 0.94602275 1.4540339 36
-1.74246 1.6005838 1.9894875 46
-2.1784143 2.0017445 2.0242622 35
-2.7640696 2.5399082 2.0506845 13
-3.6252499 3.3324165 2.077812 18
-5.0711761 4.6631808 2.1136472 9
-8.0164347 7.3714848 2.159091 6
-9.6027021 8.8332272 1.2620013 34
-1.5956481 1.4698384 2.0127075 89
-1.9785923 1.8232292 2.0426424 29
-2.4520698 2.2595334 2.0442383 38
-3.160995 2.913815 2.0748315 23
-4.2636867 3.931658 2.1065588 6
-6.170197 5.6916962 2.1153452 9
-9.5970984 8.8559427 1.9112449 26
-9.6068077 8.8680077 0.62107182 63
-0.02278113 0.021728069 2.0141969 16
-0.2306284 0.21518831 2.0057628 98
-0.30399564 0.28234214 2.0180943 93
-0.4509919 0.41832313 2.0125027 84
-0.49930531 0.4629851 1.6637307 39
-0.55196315 0.51164299 1.4459776 39
-0.96219039 0.89192015 1.9995594 39
-1.1722664 1.0866605 1.9897208 66
-0.090838797 0.086364552 2.0010643 91
-0.15848343 0.15223312 2.0032918 93
-0.37623963 0.35031968 2.0154345 95
-0.49590778 0.46144336 1.8962922 39
-0.49560463 0.46084559 1.4625236 34
-0.89124662 0.82875973 2.0608659 38
-0.9598608 0.89256805 1.8097541 45
-1.3042424 1.2128147 2.0090308 14
-0.93233114 0.86243111 1.3278702 19
-1.7311471 1.6013695 1.983212 48
-2.177552 2.0150163 2.0297451 39
-2.7551866 2.5495412 2.0506845 24
-3.6169975 3.3481998 2.0796847 21
-5.0372677 4.664557 2.1066012 19
-7.9834456 7.3927474 2.1572256 4
-9.6083441 8.9005346 1.2664633 16
-1.5850321 1.47032 2.006058 95
-1.972216 1.8301246 2.0426424 29
-2.4441676 2.268079 2.0442383 38
-3.1441522 2.9186561 2.0706356 14
-4.2291732 3.9272361 2.0967026 8
-6.1538534 5.7165074 2.1165175 8
-9.6060305 8.9264698 1.9188327 28
-9.630682 8.9525089 0.62409478 20
-0.022705147 0.021807458 2.0141969 16
-0.22987585 0.21599205 2.0057628 98
-0.30300823 0.28340155 2.0180943 93
-0.44843751 0.41887525 2.007731 84
-0.49911407 0.46605855 1.6683333 39
-0.55017382 0.51356655 1.4459776 39
-0.96112812 0.89719361 2.0036924 40
-1.1684661 1.0907459 1.9897208 59
-0.090536781 0.086681113 2.0010643 89
-0.15795107 0.15278541 2.0032918 91
-0.37501448 0.3516309 2.0154345 95
-0.4968124 0.46553159 1.9056778 39
-0.49717212 0.46554989 1.4715252 29
-0.89215559 0.83543104 2.0693977 34
-0.95673937 0.89591318 1.8097541 42
-1.3074244 1.2243116 2.0200562 13
-0.86668795 0.80734098 1.2437612 12
-1.7483342 1.6286302 2.0083144 50
-2.179682 2.031157 2.0379696 50
-2.7430289 2.5561225 2.0483663 35
-3.605288 3.3608053 2.0796847 15
-5.0104294 4.6722965 2.1023736 21
-7.9396296 7.4038196 2.1525626 4
-9.606349 8.9611959 1.2700329 7
-1.5689744 1.465647 1.9927584 98
-1.9658155 1.8369979 2.0426424 28
-2.4362357 2.276597 2.0442383 39
-3.1306293 2.9265139 2.0685375 14
-4.2050915 3.9322982 2.0917747 21
-6.1409607 5.7445941 2.1188624 14
-9.6037407 8.9870167 1.9243512 25
-9.5847845 8.9724159 0.62328869 9
-0.022628885 0.02188658 2.0141969 14
-0.22912051 0.21679315 2.0057628 98
-0.30201712 0.2844575 2.0180943 93
-0.44697264 0.42043802 2.007731 84
-0.49890739 0.4691363 1.6729357 40
-0.55012339 0.51712483 1.4503663 38
-0.96004093 0.90247065 2.0078254 51
-1.1646515 1.094818 1.9897208 59
-0.090233654 0.086996615 2.0010643 91
-0.15779878 0.15370888 2.0082631 91
-0.37378478 0.35293776 2.0154345 95
-0.49643946 0.46844733 1.9103705 39
-0.4971284 0.46877655 1.4760261 27
-0.89113146 0.84032947 2.0736635 34
-0.95360619 0.89924735 1.8097541 45
-1.3031428 1.228868 2.0200562 13
nan nan nan 0
-1.7596736 1.6507031 2.0271409 56
-2.1756279 2.0416145 2.0407109 48
-2.7340896 2.5656817 2.0483663 40
-3.5935345 3.3733695 2.0796847 17
-4.9870949 4.6831894 2.0995553 25
-7.8994126 7.4180379 2.1488321 7
-9.6113071 9.0287704 1.274495 24
-1.5747287 1.4813497 2.006058 98
-1.9593914 1.8438486 2.0426424 26
-2.4282739 2.2850871 2.0442383 38
nan nan nan 0
-4.1844635 3.9404778 2.0884893 18
-6.1208706 5.7659955 2.1188624 13
-9.6191645 9.0646372 1.933319 31
-9.6297464 9.0777826 0.6275208 53
-0.022552349 0.021965437 2.0141969 13
-0.22836235 0.21759161 2.0057628 98
-0.30102235 0.28551003 2.0180943 95
-0.44550234 0.4219957 2.007731 84
-0.4986853 0.4722183 1.6775383 40
-0.54831493 0.51904196 1.4503663 38
-0.95688486 0.90581626 2.0078254 62
-1.163151 1.1010805 1.9935577 64
-0.089722008 0.087108999 1.9960728 89
-0.15726128 0.15425876 2.0082631 91
-0.37163904 0.35337356 2.0105951 95
-0.49605221 0.47136611 1.9150633 39
-0.49864733 0.47350818 1.4850277 27
-0.89008397 0.84523094 2.0779295 34
-0.95046145 0.90257061 1.8097541 47
-0.93993092 0.89257419 1.4834822 13
nan nan nan 0
-1.7567307 1.6595087 2.0302787 60
-2.1654489 2.0463243 2.0379696 43
-2.7251172 2.5752099 2.0483663 38
-3.5817375 3.3858929 2.0796847 27
-4.970717 4.7005696 2.0995553 25
-7.8449178 7.4185658 2.1413713 8
-9.608675 9.0896444 1.2780647 55
-1.5776813 1.4945418 2.0160325 83
-1.9529431 1.8506769 2.0426424 24
-2.4202826 2.2935493 2.0442383 38
-0.86377627 0.81883031 0.63766557 9
-4.1638298 3.9485617 2.0852039 15
-6.0971804 5.7839813 2.1176901 12
-9.5874653 9.0981579 1.933319 30
-9.5943785 9.1079025 0.62731928 23
-0.022444816 0.022013044 2.009197 11
-0.22760141 0.21838741 2.0057628 98
-0.30002388 0.28655908 2.0180943 95
-0.44510725 0.42457914 2.0125027 84
-0.49986157 0.47665271 1.6867434 40
-0.54649979 0.52095276 1.4503663 38
-0.95575386 0.91109246 2.0119584 60
-1.1639414 1.1095582 2.0012317 59
-0.089417398 0.087421663 1.9960728 89
-0.15672186 0.15480676 2.0082631 91
-0.37040326 0.35466868 2.0105951 95
-0.49565059 0.47428787 1.9197561 39
-0.49856532 0.47675103 1.4895285 31
-0.88712806 0.84833276 2.0779295 36
-0.94730502 0.90588289 1.8097541 42
-0.93680954 0.89584965 1.4834822 13
-1.4266368 1.3571334 2.0147614 13
-1.7424656 1.6575813 2.0208654 56
-2.1552637 2.0509882 2.035228 39
-2.7161114 2.5847065 2.0483663 39
-3.5698969 3.3983748 2.0796847 14
-4.9542789 4.7178917 2.0995553 26
-7.836762 7.4628425 2.1460345 7
-9.6201572 9.1643496 1.2834193 34
-1.588667 1.5155057 2.0359814 73
-1.9435468 1.8546922 2.0396991 25
-2.412262 2.3019838 2.0442383 39
-0.85434711 0.8155728 0.63346946 5
-4.1500211 3.9630721 2.0852039 13
-6.0804677 5.8085861 2.1188624 8
-9.6379929 9.2102613 1.9491847 24
-9.5625277 9.1413374 0.62731928 15
-0.022367839 0.022091256 2.009197 11
-0.22683772 0.21918055 2.0057628 98
-0.29902178 0.2876046 2.0180943 93
-0.4436225 0.42613026 2.0125027 84
-0.49960384 0.47974783 1.6913459 40
-0.54467797 0.52285725 1.4503663 37
-0.9525677 0.91442311 2.0119584 64
-1.1646867 1.1180546 2.0089054 71
-0.089111693 0.087733261 1.9960728 89
-0.15618052 0.15535288 2.0082631 91
-0.36916298 0.35595948 2.0105951 93
-0.49523455 0.47721261 1.9244488 39
-0.4984667 0.47999898 1.4940293 35
-0.8710112 0.83876061 2.0480678 35
-0.94413716 0.90918404 1.8097541 45
-0.90681517 0.87324667 1.4430554 13
-1.4399177 1.379374 2.0392931 14
-1.7282357 1.6555749 2.011452 56
-2.1450722 2.0556059 2.0324864 38
-2.71347 2.6003027 2.0530026 38
-3.554666 3.4076071 2.077812 11
-4.9343176 4.7318358 2.098146 24
-7.8000274 7.4799519 2.1432364 8
-9.58811 9.197875 1.2834193 31
-1.5806745 1.518455 2.0326567 71
-1.9399754 1.8642658 2.0426424 26
-2.4011035 2.3074031 2.0417061 38
-3.1319981 3.0108283 2.0958121 2
-4.1361628 3.9775338 2.0852039 12
-6.0496464 5.8196664 2.1153452 10
-9.6236267 9.2610178 1.9526336 12
-9.4801702 9.1261539 0.62449783 18
-0.022290589 0.022169199 2.009197 9
-0.22607125 0.21997105 2.0057628 98
-0.29801604 0.28864661 2.0180943 95
-0.44213229 0.42767623 2.0125027 86
-0.49933058 0.48284695 1.6959485 40
-0.54112703 0.52309024 1.4459776 37
-0.95139325 0.91969854 2.0160913 56
-1.1676918 1.1287981 2.0204165 62
-0.088804908 0.088043779 1.9960728 89
-0.15563729 0.1558971 2.0082631 93
-0.36791822 0.35724595 2.0105951 93
-0.4948042 0.48014018 1.9291415 39
-0.4967882 0.48173603 1.4940293 37
-0.86807811 0.84179592 2.0480678 32
-0.9387942 0.91037601 1.8057648 38
-0.88429147 0.85752589 1.4136541 12
-1.4325274 1.3819159 2.0357888 16
-1.7140412 1.6534892 2.0020387 40
-2.131866 2.0572736 2.0270035 37
-2.6980009 2.6036055 2.0483663 33
-3.5427494 3.4199946 2.077812 11
-4.928123 4.7590289 2.1023736 18
-7.7774034 7.5105462 2.1441691 10
-9.6132526 9.2866478 1.2905586 46
-1.5673122 1.5161738 2.022682 69
-1.9276469 1.8654045 2.036756 25
-2.3930345 2.3157701 2.0417061 38
-3.1214693 3.0217423 2.0958121 4
-4.1222534 3.9919477 2.0852039 12
-6.0432587 5.8542757 2.1200345 11
nan nan nan 0
-9.441082 9.152236 0.62409478 9
-0.022182671 0.022215571 2.0041974 9
-0.22530204 0.22075884 2.0057628 99
-0.29700667 0.28968513 2.0180943 91
-0.44063672 0.42921695 2.0125027 86
-0.50044143 0.48731303 1.7051535 40
-0.53929782 0.5249759 1.4459776 37
-0.9481771 0.92301393 2.0160913 44
-1.161447 1.130631 2.0165794 54
-0.088497035 0.088353224 1.9960728 89
-0.15509215 0.15643942 2.0082631 93
-0.36666894 0.35852805 2.0105951 95
-0.49559358 0.48427662 1.9385271 39
-0.49666169 0.48498875 1.4985301 38
-0.85953671 0.83935463 2.03527 23
-0.93561065 0.91364747 1.8057648 36
-0.87401634 0.85350168 1.4026285 10
nan nan nan 0
-1.7026744 1.6540372 1.9957631 40
-2.1186743 2.0588746 2.0215206 35
-2.6888959 2.6130073 2.0483663 34
-3.5174932 3.4194145 2.0703199 12
-4.908042 4.7728572 2.1009643 15
-7.7440958 7.5307989 2.1423037 16
-9.5914869 9.3305655 1.2918973 53
-1.5513105 1.5112125 2.0093827 75
-1.9269133 1.8777637 2.0426424 18
-2.3818486 2.3211002 2.0391736 32
-3.1693995 3.0896451 2.1335769 2
-4.1150556 4.0129066 2.0884893 17
-6.0193081 5.8719411 2.1188624 13
nan nan nan 0
-9.4090767 9.1851349 0.62409478 6
-0.02210499 0.022292869 2.0041974 7
-0.22453007 0.22154395 2.0057628 98
-0.29599366 0.29072011 2.0180943 91
-0.43913582 0.43075246 2.0125027 86
-0.5001322 0.49042475 1.709756 40
-0.53575122 0.52517807 1.4415889 37
-0.94293994 0.92434812 2.0119584 37
-1.1574935 1.1346782 2.0165794 39
-0.088188089 0.088661604 1.9960728 89
-0.15417103 0.1565989 2.0032918 93
-0.36631143 0.3606883 2.0154345 95
-0.49513012 0.487214 1.9432199 39
-0.49651843 0.48824638 1.503031 39
nan nan nan 0
-0.92811775 0.91268122 1.7977858 33
-0.85411125 0.83990812 1.3769025 7
nan nan nan 0
-1.7135869 1.676304 2.0145898 36
-2.1084862 2.0633333 2.0187793 27
-2.6987567 2.640969 2.0622747 18
-3.5154746 3.4414012 2.0759389 12
-4.8913517 4.7899609 2.1009643 11
nan nan nan 0
-9.4628057 9.2698946 1.2798496 29
-1.5326971 1.503543 1.9927584 40
-1.917462 1.8816475 2.0396991 10
-2.3891175 2.3444986 2.0518358 10
-3.1488788 3.0911515 2.1272829 2
-4.1010222 4.027246 2.0884893 8
-5.9953074 5.8895106 2.1176901 4
-1.80484 1.7736074 0.44469643 13
nan nan nan 0
-0.022027038 0.022369893 2.0041974 7
-0.22375537 0.22232634 2.0057628 99
-0.29497704 0.29175156 2.0180943 93
-0.43762955 0.43228269 2.0125027 82
-0.4998073 0.49354029 1.7143586 40
-0.53391469 0.52704501 1.4415889 37
-0.81754744 0.80704153 1.7598482 6
-1.0554206 1.0418657 1.8515908 5
-0.087878063 0.088968888 1.9960728 89
-0.15362346 0.1571361 2.0032918 93
-0.3650502 0.36196476 2.0154345 96
-0.49587795 0.49136874 1.9526054 39
-0.49790588 0.49304128 1.5120326 40
nan nan nan 0
-0.84140474 0.83320636 1.6421953 8
-0.84635651 0.83811355 1.3695521 6
-0.83110482 0.81871182 1.2262385 6
-1.6938587 1.6686156 1.9989008 11
-2.1161625 2.0853555 2.0324864 5
-0.84670377 0.83437681 0.70854706 4
nan nan nan 0
nan nan nan 0
nan nan nan 0
-9.402029 9.2748909 1.2762799 16
-0.82342273 0.81341636 1.1116736 9
nan nan nan 0
-0.85991234 0.84976304 0.79575211 4
nan nan nan 0
nan nan nan 0
nan nan nan 0
-1.8866384 1.8669803 0.46194181 4
nan nan nan 0
-0.021978885 0.022478264 2.009197 6
-0.22297794 0.22310603 2.0057628 99
-0.29323548 0.29206082 2.0131991 93
-0.43611795 0.43380767 2.0125027 82
-0.50085205 0.4980371 1.7235636 40
-0.53207177 0.52890551 1.4415889 37
-0.8147254 0.80989033 1.7598482 6
-0.97447371 0.96869713 1.7211345 4
-0.087769382 0.089482173 2.0010643 91
-0.15307403 0.15767139 2.0032918 93
-0.36378443 0.36323684 2.0154345 95
-0.49660274 0.49553457 1.9619911 39
-0.49772385 0.49631399 1.5165335 40
-0.81930578 0.81700271 1.9627492 7
-0.83849126 0.83613831 1.6421953 8
-0.83862466 0.83627492 1.3622017 7
-0.83077377 0.82411945 1.229743 5
nan nan nan 0
-0.832609 0.82623208 0.85365611 4
-0.843786 0.83732724 0.70854706 4
nan nan nan 0
nan nan nan 0
nan nan nan 0
nan nan nan 0
-0.82852089 0.82418668 1.1216481 6
nan nan nan 0
-0.84777302 0.84363633 0.78815484 5
-0.83064675 0.82688212 0.62927336 4
nan nan nan 0
nan nan nan 0
nan nan nan 0
nan nan nan 0
-0.021904225 0.022551026 2.009197 6
-0.22223687 0.22384423 2.0057628 99
-0.29226536 0.29303163 2.0131991 93
-0.43467695 0.43525147 2.0125027 86
-0.50057852 0.50107741 1.7281661 40
-0.53031492 0.53066701 1.4415889 37
-0.8160134 0.81656867 1.7681141 12
-0.82622385 0.82678986 1.4755702 4
-0.087487832 0.089757465 2.0010643 89
-0.15257794 0.15815151 2.0032918 93
-0.36264148 0.36437789 2.0154345 95
-0.49747887 0.49953789 1.9713765 40
-0.49761221 0.4995046 1.5210344 40
-0.81291074 0.81601971 1.9542173 13
-0.82295144 0.82610261 1.6182584 15
-0.83120733 0.83410275 1.3548514 11
-0.83308327 0.83190989 1.236752 5
nan nan nan 0
-0.83282274 0.83194369 0.85639757 5
-0.83160192 0.83072776 0.70159298 6
nan nan nan 0
-0.81126201 0.81069201 0.42684013 5
nan nan nan 0
nan nan nan 0
-0.82842189 0.82957196 1.1249729 6
nan nan nan 0
-0.84207207 0.84324485 0.78562242 5
-0.81201279 0.81342751 0.61878312 4
nan nan nan 0
nan nan nan 0
nan nan nan 0
nan nan nan 0
-0.021825375 0.022627348 2.009197 5
-0.22145416 0.22461863 2.0057628 99
-0.29124072 0.29405004 2.0131991 93
-0.43315503 0.43676615 2.0125027 84
-0.50157815 0.50559568 1.7373712 40
-0.52845931 0.53251487 1.4415889 38
-0.81514025 0.82140946 1.7722472 17
-0.8143 0.82056642 1.4602224 11
-0.087158263 0.090077527 2.0010643 89
-0.15199724 0.15870968 2.0032918 93
-0.36130357 0.3657046 2.0154345 95
-0.49807101 0.50381237 1.980762 40
-0.49739709 0.50278682 1.5255351 40
-0.81189138 0.82070637 1.9584832 19
-0.8158235 0.82468498 1.6102793 21
-0.82337606 0.83232337 1.347501 17
-0.82263023 0.82722646 1.2262385 10
nan nan nan 0
-0.82696575 0.83188027 0.85365611 6
-0.82869709 0.8336255 0.70159298 7
nan nan nan 0
-0.82180893 0.82727373 0.43247691 5
-0.80316931 0.80851007 0.30784002 4
nan nan nan 0
-0.83340967 0.84041357 1.1349475 15
nan nan nan 0
-0.8359406 0.84326375 0.78309 7
-0.82819372 0.83574075 0.63137144 7
nan nan nan 0
nan nan nan 0
nan nan nan 0
nan nan nan 0
-0.021746255 0.022703394 2.009197 5
-0.22066873 0.22539027 2.0057628 99
-0.29092643 0.29579085 2.0180943 95
-0.43057981 0.4372113 2.007731 84
-0.50118124 0.50873518 1.7419736 40
-0.52659726 0.5343563 1.4415889 38
-0.80634254 0.81823683 1.7598482 25
-0.82268196 0.83482122 1.4794071 16
-0.086843312 0.090381205 2.0010643 89
-0.15144232 0.15923928 2.0032918 93
-0.36002481 0.36696357 2.0154345 95
-0.49751821 0.50677925 1.9854547 39
-0.49716514 0.50607347 1.530036 40
-0.80353868 0.81795388 1.9456853 26
-0.81082767 0.82537758 1.6062899 28
-0.81809002 0.83277398 1.3438259 24
-0.81973767 0.83009303 1.2262385 18
-0.822743 0.83314002 1.0261899 17
-0.82111931 0.83178604 0.85091466 6
-0.82578218 0.83651316 0.70159298 6
-0.8406989 0.85192114 0.57189339 5
-0.8290233 0.84038299 0.43670449 4
-0.81414121 0.825297 0.3115705 5
nan nan nan 0
-0.82523054 0.83799601 1.1282978 24
-0.81848145 0.8314327 0.93307072 26
-0.83299196 0.84617656 0.78309 7
-0.83800471 0.85156596 0.63976359 12
-0.8415876 0.85550541 0.50658387 4
-0.83508211 0.84918875 0.37797081 4
-0.81227928 0.82628906 0.25361744 4
-0.84373045 0.85858256 0.14223436 10
-0.021666875 0.022779165 2.009197 4
-0.21988063 0.22615917 2.0057628 99
-0.28989217 0.29680461 2.0180943 95
-0.42905101 0.43871161 2.007731 84
-0.50076854 0.51187813 1.7465762 40
-0.52640444 0.53790355 1.4459776 39
-0.79954505 0.81702405 1.7515824 27
-0.81079388 0.82852256 1.4640594 20
-0.086527288 0.090683803 2.0010643 89
-0.15125167 0.16015558 2.0082631 93
-0.35874167 0.36821803 2.0154345 95
-0.49815539 0.51098418 1.9948403 38
-0.49843699 0.5109235 1.5390377 40
-0.78793049 0.80768573 1.9158239 24
-0.80794168 0.82820284 1.6062899 31
-0.81281078 0.83319783 1.3401507 28
-0.81433821 0.83040309 1.2227339 23
-0.81437862 0.83044797 1.0199144 28
-0.82113808 0.83763331 0.85365611 20
-0.82595843 0.84255421 0.70391101 6
-0.82474107 0.84160608 0.56440127 6
-0.82608479 0.84327173 0.43670449 4
-0.81125546 0.82813382 0.3115705 5
nan nan nan 0
-0.82230031 0.84087145 1.1282978 28
-0.82405078 0.84295577 0.94190019 29
-0.82701945 0.84599632 0.78055757 19
-0.82868308 0.84799403 0.63556755 13
-0.82209623 0.84154743 0.49837047 6
-0.83211279 0.85209858 0.37797081 4
-0.8301459 0.85038126 0.25775632 4
nan nan nan 0
-0.02158723 0.022854658 2.009197 4
-0.21908987 0.22692533 2.0057628 98
-0.28885436 0.2978147 2.0180943 93
-0.42751703 0.44020662 2.007731 84
-0.50170124 0.51642561 1.7557812 40
-0.52452362 0.53973776 1.4459776 39
-0.79276597 0.81577384 1.7433165 21
-0.80342829 0.8267495 1.4563855 24
-0.086210221 0.090985283 2.0010643 89
-0.15069169 0.16068257 2.0082631 91
-0.35745418 0.36946803 2.0154345 95
-0.49756894 0.51395994 1.9995331 38
-0.4981657 0.51422447 1.5435386 40
-0.77058929 0.79544568 1.8816965 25
-0.79875451 0.82452375 1.5943214 27
-0.80753857 0.83359504 1.3364756 29
-0.81143463 0.83324057 1.2227339 29
-0.81690663 0.83886337 1.0261899 30
-0.81820917 0.84049445 0.85365611 26
-0.82301235 0.84543216 0.70391101 27
-0.8250314 0.84780234 0.56627429 33
-0.82313621 0.8461501 0.43670449 6
-0.8117851 0.8344816 0.3125031 5
nan nan nan 0
-0.81415695 0.83837873 1.1216481 32
-0.81547254 0.84002674 0.93601388 31
-0.82406139 0.84887797 0.78055757 29
-0.82571799 0.85088152 0.63556755 33
-0.83230639 0.8579703 0.50494123 33
-0.83251709 0.85848731 0.37914312 6
-0.82372552 0.84971809 0.25706652 4
nan nan nan 0
-0.021507319 0.022929871 2.009197 4
-0.21829641 0.22768871 2.0057628 99
-0.28781301 0.29882118 2.0180943 93
-0.4259778 0.44169629 2.007731 84
-0.50125194 0.51957977 1.7603837 40
-0.52430004 0.54328936 1.4503663 39
-0.79186773 0.82056111 1.7474495 18
-0.79608518 0.82493514 1.4487115 20
-0.085694022 0.091074437 1.9960728 89
-0.15012988 0.1612076 2.0082631 91
-0.35616231 0.37071353 2.0154345 95
-0.49696776 0.51693767 2.0042257 37
-0.49787745 0.51752967 1.5480394 40
nan nan nan 0
-0.79378211 0.82513493 1.5903319 22
-0.80227357 0.83396566 1.3328004 24
-0.80604202 0.83350438 1.2192293 29
-0.80856115 0.8361131 1.0199144 33
-0.8152703 0.84334534 0.85365611 31
-0.8200562 0.8482998 0.70391101 32
-0.82528859 0.85401064 0.5681473 32
-0.82017756 0.84901828 0.43670449 28
-0.81228024 0.8408432 0.31343573 16
-0.82320112 0.85244578 0.19912931 7
-0.81122547 0.84121555 1.1216481 30
-0.80972999 0.83995807 0.93307072 33
-0.81810111 0.84864545 0.77802515 33
-0.82274282 0.85375863 0.63556755 33
-0.82275373 0.85406828 0.50165582 31
-0.82614374 0.85788697 0.37797081 24
-0.80358195 0.83474976 0.25361744 10
nan nan nan 0
-0.021427147 0.023004808 2.009197 5
-0.21750028 0.22844931 2.0057628 98
-0.2867682 0.29982397 2.0180943 93
-0.42443341 0.4431805 2.007731 84
-0.5021382 0.52414787 1.7695888 40
-0.52240038 0.54511619 1.4503663 38
-0.78705156 0.82128853 1.7433165 10
-0.79985511 0.83465302 1.4602224 16
-0.085375592 0.091373004 1.9960728 91
-0.14956625 0.16173066 2.0082631 91
-0.35486609 0.37195453 2.0154345 93
-0.49635193 0.51991755 2.0089188 38
-0.49757218 0.52083915 1.5525402 40
-0.60288125 0.63108099 1.4977623 32
-0.79089701 0.82790065 1.5903319 12
-0.79935759 0.836761 1.3328004 17
-0.80065745 0.83374053 1.2157247 23
-0.80833399 0.84173816 1.0230522 31
-0.80942571 0.84316951 0.85091466 31
-0.82015806 0.85435313 0.70622903 32
-0.82230252 0.85688627 0.5681473 32
-0.81720889 0.85187602 0.43670449 25
-0.81614137 0.85076314 0.31530097 12
-0.81677353 0.85171968 0.19868311 11
-0.80311853 0.8386479 1.1149985 25
-0.80399799 0.8398596 0.93012756 30
-0.81811506 0.85461026 0.78055757 33
-0.81348199 0.85006744 0.63137144 33
-0.81976742 0.85693496 0.50165582 31
-0.82314414 0.86076552 0.37797081 23
-0.8109293 0.84828871 0.25568688 4
-0.81785417 0.85583156 0.14142823 34
-0.021342687 0.023083188 2.009197 5
-0.21666153 0.22924495 2.0057628 98
-0.28566733 0.30087304 2.0180943 93
-0.42383528 0.44581568 2.0125027 84
-0.50155997 0.52740049 1.7741913 40
-0.52039891 0.54702723 1.4503663 38
nan nan nan 0
-0.794581 0.83525616 1.4563855 11
-0.084843569 0.091472678 1.9910811 93
-0.14897247 0.16227776 2.0082631 93
-0.35263559 0.37233937 2.0105951 91
-0.494443 0.52173328 2.0089188 42
-0.49856514 0.52590674 1.5615419 40
-0.58609968 0.61824936 1.4636348 34
nan nan nan 0
-0.7914741 0.83490342 1.3254501 9
-0.79759622 0.83666956 1.2157247 17
-0.79449916 0.83342445 1.010501 24
-0.80632985 0.84613055 0.85091466 29
-0.8139649 0.85414624 0.70391101 32
-0.81595868 0.85653776 0.56627429 32
-0.81408113 0.85486561 0.43670449 25
-0.80948168 0.8503328 0.31436834 12
-0.80663097 0.84763443 0.19779068 10
-0.8024649 0.84443247 1.1183233 17
-0.80076718 0.84294057 0.93012756 23
-0.80591959 0.84836811 0.77296025 30
-0.8102119 0.85318458 0.63137144 32
-0.81647104 0.86007637 0.50165582 31
-0.81648707 0.860394 0.37679848 22
-0.80781466 0.85125518 0.25568688 4
-0.81127346 0.85519892 0.14122671 31
-0.021261983 0.023157546 2.009197 6
-0.21585999 0.22999986 2.0057628 98
-0.28461537 0.30186838 2.0180943 91
-0.4222765 0.44729239 2.0125027 84
-0.50105733 0.53056848 1.7787938 40
-0.51848626 0.5488404 1.4503663 38
nan nan nan 0
nan nan nan 0
-0.084523745 0.091768287 1.9910811 95
-0.14840512 0.16279678 2.0082631 93
-0.35133371 0.37356803 2.0105951 91
-0.49380139 0.52471268 2.0136113 64
-0.49831137 0.52914256 1.5660427 40
-0.58404619 0.62018955 1.4636348 37
nan nan nan 0
nan nan nan 0
-0.79467088 0.83944857 1.2157247 8
-0.80228996 0.84750092 1.0230522 16
-0.79474926 0.83982879 0.84269023 19
-0.80184329 0.8473289 0.69695693 26
-0.80977798 0.856013 0.56440127 29
-0.8110922 0.85770202 0.43670449 26
-0.80665749 0.85301244 0.31436834 12
-0.80381572 0.8503046 0.19779068 9
-0.80991411 0.85795099 1.1316227 4
-0.80074161 0.84853113 0.93307072 14
-0.80014294 0.84790039 0.77042782 21
-0.80737817 0.85586667 0.63137144 18
-0.80713457 0.8559078 0.49837047 21
-0.81362951 0.86309683 0.37679848 22
-0.79804581 0.84686172 0.25430727 12
-0.80828339 0.85802555 0.14122671 31
-0.021181017 0.023231622 2.009197 6
-0.21505582 0.23075193 2.0057628 97
-0.28355992 0.30286002 2.0180943 91
-0.42071262 0.4487637 2.0125027 86
-0.50187492 0.53516436 1.7879989 40
-0.51492822 0.54889965 1.4459776 38
nan nan nan 0
nan nan nan 0
-0.084202908 0.092062764 1.9910811 95
-0.14783594 0.16331382 2.0082631 95
-0.35002759 0.37479213 2.0105951 93
-0.49196681 0.52643317 2.0136113 77
-0.49943614 0.53405994 1.5750444 40
-0.58009642 0.62031949 1.4593688 38
nan nan nan 0
nan nan nan 0
nan nan nan 0
nan nan nan 0
-0.7918129 0.84259778 0.84269023 8
-0.80191445 0.85335112 0.69927496 12
-0.80043685 0.85207671 0.56065518 6
-0.79167342 0.84304261 0.4296585 4
-0.80367494 0.85582298 0.31436834 11
-0.8008427 0.85310525 0.19779068 10
nan nan nan 0
nan nan nan 0
-0.7942304 0.84754241 0.7678954 6
nan nan nan 0
nan nan nan 0
nan nan nan 0
-0.78155011 0.83517867 0.25154799 8
-0.79504448 0.84989643 0.14062211 25
-0.021070965 0.023272667 2.0041974 6
-0.21424904 0.23150122 2.0057628 95
-0.28250101 0.303848 2.0180943 91
-0.41914356 0.4502295 2.0125027 86
-0.5013352 0.53834271 1.7926013 40
-0.51300907 0.55069369 1.4459776 38
-0.79454345 0.85292321 1.7846459 4
nan nan nan 0
-0.083686709 0.092141449 1.9860895 93
-0.14726497 0.16382888 2.0082631 93
-0.34871718 0.37601167 2.0105951 95
-0.49012619 0.52814728 2.0136113 91
-0.49905071 0.53739583 1.5795453 40
-0.57792753 0.62234062 1.4593688 39
nan nan nan 0
nan nan nan 0
nan nan nan 0
nan nan nan 0
nan nan nan 0
nan nan nan 0
nan nan nan 0
nan nan nan 0
nan nan nan 0
nan nan nan 0
nan nan nan 0
nan nan nan 0
nan nan nan 0
nan nan nan 0
nan nan nan 0
nan nan nan 0
nan nan nan 0
nan nan nan 0
-0.020989597 0.023346078 2.0041974 6
-0.21343964 0.23224768 2.0057628 95
-0.28143868 0.30483225 2.0180943 91
-0.41756943 0.45168984 2.0125027 86
-0.50077939 0.54152387 1.7972039 40
-0.51108372 0.55248111 1.4459776 38
-0.78391784 0.8474285 1.7681141 6
nan nan nan 0
-0.083364561 0.092433006 1.9860895 93
-0.14669219 0.16434193 2.0082631 95
-0.34740251 0.37722665 2.0105951 93
-0.48827964 0.52985489 2.0136113 93
-0.50012445 0.54233652 1.5885469 40
-0.57398373 0.62243688 1.4551029 39
-0.80069882 0.86830163 1.6382058 5
nan nan nan 0
nan nan nan 0
nan nan nan 0
nan nan nan 0
nan nan nan 0
nan nan nan 0
nan nan nan 0
nan nan nan 0
nan nan nan 0
nan nan nan 0
nan nan nan 0
nan nan nan 0
nan nan nan 0
nan nan nan 0
nan nan nan 0
nan nan nan 0
nan nan nan 0
-0.020907978 0.023419203 2.0041974 6
-0.21262765 0.23299131 2.0057628 97
-0.28037289 0.30581281 2.0180943 91
