# .PCD v0.7 - Point Cloud Data file format
VERSION 0.7
FIELDS x y z intensity
SIZE 4 4 4 4
TYPE F F F F
COUNT 1 1 1 1
WIDTH 1327
HEIGHT 1
VIEWPOINT 0 0 0 1 0 0 0
POINTS 1327
DATA ascii
0.43886927 -3.1466033 0.37761325 49
0.3063966 -2.2080433 2.0659051 10
0.37155914 -2.6810813 2.054415 9
0.43818974 -3.1618974 1.9606682 74
0.43758011 -3.1615565 1.5629067 6
0.43590593 -3.153513 1.1965115 47
0.43474001 -3.1491301 0.85744864 47
0.43286228 -3.1395733 0.53368264 59
0.43270841 -3.1425109 0.22163755 59
0.0037710697 -0.031123048 1.9991974 82
0.04115146 -0.31116569 1.9958843 95
0.055201914 -0.4101699 2.0131991 107
0.081641749 -0.60366255 1.9934158 86
0.11024165 -0.81416011 1.9951125 93
0.14069898 -1.0378075 1.9857829 85
0.17511927 -1.291737 1.9871606 82
0.21430004 -1.5807834 1.9858838 54
0.015197832 -0.12383339 1.9910811 89
0.025586344 -0.21772201 1.9983203 93
0.067431301 -0.50583363 2.0009167 95
0.094297089 -0.70562869 1.9901476 91
0.12341344 -0.9211446 1.9846202 95
0.15571766 -1.1623095 1.9883448 89
0.19125046 -1.4275753 1.9813027 89
0.23332994 -1.741711 1.9833045 39
0.2728315 -1.9968448 2.0603204 12
0.33135873 -2.4252348 2.0553811 10
0.41185084 -3.0182984 2.0818331 11
0.42964444 -3.1487217 1.749341 5
0.42889607 -3.1473379 1.3716784 40
0.42766333 -3.142391 1.0215206 41
0.4272638 -3.1394551 0.69301212 48
0.42788291 -3.1481164 0.37761325 49
0.29868725 -2.2090993 2.0659051 9
0.36219817 -2.6823621 2.054415 10
0.42715001 -3.1634076 1.9606682 74
0.42654157 -3.1630645 1.5629067 6
0.42426515 -3.1503351 1.1948688 47
0.4237448 -3.1506283 0.85744864 47
0.42190051 -3.1410651 0.53368264 60
0.42173633 -3.144002 0.22163755 60
0.0036624072 -0.031136021 1.9991974 82
0.040164035 -0.31207812 2.0008237 96
0.053769816 -0.41036007 2.0131991 107
0.079534069 -0.60394382 1.9934158 89
0.10739902 -0.81453997 1.9951125 93
0.13676195 -1.0359169 1.9813942 85
0.17060919 -1.2923403 1.9871606 82
0.20878077 -1.5815217 1.9858838 66
0.014799264 -0.12417326 1.9960728 89
0.024826197 -0.21781 1.9983203 93
0.065665208 -0.50606591 2.0009167 96
0.091833405 -0.70595354 1.9901476 93
0.12047894 -0.9237293 1.9891212 93
0.15165952 -1.1628461 1.9883448 87
0.18626615 -1.4282342 1.9813027 89
0.22724885 -1.7425148 1.9833045 40
0.26115531 -1.9624343 2.025275 21
0.32289106 -2.4263768 2.0553811 9
0.4013125 -3.0197177 2.0818331 11
0.41865078 -3.1502023 1.749341 5
0.4172973 -3.1442204 1.3698053 40
0.41669175 -3.1438646 1.0215206 41
0.41630247 -3.1409276 0.69301212 46
0.41689131 -3.1495907 0.37761325 49
0.29048684 -2.2064266 2.0625803 9
0.35283276 -2.68361 2.054415 11
0.41610503 -3.1648793 1.9606682 77
0.41549781 -3.1645343 1.5629067 7
0.41326582 -3.1517966 1.1948688 47
0.41274449 -3.1520884 0.85744864 47
0.41029146 -3.1376083 0.53299284 59
0.41011229 -3.1405015 0.22143602 66
0.0035536997 -0.031148616 1.9991974 80
0.039074432 -0.3122164 2.0008237 96
0.052337069 -0.41054526 2.0131991 107
0.077425428 -0.60421777 1.9934158 89
0.10455509 -0.81490988 1.9951125 93
0.13314509 -1.036388 1.9813942 85
0.16609706 -1.292928 1.9871606 82
0.20366746 -1.5854208 1.9897208 74
0.014365728 -0.12422417 1.9960728 89
0.024065748 -0.21789534 1.9983203 93
0.06389831 -0.50629205 2.0009167 96
0.089368612 -0.7062698 1.9901476 93
0.11725377 -0.92414421 1.9891212 92
0.14759949 -1.1633683 1.9883448 89
0.18127954 -1.4288757 1.9813027 89
0.22116494 -1.7432975 1.9833045 55
0.25063887 -1.9350401 1.9972385 28
0.31441945 -2.4274893 2.0553811 8
0.39076927 -3.0211 2.0818331 12
0.40765193 -3.1516442 1.749341 6
0.40631941 -3.145658 1.3698053 39
0.40571505 -3.1453001 1.0215206 44
0.40533602 -3.1423616 0.69301212 45
0.40525839 -3.1460872 0.37716705 49
0.28278318 -2.207427 2.0625803 9
0.34397599 -2.6888349 2.0573583 11
0.40505505 -3.1663125 1.9606682 77
0.40444902 -3.1659653 1.5629067 7
0.40226147 -3.1532199 1.1948688 43
0.40173918 -3.1535099 0.85744864 47
0.39933667 -3.1390214 0.53299284 59
0.39914736 -3.1419139 0.22143602 57
0.0034449492 -0.031160831 1.9991974 82
0.037984356 -0.3123509 2.0008237 96
0.050903682 -0.41072544 2.0131991 107
0.075315848 -0.60448432 1.9934158 88
0.10170989 -0.81526989 1.9951125 95
0.1295266 -1.0368465 1.9813942 85
0.16158287 -1.2934999 1.9871606 84
0.19813205 -1.586122 1.9897208 73
0.013932018 -0.12427356 1.9960728 89
0.023305004 -0.21797802 1.9983203 91
0.06213063 -0.50651205 2.0009167 96
0.086902723 -0.70657742 1.9901476 93
0.11402719 -0.92454785 1.9891212 93
0.14353767 -1.1638764 1.9883448 87
0.17629072 -1.4294997 1.9813027 87
0.21507834 -1.7440587 1.9833045 71
0.2425456 -1.9252886 1.986725 34
0.30545747 -2.4247096 2.052243 8
0.38022125 -3.0224454 2.0818331 12
0.39720112 -3.157444 1.751659 32
0.39533651 -3.1470571 1.3698053 39
0.39473343 -3.146697 1.0215206 40
0.39375323 -3.1388829 0.69207948 46
0.39427406 -3.1474826 0.37716705 51
0.27230665 -2.186166 2.0426311 11
0.33508697 -2.69403 2.0603013 10
0.39400005 -3.1677072 1.9606682 77
0.39283583 -3.162854 1.5608087 41
0.39067101 -3.1499186 1.1932261 43
0.39072889 -3.1548929 0.85744864 45
0.38837698 -3.1403964 0.53299284 59
0.38817763 -3.1432879 0.22143602 56
0.0033361567 -0.031172667 1.9991974 80
0.036802895 -0.31170994 1.9958843 96
0.049469668 -0.41090065 2.0131991 107
0.073205344 -0.6047436 1.9934158 88
0.098863453 -0.81561995 1.9951125 95
0.12619521 -1.0396708 1.9857829 85
0.15706675 -1.2940562 1.9871606 82
0.19259423 -1.586804 1.9897208 71
0.013498138 -0.12432143 1.9960728 89
0.022543978 -0.21805803 1.9983203 89
0.060362197 -0.50672585 2.0009167 96
0.084435776 -0.70687652 1.9901476 93
0.11079923 -0.92494023 1.9891212 95
0.13947412 -1.1643703 1.9883448 87
0.17129977 -1.4301064 1.9813027 89
0.20898914 -1.744799 1.9833045 86
0.23539023 -1.9225837 1.9832203 35
0.29841101 -2.4373534 2.0616565 8
0.36966863 -3.0237544 2.0818331 12
0.38671479 -3.1632085 1.7539771 74
0.38434884 -3.1484179 1.3698053 40
0.38374701 -3.1480558 1.0215206 40
0.38279408 -3.1402385 0.69207948 49
0.38268316 -3.1438963 0.37672085 49
0.26153344 -2.1611524 2.0193572 14
0.3266508 -2.7032089 2.0661876 10
0.38242307 -3.1647832 1.9581357 77
0.38179302 -3.164206 1.5608087 78
0.37967336 -3.151263 1.1932261 47
0.37971389 -3.1562378 0.85744864 45
0.37741262 -3.1417329 0.53299284 60
0.37720314 -3.1446238 0.22143602 56
0.0032273233 -0.031184122 1.9991974 82
0.0357146 -0.31183654 1.9958843 95
0.048035055 -0.41107082 2.0131991 106
0.071093947 -0.60499543 1.9934158 88
0.096015811 -0.81596005 1.9951125 95
0.12256531 -1.040105 1.9857829 83
0.15254869 -1.2945964 1.9871606 76
0.18705408 -1.5874667 1.9897208 71
0.013064091 -0.1243678 1.9960728 89
0.021782676 -0.21813542 1.9983203 88
0.058593024 -0.50693345 2.0009167 96
0.081967808 -0.70716691 1.9901476 93
0.10756991 -0.92532134 1.9891212 92
0.13540886 -1.1648501 1.9883448 87
0.16630672 -1.4306957 1.9813027 87
0.20289737 -1.7455177 1.9833045 86
0.22825672 -1.9198524 1.9797159 38
0.28990126 -2.4383798 2.0616565 8
0.35911152 -3.0250266 2.0818331 12
0.37567076 -3.1645393 1.7539771 74
0.37281075 -3.1451364 1.3679323 40
0.37275591 -3.1493762 1.0215206 40
0.37183028 -3.1415555 0.69207948 48
0.37170658 -3.1452131 0.37672085 49
0.25137389 -2.1397991 1.9994081 16
0.31721285 -2.7043328 2.0661876 9
0.37137359 -3.1660986 1.9581357 77
0.3707456 -3.1655192 1.5608087 78
0.36867109 -3.1525693 1.1932261 45
0.36869422 -3.1575439 0.85744864 48
0.3664436 -3.1430311 0.53299284 60
0.36622405 -3.1459212 0.22143602 57
0.0031184508 -0.031195199 1.9991974 82
0.034625869 -0.31195927 1.9958843 95
0.046599858 -0.41123599 2.0131991 107
0.068981677 -0.60523993 1.9934158 86
0.092945479 -0.81434917 1.99051 95
0.11893393 -1.0405265 1.9857829 83
0.14802876 -1.2951211 1.9871606 76
0.18151166 -1.58811 1.9897208 73
0.012629888 -0.12441263 1.9960728 89
0.021021107 -0.21821012 1.9983203 88
0.056823142 -0.50713485 2.0009167 96
0.079498835 -0.70744872 1.9901476 93
0.10433927 -0.92569119 1.9891212 93
0.13134195 -1.1653157 1.9883448 87
0.16131164 -1.4312674 1.9813027 87
0.19680314 -1.7462155 1.9833045 86
0.22155377 -1.9206375 1.9797159 46
0.2751427 -2.3852358 2.0177276 15
0.34855002 -3.0262616 2.0818331 12
0.36462218 -3.1658313 1.7539771 73
0.36182991 -3.1464186 1.3679323 40
0.36176029 -3.1506581 1.0215206 40
0.36086196 -3.1428344 0.69207948 46
0.36072546 -3.1464915 0.37672085 49
0.24052112 -2.110981 1.9728094 23
0.30731419 -2.7014077 2.0632446 9
0.35983229 -3.1630924 1.9556034 79
0.35969359 -3.1667943 1.5608087 77
0.35713217 -3.1491444 1.1915834 47
0.3576701 -3.1588118 0.85744864 50
0.35547018 -3.1442912 0.53299284 59
0.35524049 -3.1471803 0.22143602 57
0.00300954 -0.031205893 1.9991974 82
0.033536717 -0.31207824 1.9958843 95
0.045164093 -0.41139618 2.0131991 107
0.066868581 -0.60547704 1.9934158 86
0.090102307 -0.8146686 1.99051 95
0.11530108 -1.0409352 1.9857829 85
0.14350705 -1.29563 1.9871606 84
0.17561409 -1.5855473 1.9858838 68
0.012167777 -0.12416774 1.9910811 88
0.020259283 -0.21828216 1.9983203 91
0.055052564 -0.50733012 2.0009167 95
0.076842219 -0.70600629 1.9854547 93
0.10110738 -0.92604977 1.9891212 93
0.12727344 -1.1657671 1.9883448 87
0.1563146 -1.4318217 1.9813027 87
0.19070652 -1.7468917 1.9833045 83
0.21484816 -1.9213992 1.9797159 71
0.26162401 -2.3397567 1.9800742 28
0.33844817 -3.031615 2.0845745 11
0.35356915 -3.1670847 1.7539771 73
0.35084465 -3.1476626 1.3679323 40
0.35076019 -3.1519017 1.0215206 40
0.34988919 -3.1440749 0.69207948 46
0.34973997 -3.1477313 0.37672085 51
0.23438029 -2.1229427 1.9827838 37
0.29832548 -2.7064815 2.0661876 9
0.34878886 -3.1643291 1.9556034 76
0.34814075 -3.1635191 1.5587107 77
0.3461374 -3.1503716 1.1915834 47
0.34611163 -3.1552095 0.85627633 47
0.34449238 -3.1455128 0.53299284 57
0.34425265 -3.1484013 0.22143602 57
0.002900593 -0.031216208 1.9991974 82
0.032447159 -0.31219342 1.9958843 97
0.043727774 -0.4115513 2.0131991 109
0.064754672 -0.60570675 1.9934158 88
0.087258033 -0.81497812 1.99051 95
0.11141142 -1.0389491 1.9813942 85
0.13898358 -1.2961229 1.9871606 84
0.17007843 -1.5861506 1.9858838 68
0.011734277 -0.12420946 1.9910811 88
0.019497212 -0.21835156 1.9983203 93
0.053281315 -0.50751919 2.0009167 95
0.074377328 -0.70627022 1.9854547 93
0.097645476 -0.92423135 1.9846202 93
0.12320338 -1.1662042 1.9883448 87
0.15131567 -1.4323586 1.9813027 87
0.18460757 -1.7475469 1.9833045 85
0.20813991 -1.9221374 1.9797159 73
0.25261703 -2.3329153 1.9737986 36
0.32831323 -3.0369356 2.087316 10
0.34251177 -3.1682997 1.7539771 73
0.3398551 -3.1488678 1.3679323 40
0.33975589 -3.1531067 1.0215206 41
0.33891219 -3.1452768 0.69207948 48
0.33875021 -3.1489332 0.37672085 51
0.22657162 -2.1200347 1.979459 52
0.2820152 -2.6431992 2.0190971 15
0.33728379 -3.1612401 1.9530709 76
0.33709589 -3.1647151 1.5587107 78
0.33513847 -3.151561 1.1915834 43
0.33509576 -3.1563983 0.85627633 47
0.3335104 -3.1466961 0.53299284 57
0.33326057 -3.1495838 0.22143602 66
0.0027916105 -0.031226143 1.9991974 78
0.031357203 -0.31230476 1.9958843 96
0.04239488 -0.4127143 2.0180943 111
0.062639959 -0.60592908 1.9934158 89
0.084412694 -0.81527781 1.99051 95
0.10778413 -1.0393318 1.9813942 85
0.13445842 -1.2966001 1.9871606 82
0.16454069 -1.5867348 1.9858838 69
0.011300633 -0.12424965 1.9910811 88
0.018734906 -0.2184183 1.9983203 95
0.051509414 -0.50770211 2.0009167 96
0.071911529 -0.70652556 1.9854547 93
0.094418705 -0.92456657 1.9846202 93
0.11913181 -1.1666272 1.9883448 87
0.14631487 -1.4328781 1.9813027 89
0.17850636 -1.7481805 1.9833045 88
0.20142913 -1.9228523 1.9797159 75
0.2444721 -2.3337829 1.9737986 39
0.31684053 -3.0297456 2.0818331 10
0.33145025 -3.169476 1.7539771 73
0.32886145 -3.1500351 1.3679323 40
0.32825011 -3.149502 1.0201114 40
0.32793108 -3.146441 0.69207948 48
0.32775632 -3.1500964 0.37672085 49
0.21916991 -2.1208129 1.979459 79
0.26822433 -2.5999403 1.9867221 25
0.32624695 -3.1623983 1.9530709 76
0.32604694 -3.1658726 1.5587107 76
0.32413542 -3.1527116 1.1915834 43
0.32407582 -3.1575487 0.85627633 47
0.32252434 -3.1478412 0.53299284 59
0.32226443 -3.1507277 0.22143602 64
0.0026825939 -0.031235699 1.9991974 78
0.030266866 -0.31241232 1.9958843 95
0.040953983 -0.41285977 2.0180943 112
0.06037616 -0.60465795 1.9886441 89
0.081566334 -0.81556749 1.99051 95
0.10415553 -1.0397017 1.9813942 83
0.12993163 -1.2970616 1.9871606 82
0.15900095 -1.5872993 1.9858838 68
0.010866852 -0.12428834 1.9910811 88
0.017972369 -0.21848236 1.9983203 93
0.049736895 -0.50787878 2.0009167 96
0.069444865 -0.70677227 1.9854547 93
0.0911908 -0.92489052 1.9846202 92
0.1150588 -1.1670359 1.9883448 89
0.14131232 -1.4333801 1.9813027 89
0.17240299 -1.748793 1.9833045 86
0.1947159 -1.9235436 1.9797159 69
0.23632419 -2.3346221 1.9737986 48
0.30626285 -3.030833 2.0818331 9
0.31993932 -3.1662059 1.751659 73
0.31786376 -3.1511638 1.3679323 40
0.31725428 -3.1506286 1.0201114 41
0.31694594 -3.1475663 0.69207948 46
0.31626037 -3.1462662 0.37627462 52
0.21176557 -2.1215649 1.979459 79
0.25594121 -2.5686841 1.9631768 33
0.31520611 -3.163518 1.9530709 76
0.31499401 -3.1669915 1.5587107 77
0.31312844 -3.1538236 1.1915834 45
0.3125726 -3.1538236 0.85510403 47
0.31104684 -3.1440198 0.53230304 59
0.31126437 -3.1518335 0.22143602 65
0.0025735446 -0.03124487 1.9991974 82
0.029176159 -0.31251606 1.9958843 93
0.039415702 -0.41198665 2.0131991 109
0.058265138 -0.60486495 1.9886441 88
0.078906566 -0.81779188 1.9951125 95
0.10052565 -1.040059 1.9813942 85
0.12540324 -1.2975073 1.9871606 82
0.15345927 -1.5878447 1.9858838 66
0.010432938 -0.12432553 1.9910811 88
0.017209614 -0.21854375 1.9983203 91
0.047963761 -0.50804931 2.0009167 96
0.066977337 -0.70701039 1.9854547 93
0.087961763 -0.9252032 1.9846202 93
0.11098439 -1.1674304 1.9883448 89
0.13630801 -1.4338647 1.9813027 87
0.16629751 -1.7493843 1.9833045 86
0.18765351 -1.920662 1.9762113 69
0.22817339 -2.3354325 1.9737986 60
0.28715837 -2.9444878 2.0242622 10
0.30888525 -3.1673033 1.751659 73
0.30686221 -3.1522541 1.3679323 40
0.30625463 -3.1517167 1.0201114 43
0.30548188 -3.143764 0.69114685 46
0.30527592 -3.1473508 0.37627462 49
0.20435864 -2.1222913 1.979459 77
0.24774671 -2.5776086 1.9690632 35
0.30416146 -3.1645989 1.9530709 74
0.30393723 -3.1680715 1.5587107 77
0.30211765 -3.1548977 1.1915834 45
0.30156177 -3.1548958 0.85510403 47
0.30007026 -3.1450865 0.53230304 60
0.30026051 -3.1529009 0.22143602 67
0.0024644639 -0.031253666 1.9991974 82
0.028085096 -0.31261599 1.9958843 93
0.03797736 -0.41212171 2.0131991 109
0.056153409 -0.60506469 1.9886441 88
0.076051466 -0.81806242 1.9951125 95
0.096894562 -1.0404035 1.9813942 83
0.12087334 -1.297937 1.9871606 82
0.14791574 -1.5883707 1.9858838 64
0.0099988971 -0.12436118 1.9910811 88
0.016446648 -0.21860249 1.9983203 91
0.046190042 -0.50821364 2.0009167 96
0.064509004 -0.70723987 1.9854547 91
0.084731676 -0.92550462 1.9846202 93
0.10690861 -1.1678108 1.9883448 89
0.13130206 -1.4343318 1.9813027 87
0.16019 -1.749954 1.9833045 88
0.18094802 -1.9213054 1.9762113 73
0.21965483 -2.3323393 1.9706609 73
0.26944321 -2.866374 1.9721743 14
0.29782739 -3.1683621 1.751659 73
0.29585695 -3.1533062 1.3679323 40
0.29480395 -3.1479907 1.0187023 41
0.29450622 -3.1448114 0.69114685 46
0.29428774 -3.1483972 0.37627462 49
0.19694921 -2.1229916 1.979459 79
0.23874764 -2.5784578 1.9690632 52
0.29311308 -3.1656413 1.9530709 76
0.29287672 -3.1691132 1.5587107 79
0.29110315 -3.1559329 1.1915834 47
0.29054731 -3.1559291 0.85510403 47
0.28909001 -3.1461148 0.53230304 60
0.289253 -3.1539299 0.22143602 67
0.0023553534 -0.031262077 1.9991974 82
0.026993692 -0.31271213 1.9958843 96
0.036538556 -0.41225177 2.0131991 110
0.054040998 -0.60525697 1.9886441 88
0.073195428 -0.81832284 1.9951125 95
0.093262285 -1.0407352 1.9813942 85
0.11634196 -1.298351 1.9871606 82
0.14237037 -1.5888773 1.9858838 62
0.009564735 -0.12439533 1.9910811 88
0.015683483 -0.21865857 1.9983203 89
0.044415768 -0.50837183 2.0009167 95
0.062190592 -0.70917988 1.9901476 93
0.081500538 -0.92579478 1.9846202 93
0.10283154 -1.1681769 1.9883448 89
0.12629451 -1.4347814 1.9813027 87
0.15408054 -1.7505026 1.9833045 88
0.17424031 -1.9219253 1.9762113 75
0.21151212 -2.3330917 1.9706609 73
0.25792888 -2.8506393 1.9612085 24
0.28676596 -3.1693826 1.751659 73
0.28484803 -3.1543198 1.3679323 40
0.28381363 -3.1490004 1.0187023 41
0.28352699 -3.1458201 0.69114685 49
0.28329599 -3.1494055 0.37627462 52
0.18953739 -2.1236663 1.979459 79
0.22938707 -2.5752492 1.96612 73
0.28206116 -3.1666453 1.9530709 90
0.28181267 -3.1701162 1.5587107 77
0.28008512 -3.1569297 1.1915834 45
0.27952927 -3.156924 0.85510403 47
0.27810627 -3.1471045 0.53230304 59
0.27824199 -3.1549203 0.22143602 67
0.0022462138 -0.031270109 1.9991974 82
0.025901958 -0.31280446 1.9958843 96
0.035099309 -0.41237682 2.0131991 110
0.051927928 -0.60544199 1.9886441 88
0.070338503 -0.81857336 1.9951125 95
0.089628875 -1.0410546 1.9813942 85
0.11180915 -1.2987492 1.9871606 82
0.1368233 -1.5893646 1.9858838 59
0.0091304565 -0.12442796 1.9910811 88
0.014920126 -0.21871199 1.9983203 89
0.042535916 -0.50727034 1.9960775 95
0.059714716 -0.70939267 1.9901476 93
0.078268416 -0.92607361 1.9846202 93
0.098753221 -1.1685287 1.9883448 89
0.12128542 -1.4352136 1.9813027 87
0.14796922 -1.7510297 1.9833045 86
0.16753048 -1.9225218 1.9762113 75
0.20336682 -2.3338158 1.9706609 73
0.24942575 -2.8681853 1.9721743 39
0.27531716 -3.1659508 1.749341 74
0.27343488 -3.1506763 1.3660593 40
0.27281982 -3.149972 1.0187023 41
0.27254429 -3.1467907 0.69114685 48
0.27230078 -3.1503754 0.37627462 52
0.18212327 -2.1243148 1.979459 79
0.22039638 -2.5760341 1.96612 73
0.27100581 -3.1676104 1.9530709 84
0.27074516 -3.1710806 1.5587107 77
0.26906368 -3.1578882 1.1915834 45
0.26850787 -3.1578805 0.85510403 47
0.26711911 -3.1480563 0.53230304 59
0.26722756 -3.1558723 0.22143602 67
0.0021370472 -0.031277761 1.9991974 80
0.024809908 -0.31289297 1.9958843 97
0.03365963 -0.41249681 2.0131991 110
0.049814224 -0.60561955 1.9886441 84
0.067480721 -0.81881392 1.9951125 95
0.08599437 -1.0413611 1.9813942 85
0.10704344 -1.2963272 1.9830275 84
0.13153836 -1.5930277 1.9897208 59
0.0086960662 -0.12445907 1.9910811 88
0.014156589 -0.21876273 1.9983203 91
0.040764954 -0.50741571 1.9960775 95
0.057238109 -0.70959675 1.9901476 93
0.075035341 -0.92634118 1.9846202 93
0.094673686 -1.1688663 1.9883448 89
0.11627485 -1.4356282 1.9813027 89
0.14185609 -1.7515357 1.9833045 86
0.16081861 -1.923095 1.9762113 75
0.19521903 -2.3345115 1.9706609 71
0.23871696 -2.8607044 1.9666914 61
0.26426426 -3.1668923 1.749341 74
0.26243529 -3.1516116 1.3660593 39
0.26182273 -3.1509051 1.0187023 41
0.26115155 -3.1428277 0.69021428 48
0.26130229 -3.1513064 0.37627462 49
0.17470691 -2.1249378 1.979459 79
0.211403 -2.5767877 1.96612 73
0.25994712 -3.1685369 1.9530709 73
0.25930411 -3.1674831 1.5566125 77
0.25803894 -3.1588082 1.1915834 47
0.25748318 -3.1587985 0.85510403 48
0.25612876 -3.1489697 0.53230304 60
0.25620988 -3.156786 0.22143602 67
0.0020300697 -0.031328604 2.0041974 82
0.023717556 -0.31297767 1.9958843 96
0.032219544 -0.41261178 2.0131991 110
0.047699913 -0.60578972 1.9886441 84
0.064622119 -0.81904441 1.9951125 95
0.082358822 -1.0416548 1.9813942 85
0.10251775 -1.296693 1.9830275 84
0.12597685 -1.5934772 1.9897208 52
0.0082615688 -0.12448867 1.9910811 88
0.013392879 -0.21881083 1.9983203 91
0.038993496 -0.50755495 1.9960775 93
0.054628108 -0.70807159 1.9854547 93
0.07180135 -0.92659742 1.9846202 93
0.09059301 -1.1691897 1.9883448 89
0.11126287 -1.4360251 1.9813027 89
0.13574122 -1.75202 1.9833045 86
0.15410477 -1.9236445 1.9762113 75
0.18706888 -2.3351786 1.9706609 71
0.2287298 -2.8615203 1.9666914 66
0.25285515 -3.1633794 1.747023 65
0.25143251 -3.1525085 1.3660593 39
0.2508224 -3.1517999 1.0187023 43
0.25017941 -3.1437201 0.69021428 48
0.25030056 -3.1521993 0.37627462 49
0.16728842 -2.1255345 1.979459 79
0.20240705 -2.5775101 1.96612 73
0.24888529 -3.1694252 1.9530709 73
0.24824594 -3.1683688 1.5566125 77
0.24664302 -3.1549816 1.1899408 47
0.24645534 -3.159678 0.85510403 46
0.24513522 -3.1498444 0.53230304 60
0.24518909 -3.157661 0.22143602 70
0.0019207 -0.031335495 2.0041974 82
0.022624915 -0.31305856 1.9958843 96
0.030779064 -0.41272172 2.0131991 109
0.045697004 -0.60744184 1.9934158 88
0.06176272 -0.81926513 1.9951125 95
0.078722261 -1.041936 1.9813942 85
0.097990818 -1.297043 1.9830275 82
0.1204138 -1.5939071 1.9897208 50
0.0078446502 -0.12480576 1.9960728 89
0.012629004 -0.21885623 1.9983203 91
0.037221558 -0.50768793 1.9960775 93
0.052156143 -0.70825797 1.9854547 93
0.068566479 -0.92684245 1.9846202 92
0.086318843 -1.1668978 1.9840788 87
0.10624953 -1.4364048 1.9813027 89
0.12962469 -1.7524832 1.9833045 88
0.14738905 -1.9241709 1.9762113 75
0.17861915 -2.3319361 1.9675231 71
0.21842122 -2.8581321 1.9639498 66
0.24181136 -3.1642427 1.747023 65
0.24042666 -3.1533668 1.3660593 40
0.23981903 -3.1526561 1.0187023 44
0.23920426 -3.1445742 0.69021428 49
0.23891893 -3.148088 0.37582842 49
0.15986791 -2.1261055 1.979459 79
0.19340862 -2.5782008 1.96612 73
0.2378204 -3.1702747 1.9530709 74
0.23718473 -3.1692159 1.5566125 77
0.23562858 -3.1558235 1.1899408 47
0.2354245 -3.1605191 0.85510403 48
0.23413873 -3.1506808 0.53230304 60
0.23416531 -3.1584976 0.22143602 70
0.0018113069 -0.031342015 2.0041974 82
0.021531999 -0.31313562 1.9958843 96
0.029338207 -0.41282666 2.0131991 109
0.04357636 -0.60759765 1.9934158 88
0.058902573 -0.81947565 1.9951125 95
0.075084746 -1.0422045 1.9813942 85
0.093462698 -1.2973771 1.9830275 80
0.1148493 -1.5943178 1.9897208 50
0.0074089486 -0.12483238 1.9960728 91
0.011864976 -0.21889897 1.9983203 93
0.03544917 -0.50781476 1.9960775 93
0.049683545 -0.70843571 1.9854547 93
0.065330781 -0.9270761 1.9846202 95
0.082245082 -1.1671919 1.9840788 89
0.10123489 -1.436767 1.9813027 89
0.12350661 -1.7529249 1.9833045 86
0.14067154 -1.9246736 1.9762113 75
0.17047806 -2.3325453 1.9675231 71
0.20844314 -2.8588769 1.9639498 67
0.23076461 -3.1650674 1.747023 73
0.22941791 -3.154187 1.3660593 39
0.22881277 -3.1534739 1.0187023 44
0.2282262 -3.14539 0.69021428 49
0.22792862 -3.1489029 0.37582842 49
0.15244544 -2.1266506 1.979459 79
0.18440783 -2.5788603 1.96612 73
0.22675261 -3.1710856 1.9530709 74
0.22612068 -3.1700246 1.5566125 76
0.22461125 -3.1566267 1.1899408 45
0.22439079 -3.1613216 0.85510403 47
0.22278959 -3.146539 0.53161323 59
0.22313866 -3.1592958 0.22143602 70
0.0017018919 -0.031348143 2.0041974 82
0.020438822 -0.31320888 1.9958843 97
0.027896993 -0.41292655 2.0131991 109
0.041455183 -0.60774606 1.9934158 88
0.056041714 -0.81967622 1.9951125 95
0.071446314 -1.0424602 1.9813942 85
0.088933446 -1.2976953 1.9830275 82
0.1092834 -1.594709 1.9897208 47
0.0069731572 -0.12485749 1.9960728 89
0.011100804 -0.21893907 1.9983203 93
0.033676349 -0.50793546 1.9960775 95
0.047210343 -0.70860481 1.9854547 93
0.062094279 -0.92729849 1.9846202 93
0.078170322 -1.1674718 1.9840788 89
0.096219011 -1.4371115 1.9813027 89
0.11738699 -1.7533455 1.9833045 86
0.13395232 -1.9251529 1.9762113 75
0.16233493 -2.3331263 1.9675231 71
0.19846253 -2.8595872 1.9639498 67
0.21971507 -3.1658537 1.747023 73
0.21808615 -3.1503434 1.3641863 39
0.2178037 -3.1542537 1.0187023 44
0.21724536 -3.1461675 0.69021428 48
0.2169355 -3.1496792 0.37582842 53
0.14502111 -2.1271698 1.979459 79
0.17540482 -2.5794883 1.96612 73
0.21568209 -3.1718578 1.9530709 74
0.21505384 -3.1707947 1.5566125 77
0.21359123 -3.1573915 1.1899408 43
0.21335435 -3.1620855 0.85510403 47
0.21180476 -3.1472974 0.53161323 59
0.21177471 -3.1550705 0.22123447 70
0.0015924561 -0.031353895 2.0041974 82
0.019345395 -0.31327832 1.9958843 97
0.026455441 -0.41302145 2.0131991 109
0.039237119 -0.60639668 1.9886441 88
0.053180173 -0.81986696 1.9951125 95
0.06796246 -1.0450941 1.9857829 85
0.084403098 -1.2979978 1.9830275 84
0.10392416 -1.5982798 1.9935577 45
0.006537281 -0.12488107 1.9960728 89
0.010336497 -0.21897648 1.9983203 93
0.031981878 -0.50930524 2.0009167 95
0.044736557 -0.70876533 1.9854547 91
0.058857031 -0.92750961 1.9846202 93
0.074094616 -1.1677375 1.9840788 89
0.091201976 -1.4374387 1.9813027 89
0.11126596 -1.7537445 1.9833045 86
0.12723146 -1.9256088 1.9762113 75
0.15418981 -2.3336785 1.9675231 71
0.1884795 -2.8602626 1.9639498 69
0.20866282 -3.1666014 1.747023 72
0.20708808 -3.1510856 1.3641863 40
0.20679195 -3.1549947 1.0187023 44
0.20626184 -3.1469069 0.69021428 48
0.20593975 -3.1504173 0.37582842 51
0.13759501 -2.1276631 1.979459 79
0.16639966 -2.580085 1.96612 73
0.20460893 -3.1725912 1.9530709 74
0.20369312 -3.1669972 1.5545145 77
0.20256855 -3.1581178 1.1899408 43
0.20231533 -3.162811 0.85510403 46
0.20081735 -3.1480176 0.53161323 60
0.20076017 -3.1557906 0.22123447 71
0.0014815466 -0.031315655 1.9991974 82
0.018251732 -0.31334391 1.9958843 97
0.025013566 -0.41311124 2.0131991 108
0.037120163 -0.60652989 1.9886441 88
0.050317977 -0.82004756 1.9951125 95
0.064166881 -1.0429336 1.9813942 83
0.079871722 -1.2982846 1.9830275 76
0.098344475 -1.5986328 1.9935577 45
0.0061013247 -0.12490313 1.9960728 89
0.0095720636 -0.21901122 1.9983203 91
0.030203879 -0.50941378 2.0009167 96
0.042262238 -0.70891714 1.9854547 91
0.055619057 -0.9277094 1.9846202 95
0.070017993 -1.167989 1.9840788 89
0.086183816 -1.4377484 1.9813027 89
0.10494075 -1.7507383 1.9796295 86
0.12050907 -1.9260411 1.9762113 75
0.14604281 -2.3342025 1.9675231 71
0.17849416 -2.860903 1.9639498 69
0.19760805 -3.1673105 1.747023 72
0.19608748 -3.1517892 1.3641863 40
0.19577773 -3.1556973 1.0187023 43
0.19527584 -3.1476076 0.69021428 48
0.19494146 -3.1511171 0.37582842 51
0.13016726 -2.1281304 1.979459 79
0.15739247 -2.5806501 1.96612 73
0.19353327 -3.1732862 1.9530709 74
0.19263698 -3.1676891 1.5545145 77
0.19154343 -3.1588056 1.1899408 45
0.19098048 -3.1586466 0.85393173 48
0.1898275 -3.1486993 0.53161323 59
0.18974318 -3.156472 0.22123447 72
0.0013722256 -0.031320635 1.9991974 82
0.017157845 -0.31340575 1.9958843 97
0.023571387 -0.41319606 2.0131991 107
0.035002753 -0.60665584 1.9886441 88
0.047455169 -0.82021821 1.9951125 95
0.060664728 -1.0455431 1.9857829 85
0.075339384 -1.2985555 1.9830275 76
0.09276361 -1.5989664 1.9935577 43
0.0056652944 -0.12492367 1.9960728 89
0.0088075139 -0.2190433 1.9983203 93
0.028425507 -0.50951612 2.0009167 96
0.039884027 -0.71078336 1.9901476 93
0.052380405 -0.92789793 1.9846202 95
0.065940522 -1.1682265 1.9840788 89
0.081164613 -1.4380404 1.9813027 89
0.098828889 -1.7510939 1.9796295 88
0.1137852 -1.9264499 1.9762113 75
0.13789403 -2.334698 1.9675231 69
0.16850667 -2.8615086 1.9639498 66
0.18655089 -3.1679811 1.747023 73
0.18508449 -3.1524546 1.3641863 40
0.18476108 -3.1563613 1.0187023 43
0.18428744 -3.1482701 0.69021428 49
0.18394084 -3.1517785 0.37582842 53
0.12273791 -2.1285717 1.979459 79
0.14838336 -2.5811837 1.96612 73
0.18220784 -3.1696384 1.9505385 76
0.18157853 -3.1683419 1.5545145 76
0.18051597 -3.1594551 1.1899408 45
0.17995358 -3.1592941 0.85393173 46
0.17883533 -3.1493428 0.53161323 59
0.1787239 -3.1571152 0.22123447 72
0.0012628878 -0.031325236 1.9991974 80
0.016063752 -0.31346369 1.9958843 96
0.022128919 -0.41327581 2.0131991 106
0.032884914 -0.60677427 1.9886441 88
0.044591784 -0.82037884 1.9951125 96
0.057014734 -1.0457485 1.9857829 85
0.070806123 -1.2988106 1.9830275 82
0.087181613 -1.5992804 1.9935577 40
0.0052175741 -0.12465335 1.9910811 91
0.0080428552 -0.21907273 1.9983203 93
0.026646791 -0.5096122 2.0009167 96
0.037402689 -0.71091825 1.9901476 93
0.04914112 -0.92807508 1.9846202 95
0.061862245 -1.1684495 1.9840788 89
0.076144427 -1.4383149 1.9813027 89
0.09271583 -1.7514281 1.9796295 86
0.10705993 -1.9268354 1.9762113 75
0.12974358 -2.3351653 1.9675231 71
0.15851711 -2.8620794 1.9639498 67
0.17549142 -3.1686127 1.747023 73
0.17407924 -3.1530817 1.3641863 40
0.17374219 -3.156987 1.0187023 43
0.17329681 -3.1488941 0.69021428 48
0.17293794 -3.1524012 0.37582842 51
0.11530705 -2.1289873 1.979459 79
0.13937244 -2.5816858 1.96612 73
0.17114262 -3.1702549 1.9505385 76
0.17051782 -3.1689565 1.5545145 77
0.1692334 -3.1553502 1.188298 43
0.16892448 -3.1599028 0.85393173 46
0.16784099 -3.1499479 0.53161323 59
0.16770239 -3.1577199 0.22123447 75
0.0011535346 -0.031329449 1.9991974 82
0.014969462 -0.31351787 1.9958843 96
0.020686183 -0.41335052 2.0131991 106
0.030842237 -0.60837698 1.9934158 89
0.041727856 -0.82052946 1.9951125 95
0.053241994 -1.0435483 1.9813942 85
0.066271991 -1.2990497 1.9830275 84
0.08159855 -1.5995749 1.9935577 40
0.0047824215 -0.1246708 1.9910811 89
0.0072781006 -0.21909946 1.9983203 91
0.024867751 -0.50970209 2.0009167 96
0.03492089 -0.71104449 1.9901476 91
0.045901231 -0.92824095 1.9846202 95
0.057783224 -1.1686583 1.9840788 89
0.071123309 -1.4385719 1.9813027 89
0.086601645 -1.7517412 1.9796295 86
0.10033337 -1.9271975 1.9762113 75
0.12159154 -2.335604 1.9675231 71
0.14874229 -2.866791 1.9666914 69
0.16442983 -3.1692061 1.747023 73
0.16307189 -3.1536698 1.3641863 39
0.1624743 -3.1527834 1.0172931 43
0.16230407 -3.1494799 0.69021428 49
0.16193296 -3.1529856 0.37582842 53
0.10768585 -2.1256471 1.9761342 79
0.13035983 -2.5821567 1.96612 73
0.16007532 -3.1708329 1.9505385 74
0.15945509 -3.1695325 1.5545145 77
0.15821815 -3.1559215 1.188298 47
0.15789333 -3.1604733 0.85393173 48
0.1568446 -3.1505146 0.53161323 59
0.15667889 -3.1582861 0.22123447 75
0.0010441674 -0.031333286 1.9991974 77
0.013874988 -0.31356823 1.9958843 96
0.019243194 -0.41342026 2.0131991 107
0.028718418 -0.60848093 1.9934158 89
0.038863417 -0.82067019 1.9951125 95
0.049599007 -1.0437279 1.9813942 85
0.061737061 -1.2992733 1.9830275 82
0.076014496 -1.5998501 1.9935577 42
0.0043472098 -0.12468674 1.9910811 88
0.0065132556 -0.21912353 1.9983203 91
0.023088407 -0.50978583 2.0009167 95
0.032438669 -0.71116203 1.9901476 93
0.042660788 -0.92839551 1.9846202 95
0.053703494 -1.1688528 1.9840788 89
0.066101328 -1.4388114 1.9813027 89
0.080486402 -1.7520328 1.9796295 85
0.093605585 -1.9275359 1.9762113 77
0.11343802 -2.336014 1.9675231 71
0.13873439 -2.8672929 1.9666914 69
0.15336624 -3.1697607 1.747023 73
0.15206252 -3.1542199 1.3641863 39
0.15146804 -3.153331 1.0172931 44
0.15130933 -3.150027 0.69021428 48
0.15092601 -3.1535316 0.37582842 53
0.1002653 -2.1260097 1.9761342 79
0.12134562 -2.5825961 1.96612 73
0.14900607 -3.1713727 1.9505385 74
0.14839037 -3.1700697 1.5545145 77
0.14720097 -3.1564548 1.188298 47
0.14686026 -3.1610053 0.85393173 48
0.14607526 -3.1559901 0.53230304 60
0.14565346 -3.1588137 0.22123447 71
0.00093478744 -0.03133674 1.9991974 77
0.012780347 -0.31361473 1.9958843 97
0.017799972 -0.4134849 2.0131991 107
0.026594248 -0.60857749 1.9934158 89
0.035998508 -0.82080084 1.9951125 95
0.045955416 -1.0438946 1.9813942 83
0.057201371 -1.2994808 1.9830275 82
0.070429511 -1.6001056 1.9935577 42
0.003911945 -0.12470116 1.9910811 89
0.0057483325 -0.21914493 1.9983203 91
0.02130878 -0.50986332 2.0009167 95
0.029956054 -0.71127099 1.9901476 93
0.039419822 -0.9285388 1.9846202 95
0.049623109 -1.1690332 1.9840788 89
0.06107853 -1.4390334 1.9813027 89
0.074513912 -1.75569 1.9833045 86
0.087037206 -1.9314138 1.9797159 69
0.10528313 -2.3363957 1.9675231 71
0.12872484 -2.8677597 1.9666914 66
0.14230077 -3.1702766 1.747023 72
0.14105131 -3.1547315 1.3641863 39
0.14045994 -3.1538408 1.0172931 44
0.14031278 -3.1505361 0.69021428 48
0.13991721 -3.1540394 0.37582842 53
0.092843525 -2.1263468 1.9761342 77
0.11232994 -2.5830038 1.96612 73
0.13793501 -3.1718731 1.9505385 74
0.13732386 -3.1705685 1.5545145 77
0.13618198 -3.1569493 1.188298 45
0.13582541 -3.1614988 0.85393173 46
0.13505791 -3.1564806 0.53230304 60
0.13462627 -3.1593029 0.22123447 71
0.00082539616 -0.031339813 1.9991974 80
0.011685548 -0.31365746 1.9958843 96
0.01635653 -0.41354451 2.0131991 107
0.024469752 -0.6086666 1.9934158 89
0.03313316 -0.82092142 1.9951125 95
0.042311262 -1.0440488 1.9813942 85
0.052664991 -1.2996725 1.9830275 87
0.064843677 -1.6003417 1.9935577 40
0.0034766332 -0.12471405 1.9910811 89
0.0049833385 -0.21916366 1.9983203 93
0.019528897 -0.50993454 2.0009167 96
0.027473073 -0.71137118 1.9901476 93
0.03617838 -0.92867076 1.9846202 95
0.045542117 -1.1691992 1.9840788 89
0.056054998 -1.4392378 1.9813027 89
0.06838496 -1.7559395 1.9833045 86
0.080294773 -1.9317058 1.9797159 69
0.097126931 -2.3367493 1.9675231 71
0.11871371 -2.8681915 1.9666914 66
0.13123357 -3.1707542 1.747023 72
0.1300384 -3.1552045 1.3641863 40
0.12945011 -3.1543119 1.0172931 43
0.12931448 -3.1510067 0.69021428 48
0.12890671 -3.1545084 0.37582842 53
0.085420631 -2.126658 1.9761342 77
0.10331289 -2.5833802 1.96612 73
0.12686227 -3.1723351 1.9505385 74
0.12625566 -3.1710284 1.5545145 77
0.12516133 -3.1574054 1.188298 45
0.12478889 -3.1619534 0.85393173 47
0.12403892 -3.1569328 0.53230304 57
0.12359741 -3.1597533 0.22123447 71
0.0007159948 -0.031342503 1.9991974 80
0.010590608 -0.31369632 1.9958843 96
0.014912891 -0.41359904 2.0131991 107
0.022344962 -0.60874832 1.9934158 88
0.030267408 -0.82103217 1.9951125 95
0.038755223 -1.0465842 1.9857829 85
0.048127964 -1.2998484 1.9830275 87
0.059257045 -1.6005584 1.9935577 40
0.0030412786 -0.12472543 1.9910811 89
0.0042182845 -0.2191797 1.9983203 91
0.017748775 -0.50999963 2.0009167 95
0.024989758 -0.71146274 1.9901476 93
0.032936495 -0.9287914 1.9846202 93
0.041460574 -1.1693512 1.9840788 87
0.051030774 -1.4394249 1.9813027 89
0.062255163 -1.7561674 1.9833045 86
0.073551379 -1.9319743 1.9797159 75
0.088969566 -2.337074 1.9675231 69
0.10870112 -2.8685884 1.9666914 69
0.12016477 -3.1711929 1.747023 73
0.11902387 -3.1556394 1.3641863 39
0.11843874 -3.1547444 1.0172931 43
0.11831464 -3.151439 0.69021428 48
0.11789463 -3.1549394 0.37582842 53
0.077996686 -2.1269433 1.9761342 79
0.094294578 -2.583725 1.96612 73
0.11578798 -3.1727588 1.9505385 74
0.11518595 -3.1714499 1.5545145 76
0.11430975 -3.1625426 1.1899408 47
0.11375085 -3.1623697 0.85393173 46
0.1130184 -3.1573465 0.53230304 57
0.11256706 -3.1601658 0.22123447 72
0.00060658465 -0.031344809 1.9991974 80
0.0094955396 -0.3137314 1.9958843 97
0.013469071 -0.41364861 2.0131991 105
0.020219898 -0.60882258 1.9934158 88
0.027401287 -0.82113278 1.9951125 95
0.035101727 -1.0467131 1.9857829 85
0.043496076 -1.2971963 1.9788946 84
0.053669687 -1.6007555 1.9935577 40
0.0026058871 -0.12473528 1.9910811 89
0.0034531788 -0.2191931 1.9983203 93
0.015968436 -0.51005846 2.0009167 93
0.022506136 -0.71154565 1.9901476 93
0.029694207 -0.92890066 1.9846202 93
0.037378523 -1.1694888 1.9840788 87
0.046005934 -1.4395941 1.9813027 89
0.05612462 -1.7563741 1.9833045 88
0.066807076 -1.9322191 1.9797159 75
0.080811106 -2.3373702 1.9675231 69
0.098687209 -2.8689504 1.9666914 69
0.10909452 -3.171593 1.747023 73
0.10800791 -3.1560357 1.3641863 40
0.10758915 -3.1599333 1.0187023 43
0.10731335 -3.1518328 0.69021428 48
0.10688113 -3.1553316 0.37582842 53
0.070571795 -2.1272025 1.9761342 79
0.085275121 -2.5840385 1.96612 73
0.10471227 -3.1731436 1.9505385 74
0.10411482 -3.1718323 1.5545145 77
0.10326973 -3.1629224 1.1899408 47
0.10286918 -3.1676052 0.85510403 47
0.10183664 -3.1527722 0.53161323 59
0.10153533 -3.1605394 0.22123447 71
0.00049716717 -0.031346738 1.9991974 82
0.0084003555 -0.31376261 1.9958843 97
0.012025086 -0.4136931 2.0131991 105
0.018094586 -0.60888952 1.9934158 88
0.024534833 -0.82122344 1.9951125 95
0.031447802 -1.0468292 1.9857829 87
0.038967751 -1.2973402 1.9788946 84
0.048081685 -1.6009331 1.9935577 39
0.0021704638 -0.12474362 1.9910811 89
0.0026939018 -0.21973771 2.0032918 93
0.014187901 -0.51011109 2.0009167 93
0.020022241 -0.71161991 1.9901476 93
0.026451556 -0.92899865 1.9846202 95
0.033296015 -1.1696121 1.9840788 87
0.040980533 -1.439746 1.9813027 87
0.049993385 -1.7565593 1.9833045 88
0.060061969 -1.9324406 1.9797159 75
0.072772592 -2.3415291 1.9706609 71
0.088672109 -2.8692775 1.9666914 63
0.098022923 -3.1719546 1.747023 73
0.09699063 -3.1563933 1.3641863 40
0.096558258 -3.1602898 1.0187023 40
0.096310735 -3.1521881 0.69021428 48
0.095866315 -3.1556854 0.37582842 51
0.063146047 -2.1274359 1.9761342 77
0.076254629 -2.5843205 1.96612 73
0.093635298 -3.1734898 1.9505385 74
0.093042418 -3.1721766 1.5545145 77
0.092228435 -3.1632636 1.1899408 45
0.091811553 -3.1679451 0.85510403 47
0.090830788 -3.1531084 0.53161323 59
0.090502374 -3.1608746 0.22123447 71
0.00038774358 -0.031348281 1.9991974 80
0.0073050675 -0.31379002 1.9958843 97
0.010580953 -0.41373256 2.0131991 105
0.015969057 -0.60894895 1.9934158 82
0.021668078 -0.82130402 1.9951125 95
0.027793495 -1.0469327 1.9857829 85
0.034438949 -1.2974683 1.9788946 84
0.042493094 -1.6010911 1.9935577 39
0.0017350141 -0.12475044 1.9910811 89
0.0019268576 -0.21974578 2.0032918 95
0.012407195 -0.51015753 2.0009167 96
0.017538102 -0.71168542 1.9901476 93
0.023208585 -0.92908537 1.9846202 95
0.029278196 -1.1723286 1.9883448 89
0.035954636 -1.4398804 1.9813027 89
0.043861546 -1.7567232 1.9833045 86
0.053217795 -1.9290735 1.9762113 75
0.064598694 -2.341769 1.9706609 71
0.078655921 -2.8695693 1.9666914 61
0.086950146 -3.1722777 1.747023 74
0.085972168 -3.1567128 1.3641863 40
0.085526206 -3.1606073 1.0187023 40
0.085306965 -3.1525052 0.69021428 48
0.084850319 -3.1560006 0.37582842 51
0.055817284 -2.1313767 1.979459 79
0.067233205 -2.5845709 1.96612 73
0.082557186 -3.1737974 1.9505385 74
0.081968896 -3.172482 1.5545145 77
0.081186026 -3.1635661 1.1899408 45
0.080628961 -3.1633875 0.85393173 45
0.079823844 -3.1534061 0.53161323 59
0.079468317 -3.1611712 0.22123447 74
0.00027831533 -0.031349443 1.9991974 80
0.006209692 -0.3138136 1.9958843 97
0.0091366936 -0.41376695 2.0131991 105
0.013843331 -0.60900098 1.9934158 82
0.01880106 -0.82137471 1.9951125 93
0.024138847 -1.0470233 1.9857829 87
0.02990973 -1.2975806 1.9788946 87
0.036903981 -1.6012298 1.9935577 39
0.0012995433 -0.12475574 1.9910811 89
0.00115979 -0.21975116 2.0032918 95
0.010626337 -0.51019776 2.0009167 95
0.015017308 -0.71001697 1.9854547 91
0.019965328 -0.92916071 1.9846202 95
0.025185825 -1.1724236 1.9883448 89
0.030928293 -1.439997 1.9813027 89
0.037729166 -1.7568655 1.9833045 86
0.046483744 -1.9292476 1.9762113 75
0.056423996 -2.3419802 1.9706609 71
0.068638772 -2.8698266 1.9666914 69
0.075876296 -3.1725616 1.747023 63
0.074952662 -3.1569934 1.3641863 40
0.074380077 -3.1560907 1.0172931 41
0.074302144 -3.1527839 0.69021428 48
0.073833309 -3.1562779 0.37582842 53
0.048377048 -2.1315587 1.979459 79
0.058210954 -2.5847898 1.96612 73
0.071478061 -3.1740663 1.9505385 76
0.070894368 -3.1727488 1.5545145 77
0.070142627 -3.1638305 1.1899408 47
0.069586195 -3.1636496 0.85393173 45
0.068815909 -3.1536655 0.53161323 59
0.068433285 -3.1614292 0.22123447 74
0.00016888365 -0.031350225 1.9991974 80
0.0051142406 -0.31383339 1.9958843 97
0.0076923217 -0.41379634 2.0131991 105
0.011717436 -0.60904557 1.9934158 88
0.015933812 -0.82143533 1.9951125 95
0.020483907 -1.0471011 1.9857829 85
0.02543515 -1.3004905 1.9830275 84
0.031314421 -1.6013488 1.9935577 39
0.00086557277 -0.12504907 1.9960728 89
0.00039242854 -0.21921995 1.9983203 95
0.0088453488 -0.51023173 2.0009167 95
0.012538794 -0.71006507 1.9854547 93
0.016721832 -0.92922473 1.9846202 95
0.021093152 -1.1725043 1.9883448 89
0.025901578 -1.4400963 1.9813027 89
0.031596333 -1.7569865 1.9833045 88
0.039749134 -1.9293981 1.9762113 75
0.048248623 -2.3421628 1.9706609 71
0.058620796 -2.8700488 1.9666914 69
0.064801529 -3.1728072 1.747023 63
0.063932247 -3.1572359 1.3641863 40
0.063362814 -3.1563311 1.0172931 43
0.06329643 -3.1530237 0.69021428 48
0.062815398 -3.1565163 0.37582842 53
0.040936228 -2.1317143 1.979459 79
0.049187999 -2.5849774 1.96612 73
0.060398065 -3.1742964 1.9505385 76
0.059818976 -3.1729772 1.5545145 77
0.059098367 -3.1640558 1.1899408 43
0.058542568 -3.1638732 0.85393173 48
0.057897896 -3.1588383 0.53230304 59
0.057397418 -3.161649 0.22123447 71
5.9449914e-05 -0.031350624 1.9991974 80
0.0040187263 -0.3138493 1.9958843 97
0.0062478557 -0.41382068 2.0131991 105
0.0095913988 -0.60908282 1.9934158 88
0.013066371 -0.82148594 1.9951125 95
0.016828718 -1.0471662 1.9857829 85
0.020895436 -1.3005713 1.9830275 84
0.025724482 -1.6014483 1.9935577 40
0.00042906479 -0.12505132 1.9960728 89
-0.00037279428 -0.21921998 1.9983203 93
0.0070642554 -0.51025945 2.0009167 95
0.010060129 -0.71010453 1.9854547 93
0.01347813 -0.92927748 1.9846202 93
0.017000219 -1.1725709 1.9883448 89
0.020874545 -1.4401778 1.9813027 87
0.025463112 -1.7570862 1.9833045 86
0.033014033 -1.929525 1.9762113 75
0.040072653 -2.3423171 1.9706609 73
0.0486021 -2.8702359 1.9666914 67
0.053725973 -3.1730142 1.747023 75
0.052911043 -3.1574397 1.3641863 38
0.05234478 -3.156533 1.0172931 43
0.052289937 -3.1532254 0.69021428 46
0.051796719 -3.1567163 0.37582842 54
0.033494905 -2.1318443 1.979459 79
0.040164448 -2.5851331 1.96612 71
0.049317334 -3.1744878 1.9505385 74
0.048742853 -3.1731665 1.5545145 77
0.048053395 -3.164243 1.1899408 45
0.047498234 -3.1640584 0.85393173 46
0.046871144 -3.1590211 0.53230304 59
0.046360854 -3.1618299 0.22123447 70
-4.9984548e-05 -0.031350639 1.9991974 80
0.0029231629 -0.31386143 1.9958843 97
0.0048033143 -0.41384 2.0131991 105
0.0074469978 -0.60761917 1.9886441 88
0.01019877 -0.82152653 1.9951125 95
0.013173323 -1.0472187 1.9857829 89
0.016355468 -1.3006363 1.9830275 82
0.020134227 -1.6015284 1.9935577 40
-7.4483978e-06 -0.12505206 1.9960728 89
-0.0011380125 -0.21921736 1.9983203 93
0.0052701226 -0.50902325 1.9960775 95
0.0075813401 -0.71013528 1.9854547 93
0.010234265 -0.92931885 1.9846202 95
0.01290708 -1.172623 1.9883448 89
0.01584726 -1.4402419 1.9813027 89
0.019329583 -1.7571644 1.9833045 85
0.026278533 -1.9296285 1.9762113 75
0.031896193 -2.3424425 1.9706609 73
0.038582806 -2.8703878 1.9666914 69
0.042649757 -3.1731822 1.747023 73
0.041889202 -3.1576054 1.3641863 38
0.041326102 -3.1566966 1.0172931 41
0.041282803 -3.153389 0.69021428 45
0.040841721 -3.1618576 0.37627462 53
0.026053175 -2.1319482 1.979459 77
0.031140406 -2.5852575 1.96612 71
0.038236007 -3.1746407 1.9505385 76
0.037666138 -3.1733174 1.5545145 77
0.037007831 -3.1643915 1.1899408 45
0.036453322 -3.1642051 0.85393173 45
0.035843816 -3.1591654 0.53230304 60
0.035323724 -3.1619725 0.22123447 70
-0.0001594184 -0.031350274 1.9991974 78
0.0018275646 -0.31386971 1.9958843 97
0.0033587138 -0.41385421 2.0131991 105
0.005325967 -0.6076414 1.9886441 88
0.0073310463 -0.8215571 1.9951125 96
0.0095177675 -1.0472583 1.9857829 85
0.0118153 -1.3006855 1.9830275 82
0.014543727 -1.601589 1.9935577 40
-0.00044396147 -0.12505127 1.9960728 89
-0.0019032168 -0.21921204 1.9983203 95
0.0034932673 -0.50903857 1.9960775 95
0.0051024593 -0.71015739 1.9854547 93
0.0069902744 -0.92934889 1.9846202 95
0.0088137835 -1.1726611 1.9883448 89
0.010819781 -1.4402885 1.9813027 87
0.013195818 -1.7572211 1.9833045 85
0.019542711 -1.9297085 1.9762113 75
0.02371935 -2.3425395 1.9706609 71
0.028563049 -2.8705051 1.9666914 67
0.031573024 -3.1733119 1.747023 73
0.030866846 -3.1577325 1.3641863 40
0.030306924 -3.1568215 1.0172931 41
0.030275172 -3.1535137 0.69021428 46
0.029804531 -3.1619809 0.37627462 53
0.018611129 -2.1320264 1.979459 79
0.022115981 -2.5853505 1.96612 73
0.027154207 -3.1747549 1.9505385 74
0.026588963 -3.1734295 1.5545145 77
0.025961818 -3.1645014 1.1899408 45
0.025407961 -3.1643128 0.85393173 46
0.024816049 -3.1592715 0.53230304 60
0.024286164 -3.1620767 0.22123447 71
-0.0002688503 -0.031349525 1.9991974 78
0.00073194358 -0.31387419 1.9958843 97
0.0019140723 -0.41386342 2.0131991 106
0.0032048696 -0.60765636 1.9886441 88
0.0044632317 -0.82157773 1.9951125 95
0.0058620954 -1.0472852 1.9857829 85
0.007274989 -1.3007189 1.9830275 78
0.0089530507 -1.6016299 1.9935577 40
-0.00088046916 -0.12504897 1.9960728 88
-0.0026683982 -0.21920407 1.9983203 95
0.0017163698 -0.50904769 1.9960775 95
0.0026235161 -0.71017087 1.9854547 93
0.0037461987 -0.92936766 1.9846202 93
0.0047203787 -1.1726847 1.9883448 87
0.0057921698 -1.4403175 1.9813027 87
0.0070618913 -1.7572564 1.9833045 86
0.012806654 -1.929765 1.9762113 75
0.015542218 -2.3426082 1.9706609 71
0.018542945 -2.8705873 1.9666914 67
0.020495906 -3.1734028 1.747023 73
0.019844115 -3.1578209 1.3641863 40
0.019316681 -3.1617055 1.0187023 41
0.01926717 -3.1536002 0.69021428 48
0.018766977 -3.1620657 0.37627462 49
0.011168854 -2.1320782 1.979459 79
0.01309129 -2.585412 1.96612 73
0.01607208 -3.1748302 1.9505385 74
0.015511466 -3.1735029 1.5545145 79
0.01491549 -3.1645727 1.1899408 47
0.014362291 -3.1643822 0.85393173 46
0.013787985 -3.1593385 0.53230304 59
0.013269237 -3.1671383 0.22143602 71
-0.0003782789 -0.031348396 1.9991974 78
-0.00036368624 -0.31387481 1.9958843 96
0.00046940794 -0.41386759 2.0131991 108
0.0010863404 -0.60915732 1.9934158 86
0.0015953633 -0.82158828 1.9951125 95
0.0022063525 -1.0472993 1.9857829 87
0.0027345887 -1.3007363 1.9830275 78
0.0033622643 -1.6016514 1.9935577 40
-0.0013169663 -0.12504512 1.9960728 88
-0.003433547 -0.21919343 1.9983203 95
-6.0548657e-05 -0.50905061 1.9960775 95
0.0001448422 -0.71190149 1.9901476 93
0.00050207751 -0.92937505 1.9846202 95
0.00062691665 -1.172694 1.9883448 87
0.00076448853 -1.440329 1.9813027 87
0.00092787895 -1.7572703 1.9833045 86
0.0060704392 -1.9297979 1.9762113 75
0.0073648943 -2.3426483 1.9706609 71
0.0085226111 -2.8706346 1.9666914 67
0.0094185397 -3.173455 1.747023 74
0.0088340901 -3.1625071 1.3660593 40
0.0082801525 -3.1617537 1.0187023 40
0.0082589323 -3.1536484 0.69021428 48
0.0077291941 -3.162112 0.37627462 49
0.0037264444 -2.1321042 1.979459 77
0.0040664384 -2.5854421 1.96612 73
0.0049897558 -3.1748669 1.9505385 74
0.0044337795 -3.1735377 1.5545145 77
0.0038632089 -3.1598828 1.188298 45
0.0033164488 -3.1644132 0.85393173 46
0.0027597507 -3.1593676 0.53230304 59
0.0022137808 -3.1671653 0.22143602 70
-0.00049317401 -0.031346802 1.9991974 80
-0.0015140926 -0.31387138 1.9958843 96
-0.0010474956 -0.41386652 2.0131991 109
-0.00114634 -0.6091572 1.9934158 86
-0.0014159192 -0.82158858 1.9951125 96
-0.0016322056 -1.0473002 1.9857829 85
-0.0020328662 -1.3007375 1.9830275 84
-0.0025081038 -1.6016529 1.9935577 40
-0.0017752707 -0.12503946 1.9960728 88
-0.0042369077 -0.21917936 1.9983203 93
-0.0019311414 -0.51030469 2.0009167 95
-0.0024644081 -0.71189725 1.9901476 93
-0.0030664613 -0.92937016 1.9846202 93
-0.0038758984 -1.1726878 1.9883448 89
-0.0047659692 -1.4403212 1.9813027 87
-0.0058195451 -1.757261 1.9833045 85
-0.0010026644 -1.9298072 1.9762113 75
-0.0012213897 -2.3426595 1.9706609 73
-0.0019988471 -2.8706465 1.9666914 67
-0.0022128166 -3.1734681 1.747023 73
-0.0027571365 -3.162518 1.3660593 40
-0.0033083095 -3.1617627 1.0187023 41
-0.0038562398 -3.1585689 0.69114685 45
-0.0044124709 -3.1621182 0.37627462 51
-0.0044602556 -2.1321027 1.979459 79
-0.0058517805 -2.5813966 1.9631768 73
-0.0072008651 -3.1748629 1.9505385 74
-0.0077517331 -3.1735315 1.5545145 79
-0.0082698688 -3.1598744 1.188298 47
-0.0088475924 -3.1692631 0.85510403 47
-0.0088199284 -3.1593566 0.53230304 60
-0.0093944753 -3.1671522 0.22143602 65
-0.00060259178 -0.031344887 1.9991974 82
-0.0026096988 -0.3138642 1.9958843 96
-0.0024921531 -0.41386032 2.0131991 109
-0.0032726885 -0.60914952 1.9934158 88
-0.0042837895 -0.82157862 1.9951125 96
-0.0052879555 -1.0472882 1.9857829 85
-0.0065732752 -1.3007226 1.9830275 84
-0.0080989003 -1.6016344 1.9935577 40
-0.0022117291 -0.1250325 1.9960728 89
-0.0050019603 -0.21916324 1.9983203 93
-0.0037124257 -0.51029485 2.0009167 95
-0.0049493783 -0.71188432 1.9901476 93
-0.0061483472 -0.92935485 1.9846202 93
-0.0077646496 -1.1726683 1.9883448 89
-0.0095422203 -1.4402975 1.9813027 89
-0.011646801 -1.7572321 1.9833045 85
-0.0077389423 -1.9297919 1.9762113 75
-0.0093987891 -2.3426409 1.9706609 71
-0.012036776 -2.8748035 1.9694327 66
-0.013290275 -3.1734412 1.747023 72
-0.013796368 -3.1624892 1.3660593 40
-0.014344901 -3.161732 1.0187023 41
-0.01433041 -3.1585388 0.69114685 45
-0.014898408 -3.1620862 0.37627462 52
-0.011530538 -2.1320763 1.979459 79
-0.014411968 -2.581363 1.9631768 73
-0.017729048 -3.1748214 1.9505385 74
-0.018275499 -3.1734881 1.5545145 77
-0.018748345 -3.1598296 1.188298 47
-0.019357199 -3.1692162 0.85510403 47
-0.019848086 -3.1593065 0.53230304 60
-0.020449841 -3.1671 0.22143602 65
-0.00070653186 -0.031342715 1.9991974 78
-0.0036504955 -0.3138538 1.9958843 96
-0.0038645498 -0.4138498 2.0131991 110
-0.0052926829 -0.60913527 1.9934158 88
-0.0070082196 -0.82155997 1.9951125 95
-0.0087608593 -1.0472649 1.9857829 87
