# .PCD v0.7 - Point Cloud Data file format
VERSION 0.7
FIELDS x y z intensity
SIZE 4 4 4 4
TYPE F F F F
COUNT 1 1 1 1
WIDTH 1381
HEIGHT 1
VIEWPOINT 0 0 0 1 0 0 0
POINTS 1381
DATA ascii
2.5437431 -3.0596004 0.84689444 82
2.5463488 -3.0638223 0.44989926 81
1.3592542 -1.6378031 1.9761342 77
1.6508087 -1.9898133 1.96612 75
2.0354128 -2.4534044 1.9581357 8
2.5560727 -3.0820823 1.9384581 2
2.5441902 -3.0688443 1.4757679 85
2.5402625 -3.0651958 1.050881 83
2.5305252 -3.0545313 0.64474303 88
2.5363274 -3.0626225 0.25408402 91
0.019601205 -0.024467487 1.9991974 80
0.19841027 -0.24220599 1.9909451 99
0.27335295 -0.33213717 2.0915227 62
0.38550851 -0.46778914 1.9838723 82
0.5213666 -0.63243991 1.99051 93
0.66631669 -0.80799913 1.9857829 83
0.82934529 -1.0057024 1.9871606 76
1.0210391 -1.2381669 1.9973947 43
0.078335278 -0.097476162 1.9960728 89
0.1364456 -0.1715813 1.9983203 93
0.33416691 -0.40706655 2.0638263 56
0.45078611 -0.54876357 1.9854547 93
0.59016538 -0.71794367 1.9846202 93
0.74301475 -0.90389723 1.9840788 85
0.91844493 -1.1173215 1.9892817 55
1.1201786 -1.3627455 1.9906548 45
1.2406918 -1.5013264 1.9937341 38
1.4898463 -1.802828 1.9675231 71
1.8256158 -2.2099218 1.9639498 59
2.2666135 -2.7437592 1.9486914 36
2.5332797 -3.0676515 1.6957132 74
2.5320222 -3.067219 1.2582655 82
2.5267932 -3.060885 0.84502923 82
2.5261295 -3.0611689 0.44856063 82
1.353529 -1.6425377 1.9761342 79
1.6438528 -1.9955636 1.96612 75
2.0323186 -2.4671495 1.9632006 6
2.5452986 -3.0909858 1.9384581 2
2.5274594 -3.0704141 1.4724824 85
2.5233707 -3.0665374 1.0485364 83
2.5135555 -3.0556965 0.64336336 88
2.5192752 -3.0637395 0.25368094 91
0.019515678 -0.024535758 1.9991974 80
0.19756362 -0.24289711 1.9909451 99
0.27219188 -0.33308935 2.0915227 60
0.38387331 -0.46913201 1.9838723 67
0.5191558 -0.63425601 1.99051 95
0.6634922 -0.81032008 1.9857829 83
0.82582974 -1.0085913 1.9871606 76
1.016711 -1.2417235 1.9973947 45
0.077994548 -0.09774901 1.9960728 89
0.13584583 -0.17205656 1.9983203 95
0.33274397 -0.40823051 2.0638263 60
0.44886783 -0.5503338 1.9854547 93
0.58765572 -0.71999937 1.9846202 93
0.73985499 -0.90648532 1.9840788 87
0.91453916 -1.1205207 1.9892817 57
1.115415 -1.3666474 1.9906548 45
1.2354436 -1.505648 1.9937341 38
1.4835442 -1.8080174 1.9675231 71
1.8178906 -2.2162807 1.9639498 59
2.2570224 -2.7516541 1.9486914 37
2.5166774 -3.0693059 1.691967 73
2.5152178 -3.0686181 1.255447 81
2.509865 -3.0620878 0.84316397 78
2.5091157 -3.0622633 0.44766819 82
1.3477873 -1.6472526 1.9761342 79
1.6368769 -2.0012896 1.96612 75
2.0291531 -2.4809029 1.9682654 5
2.502893 -3.061202 1.9153794 2
2.5107493 -3.0719051 1.4691972 85
2.5065002 -3.0677991 1.0461918 83
2.4934759 -3.0529456 0.64129388 86
2.4990866 -3.060905 0.25307634 91
0.019429913 -0.024603732 1.9991974 82
0.19671455 -0.24358524 1.9909451 99
0.27102754 -0.33403745 2.0915227 60
0.38223338 -0.47046912 1.9838723 71
0.51693869 -0.63606435 1.99051 95
0.66065961 -0.81263119 1.9857829 83
0.82052892 -1.0092843 1.9830275 78
1.0123703 -1.245265 1.9973947 45
0.077652864 -0.098020665 1.9960728 89
0.13524441 -0.17252968 1.9983203 95
0.33210823 -0.41036734 2.0686657 60
0.44694406 -0.55189729 1.9854547 93
0.58513886 -0.72204626 1.9846202 92
0.73668629 -0.90906239 1.9840788 87
0.91062224 -1.1237061 1.9892817 57
1.1106377 -1.3705325 1.9906548 45
1.2301803 -1.5099514 1.9937341 38
1.4772239 -1.8131849 1.9675231 71
1.8101432 -2.2226126 1.9639498 67
2.2474034 -2.7595158 1.9486914 37
2.4971673 -3.0672867 1.686348 74
2.498435 -3.0699379 1.2526287 81
2.4898593 -3.0594006 0.84036613 78
2.4889827 -3.0594141 0.44632956 79
1.3420291 -1.6519473 1.9761342 79
1.6298813 -2.0069914 1.96612 75
2.0286345 -2.4980114 1.9758627 5
2.4607267 -3.0311604 1.892301 3
2.4910836 -3.0696497 1.4642692 83
2.4896519 -3.06898 1.0438471 83
2.4765658 -3.0539379 0.63991427 85
2.4820948 -3.0618482 0.2526733 89
0.019343913 -0.024671404 1.9991974 80
0.19537714 -0.2436641 1.9860058 99
0.27049857 -0.33577442 2.0964177 63
0.3805888 -0.47180048 1.9838723 67
0.51471519 -0.63786489 1.99051 93
0.65781897 -0.81493235 1.9857829 83
0.81700087 -1.0121423 1.9830275 72
1.0080174 -1.2487912 1.9973947 43
0.077310242 -0.098291121 1.9960728 89
0.13496873 -0.1734225 2.0032918 93
0.33067372 -0.41152412 2.0686657 60
0.44501489 -0.55345404 1.9854547 93
0.58261484 -0.72408438 1.9846202 92
0.73350859 -0.91162831 1.9840788 87
0.90669417 -1.126878 1.9892817 57
1.1058469 -1.3744011 1.9906548 45
1.2271448 -1.5170088 1.9972385 38
1.4708859 -1.8183304 1.9675231 73
1.7997446 -2.2256665 1.9612085 67
2.2377572 -2.7673438 1.9486914 38
2.4806166 -3.068774 1.6826018 73
2.4816732 -3.0711775 1.2498103 79
2.47299 -3.0604317 0.83850086 78
2.4720297 -3.0603354 0.44543716 78
1.3362545 -1.6566216 1.9761342 79
1.6228657 -2.0126681 1.96612 75
2.0280209 -2.5151455 1.9834601 5
2.4415865 -3.0291312 1.8860068 4
2.4744275 -3.070972 1.4609836 83
2.4728262 -3.0700812 1.0415026 81
2.4596789 -3.0548496 0.63853467 84
2.4651268 -3.0627098 0.25227022 87
0.019257676 -0.024738777 1.9991974 80
0.19452539 -0.24434462 1.9860058 99
0.26932484 -0.33671659 2.0964177 63
0.3789396 -0.47312611 1.9838723 67
0.5124855 -0.63965768 1.99051 93
0.65497029 -0.81722361 1.9857829 83
0.81346279 -1.0149881 1.9830275 59
1.0036521 -1.2523022 1.9973947 43
0.076966666 -0.098560385 1.9960728 89
0.13436256 -0.17389257 2.0032918 93
0.32923523 -0.41267586 2.0686657 62
0.44415691 -0.55635273 1.9901476 93
0.57872456 -0.7244122 1.9801195 92
0.73032194 -0.91418314 1.9840788 87
0.90275514 -1.130036 1.9892817 55
1.1010425 -1.3782529 1.9906548 45
1.2218421 -1.5212831 1.9972385 38
1.4645296 -1.8234537 1.9675231 73
1.7919647 -2.2319353 1.9612085 67
2.2280838 -2.7751381 1.9486914 64
2.4640861 -3.0701833 1.6788558 70
2.4649334 -3.0723374 1.2469919 79
2.4530699 -3.0575507 0.83570302 78
2.4519846 -3.057291 0.4440985 78
1.3304636 -1.661276 1.9761342 79
1.6158303 -2.018321 1.96612 77
2.0300066 -2.5356717 1.9935898 5
2.4281619 -3.0340917 1.8839087 4
2.4577928 -3.0722156 1.4576983 83
2.456023 -3.0711021 1.0391579 82
2.4397237 -3.0518126 0.63646519 84
2.4450641 -3.0595877 0.25166565 88
0.019171203 -0.024805848 1.9991974 80
0.1936713 -0.24502215 1.9860058 99
0.26814786 -0.33765468 2.0964177 61
0.37728575 -0.47444597 1.9838723 67
0.51024956 -0.64144272 1.99051 93
0.65062189 -0.81763011 1.9813942 83
0.80991489 -1.0178213 1.9830275 42
0.99927467 -1.2557981 1.9973947 43
0.076622158 -0.09882845 1.9960728 91
0.13375475 -0.17436053 2.0032918 95
0.32779273 -0.41382259 2.0686657 60
0.44221216 -0.55789971 1.9901476 93
0.57619244 -0.72642797 1.9801195 92
0.72712642 -0.91672695 1.9840788 87
0.89880508 -1.1331804 1.9892817 55
1.0962249 -1.3820877 1.9906548 45
1.2165244 -1.5255389 1.9972385 38
1.4605827 -1.8315983 1.9706609 73
1.7841628 -2.2381768 1.9612085 67
2.2211447 -2.7863631 1.9510094 70
2.4446867 -3.067889 1.6732366 70
2.4452269 -3.0696661 1.2427642 78
2.4362607 -3.0584102 0.83383775 76
2.4350934 -3.0580397 0.4432061 79
1.3246566 -1.6659101 1.9761342 79
1.6087753 -2.0239489 1.96612 75
2.029191 -2.5528672 2.0011871 6
2.4232032 -3.0496562 1.8881049 8
2.441179 -3.07338 1.4544129 83
2.4362204 -3.0682366 1.035641 83
2.4228983 -3.0525527 0.63508558 85
2.428159 -3.0602765 0.25126258 88
0.019084498 -0.024872616 1.9991974 80
0.19281484 -0.24569671 1.9860058 99
0.26696759 -0.33858863 2.0964177 61
0.37562734 -0.47576004 1.9838723 64
0.50800741 -0.64321983 1.99051 95
0.64776385 -0.81989622 1.9813942 83
0.80635715 -1.0206422 1.9830275 37
0.99488503 -1.2592785 1.9973947 43
0.076276712 -0.099095315 1.9960728 89
0.13314529 -0.17482635 2.0032918 93
0.32556871 -0.41397554 2.0638263 62
0.44026202 -0.55943996 1.9901476 95
0.57365316 -0.7284348 1.9801195 93
0.72392195 -0.91925949 1.9840788 87
0.89484406 -1.1363109 1.9892817 57
1.0913938 -1.3859059 1.9906548 47
1.2111919 -1.5297761 1.9972385 38
1.4541805 -1.8366855 1.9706609 64
1.7763393 -2.244391 1.9612085 74
2.2114048 -2.7940993 1.9510094 73
2.4282103 -3.0691326 1.6694906 74
2.4285452 -3.0706575 1.239946 78
2.4164286 -3.055337 0.83103991 78
2.4151382 -3.0548012 0.44186747 80
1.3188335 -1.6705238 1.9761342 79
1.6017003 -2.0295522 1.96612 75
2.0309508 -2.5734718 2.0113168 6
2.4125433 -3.0580959 1.8881049 12
2.4245877 -3.0744667 1.4511276 83
2.419477 -3.069088 1.0332963 81
2.4030328 -3.0493228 0.63301611 85
2.4081867 -3.0569601 0.25065798 90
0.018997559 -0.024939083 1.9991974 78
0.19195601 -0.24636824 1.9860058 99
0.26578405 -0.33951843 2.0964177 59
0.37396434 -0.47706833 1.9838723 64
0.50575906 -0.64498931 1.99051 95
0.644898 -0.82215238 1.9813942 83
0.80278957 -1.0234507 1.9830275 34
0.99048334 -1.2627437 1.9973947 43
0.075754911 -0.099130593 1.9910811 89
0.13253422 -0.17529005 2.0032918 95
0.32412165 -0.41510946 2.0638263 64
0.43830654 -0.56097335 1.9901476 93
0.57110697 -0.73043281 1.9801195 93
0.72070879 -0.92178082 1.9840788 87
0.89087212 -1.1394275 1.9892817 55
1.0865495 -1.389707 1.9906548 47
1.2036407 -1.531191 1.9937341 38
1.4477605 -1.8417504 1.9706609 46
1.7684939 -2.2505779 1.9612085 74
2.2016382 -2.8018017 1.9510094 74
2.4117546 -3.0702989 1.6657444 73
2.4089234 -3.0677965 1.2357183 79
2.3996813 -3.0560262 0.82917464 77
2.3983109 -3.0553787 0.44097507 82
1.3129942 -1.6751173 1.9761342 79
1.5946063 -2.0351307 1.96612 75
2.0299323 -2.5907261 2.018914 8
2.4018538 -3.0664988 1.8881049 13
2.4080181 -3.0754745 1.4478422 83
2.3997619 -3.0660319 1.0297794 79
2.3862708 -3.0498919 0.6316365 87
2.3913457 -3.0574772 0.25025493 92
0.018910389 -0.025005244 1.9991974 82
0.19109486 -0.24703678 1.9860058 99
0.2645973 -0.34044415 2.0964177 61
0.37229678 -0.47837079 1.9838723 64
0.50350457 -0.64675075 1.99051 95
0.6420241 -0.82439852 1.9813942 85
0.79921204 -1.0262468 1.9830275 34
0.98606938 -1.2661934 1.9973947 43
0.075408421 -0.099394433 1.9910811 91
0.13160156 -0.17532419 1.9983203 95
0.3226707 -0.41623834 2.0638263 62
0.43528798 -0.56113631 1.9854547 93
0.56855381 -0.73242188 1.9801195 93
0.71748674 -0.92429101 1.9840788 85
0.8887375 -1.1449113 1.9932711 55
1.0816919 -1.3934914 1.9906548 47
1.1982886 -1.5353832 1.9937341 38
1.4413227 -1.8467928 1.9706609 32
1.7580552 -2.2534404 1.9584669 76
2.1918447 -2.8094697 1.9510094 73
2.3953209 -3.0713873 1.6619985 74
2.3923013 -3.06862 1.2328999 79
2.3799386 -3.0527623 0.8263768 79
2.3815084 -3.0558755 0.44008264 83
1.3071389 -1.6796901 1.9761342 81
1.5874926 -2.0406847 1.96612 75
2.0314653 -2.611408 2.0290439 10
2.3883491 -3.0712814 1.8860068 32
2.3885732 -3.0726762 1.4429142 85
2.3830798 -3.066714 1.0274347 79
2.3664963 -3.0464702 0.62956703 87
2.3714662 -3.0539682 0.24965033 92
0.01882299 -0.025071103 1.9991974 82
0.19023138 -0.24770233 1.9860058 99
0.26340729 -0.34136567 2.0964177 61
0.37062469 -0.47966743 1.9838723 66
0.50124389 -0.64850438 1.99051 93
0.63914251 -0.82663453 1.9813942 85
0.79562491 -1.0290303 1.9830275 36
0.98164356 -1.2696277 1.9973947 40
0.075061008 -0.099657044 1.9910811 89
0.13098876 -0.17578249 1.9983203 95
0.32121578 -0.41736212 2.0638263 62
0.4333266 -0.56265235 1.9854547 93
0.56732297 -0.73612696 1.9846202 92
0.71425605 -0.92678982 1.9840788 85
0.88473558 -1.1480066 1.9932711 57
1.0768211 -1.3972588 1.9906548 43
1.1929218 -1.5395566 1.9937341 38
1.432483 -1.8487355 1.9675231 31
1.7501785 -2.2595637 1.9584669 76
2.1847372 -2.8206058 1.9533273 70
2.3789086 -3.0723987 1.6582524 74
2.3757021 -3.0693641 1.2300816 79
2.3632543 -3.0532818 0.82451159 79
2.364732 -3.0562923 0.43919021 83
1.3012679 -1.6842427 1.9761342 79
1.5803596 -2.0462134 1.96612 75
2.0302429 -2.6287191 2.0366411 11
2.37484 -3.0760069 1.8839087 36
2.3720624 -3.0735178 1.4396287 82
2.3634531 -3.0634682 1.0239178 80
2.3497992 -3.0468693 0.62818742 87
2.3546908 -3.0543144 0.24924728 95
0.018739749 -0.025133383 1.9991974 82
0.18988 -0.24894974 1.9909451 99
0.26227385 -0.34223729 2.0964177 61
0.369032 -0.48089385 1.9838723 66
0.49909064 -0.65016299 1.99051 93
0.63639784 -0.82874948 1.9813942 83
0.79220819 -1.0316629 1.9830275 37
0.97742796 -1.2728759 1.9973947 40
0.074747555 -0.09989237 1.9910811 89
0.13043587 -0.17619313 1.9983203 93
0.320667 -0.41936842 2.0686657 62
0.43155685 -0.56401092 1.9854547 91
0.56487882 -0.73800415 1.9846202 92
0.71117878 -0.92915332 1.9840788 85
0.88092381 -1.150934 1.9932711 57
1.0724261 -1.4006346 1.9906548 43
1.1878098 -1.543504 1.9937341 38
1.4263445 -1.8534757 1.9675231 31
1.7426758 -2.2653549 1.9584669 69
2.1753716 -2.8278348 1.9533273 67
2.3635914 -3.0725081 1.6545063 74
2.3572748 -3.0654039 1.2258539 78
2.3471289 -3.0533128 0.82264632 80
2.3485148 -3.0562198 0.43829781 85
1.2956754 -1.6885486 1.9761342 81
1.5735654 -2.0514431 1.96612 75
2.0272238 -2.6419251 2.0417061 9
2.3596404 -3.0762506 1.8797127 61
2.3566477 -3.0734596 1.4363434 82
2.3479035 -3.0631626 1.0215732 80
2.3311796 -3.0424438 0.626118 88
2.3390079 -3.0537641 0.24884421 94
0.018651903 -0.025198644 1.9991974 80
0.18900983 -0.24961102 1.9909451 99
0.26107764 -0.34315073 2.0964177 61
0.36735114 -0.48217908 1.9838723 66
0.49681813 -0.65190119 1.99051 91
0.63350111 -0.83096588 1.9813942 83
0.78860223 -1.0344222 1.9830275 40
0.97297883 -1.2762802 1.9973947 43
0.074380934 -0.10016566 1.9910811 89
0.12978923 -0.17667003 1.9983203 91
0.3191278 -0.4205409 2.0686657 58
0.42948672 -0.56558883 1.9854547 91
0.56229925 -0.73997146 1.9846202 92
0.70793104 -0.93163007 1.9840788 87
0.87690091 -1.154002 1.9932711 57
1.0672853 -1.4045559 1.9906548 43
1.1802496 -1.544807 1.9902295 38
1.419866 -1.8584431 1.9675231 39
1.7347577 -2.2714241 1.9584669 71
2.1654875 -2.8354113 1.9533273 68
2.3466878 -3.0737805 1.6507602 72
2.340203 -3.0663962 1.2230356 80
2.3304963 -3.0536773 0.82078111 80
2.3317912 -3.0564799 0.43740538 86
1.2897735 -1.6930611 1.9761342 81
1.5663949 -2.0569232 1.96612 75
2.0253627 -2.6596272 2.0493033 7
2.3428514 -3.0776558 1.8755165 75
2.3367877 -3.0708022 1.4314153 83
2.330775 -3.0640106 1.0192285 80
2.3140178 -3.0430837 0.62473834 90
2.3247762 -3.0583396 0.24864268 92
0.018563829 -0.025263596 1.9991974 78
0.1881374 -0.25026926 1.9909451 99
0.25987822 -0.34405994 2.0964177 61
0.36566579 -0.48345843 1.9838723 66
0.4945395 -0.65363139 1.99051 91
0.63059658 -0.83317208 1.9813942 83
0.78498656 -1.0371685 1.9830275 53
0.96851784 -1.2796686 1.9973947 42
0.074030831 -0.10042469 1.9910811 89
0.12948579 -0.17755379 2.0032918 91
0.31841466 -0.42265695 2.0735047 55
0.42750984 -0.56708461 1.9854547 91
0.55971283 -0.74192983 1.9846202 92
0.70467472 -0.93409562 1.9840788 85
0.87286735 -1.157056 1.9932711 57
1.062376 -1.408273 1.9906548 43
1.17485 -1.5489174 1.9902295 39
1.4133701 -1.8633881 1.9675231 62
1.7268184 -2.2774658 1.9584669 71
2.1555767 -2.842953 1.9533273 66
2.327543 -3.0708699 1.6451411 70
2.3236904 -3.0668986 1.2202172 80
2.3138895 -3.0539629 0.81891584 80
2.315094 -3.0566609 0.43651295 85
1.2838557 -1.697553 1.9761342 79
1.5592053 -2.0623786 1.96612 75
2.0212665 -2.673559 2.054368 6
2.3266213 -3.0785735 1.8713205 79
2.3203611 -3.0714045 1.42813 81
2.3142073 -3.0643704 1.0168839 82
2.3003976 -3.04719 0.62404853 90
2.3080678 -3.0584602 0.24823961 92
0.018475529 -0.025328243 1.9991974 82
0.18726262 -0.25092447 1.9909451 99
0.25867563 -0.34496498 2.0964177 59
0.36397594 -0.48473191 1.9838723 67
0.49225491 -0.65535372 1.99051 93
0.62768441 -0.83536822 1.9813942 85
0.78136146 -1.0399023 1.9830275 72
0.96404511 -1.2830416 1.9973947 43
0.073679835 -0.10068249 1.9910811 89
0.12886523 -0.17800471 2.0032918 89
0.31769067 -0.42477319 2.0783441 51
0.42552775 -0.56857347 1.9854547 91
0.55581421 -0.742136 1.9801195 92
0.70140988 -0.93654966 1.9840788 85
0.86882311 -1.1600958 1.9932711 57
1.0574536 -1.4119728 1.9906548 45
1.1672909 -1.5501602 1.986725 39
1.4068571 -1.8683103 1.9675231 69
1.718858 -2.2834797 1.9584669 71
2.1456399 -2.8504598 1.9533273 67
2.311235 -3.0715673 1.6413952 72
2.3072033 -3.0673234 1.2173988 81
2.2973094 -3.0541699 0.81705064 81
2.2984245 -3.0567629 0.43562052 85
1.2779223 -1.702024 1.9761342 79
1.5519968 -2.0678086 1.96612 75
2.0119216 -2.6805983 2.054368 6
2.3104134 -3.0794153 1.8671243 79
2.3039589 -3.0719292 1.4248446 82
2.2976649 -3.0646517 1.0145392 81
2.283807 -3.0472758 0.62266886 91
2.2913868 -3.0585015 0.24783656 90
0.0184121 -0.025428273 2.0041974 82
0.1863856 -0.2515766 1.9909451 99
0.25746992 -0.34586585 2.0964177 57
0.36317429 -0.48719698 1.9886441 64
0.48996428 -0.65706801 1.99051 95
0.62476462 -0.83755416 1.9813942 83
0.77772671 -1.0426234 1.9830275 78
0.96147734 -1.2889686 2.0012317 43
0.073327936 -0.10093907 1.9910811 89
0.12824309 -0.17845345 2.0032918 89
0.31695575 -0.42688951 2.0831835 45
0.42354044 -0.57005531 1.9854547 91
0.55322033 -0.7440716 1.9801195 92
0.69813645 -0.93899238 1.9840788 85
0.86476839 -1.1631215 1.9932711 57
1.0525186 -1.4156554 1.9906548 45
1.1597376 -1.5513688 1.9832203 48
1.400327 -1.8732098 1.9675231 71
1.7108767 -2.2894654 1.9584669 74
2.1356769 -2.8579323 1.9533273 68
2.29495 -3.0721877 1.6376491 69
2.2907417 -3.0676711 1.2145804 82
2.280756 -3.0542986 0.81518537 81
2.2817826 -3.0567856 0.43472812 85
1.2719734 -1.7064745 1.9761342 81
1.5447694 -2.0732136 1.96612 75
1.9896734 -2.6703196 2.0417061 7
2.2942278 -3.0801816 1.8629282 77
2.2875812 -3.0723772 1.4215593 82
2.2811491 -3.0648549 1.0121946 81
2.2702 -3.0512562 0.62197906 90
2.2747338 -3.0584638 0.24743348 89
0.018323228 -0.025492389 2.0041974 82
0.1855063 -0.2522257 1.9909451 99
0.25626105 -0.34676248 2.0964177 55
0.36235985 -0.48966229 1.9934158 49
0.48766771 -0.65877426 1.99051 95
0.6218372 -0.83972996 1.9813942 83
0.7740826 -1.0453318 1.9830275 78
0.95697218 -1.292317 2.0012317 43
0.072975144 -0.10119441 1.9910811 89
0.12730987 -0.17846495 1.9983203 93
0.31620991 -0.42900577 2.0880225 40
0.42154804 -0.57153034 1.9854547 91
0.5506196 -0.7459982 1.9801195 93
0.69485444 -0.94142354 1.9840788 85
0.86070305 -1.1661329 1.9932711 57
1.0475706 -1.4193207 1.9906548 43
1.15219 -1.552544 1.9797159 60
1.3937796 -1.8780863 1.9675231 73
1.7028745 -2.2954237 1.9584669 74
2.1256878 -2.86537 1.9533273 67
2.2786894 -3.0727329 1.633903 70
2.2743058 -3.0679405 1.211762 81
2.26423 -3.0543487 0.81332016 80
2.2651684 -3.0567296 0.43383569 86
1.2660089 -1.7109041 1.9761342 81
1.5375232 -2.0785933 1.96612 75
1.9470103 -2.6321898 2.0087843 9
2.2780654 -3.0808728 1.8587321 77
2.2684216 -3.0689509 1.4166312 82
2.2646599 -3.0649805 1.00985 83
2.2536511 -3.0511951 0.62059945 90
2.2581086 -3.0583472 0.24703044 90
0.01823413 -0.025556194 2.0041974 82
0.18462473 -0.25287169 1.9909451 99
0.25504905 -0.34765485 2.0964177 55
0.36241677 -0.49333155 2.0029593 39
0.48536518 -0.66047257 1.99051 95
0.61890215 -0.84189546 1.9813942 83
0.7704289 -1.0480275 1.9830275 78
0.95245528 -1.2956495 2.0012317 43
0.072621465 -0.10144853 1.9910811 89
0.12668614 -0.17890827 1.9983203 93
0.3147105 -0.43010694 2.0880225 40
0.41955045 -0.57299829 1.9854547 93
0.54801226 -0.74791563 1.9801195 93
0.69156408 -0.94384331 1.9840788 85
0.85662729 -1.1691303 1.9932711 57
1.0426099 -1.4229687 1.9906548 43
1.1467636 -1.5565563 1.9797159 66
1.3872154 -1.8829402 1.9675231 73
1.6948516 -2.3013537 1.9584669 64
2.1183 -2.8763397 1.9556454 65
2.2597044 -3.0694678 1.6282839 73
2.2578959 -3.0681331 1.2089436 82
2.2477314 -3.0543213 0.81145489 81
2.2485824 -3.0565948 0.43294325 85
1.260029 -1.7153128 1.9761342 79
1.5302581 -2.0839477 1.96612 75
1.9071898 -2.59727 1.9783952 15
2.2592406 -3.0778301 1.852438 79
2.2521076 -3.0692356 1.4133458 82
2.2481976 -3.0650282 1.0075053 83
2.2371299 -3.0510557 0.61921978 91
2.2415123 -3.058152 0.24662736 92
0.018144811 -0.025619688 2.0041974 82
0.18374093 -0.25351462 1.9909451 99
0.25383398 -0.34854305 2.0964177 55
0.36245251 -0.49700719 2.0125027 34
0.48305678 -0.66216278 1.99051 95
0.61737198 -0.84598601 1.9857829 83
0.76676589 -1.0507104 1.9830275 80
0.94792682 -1.2989663 2.0012317 43
0.072434232 -0.10193772 1.9960728 89
0.12606086 -0.17934938 1.9983203 93
0.31320718 -0.43120289 2.0880225 45
0.41754776 -0.57445931 1.9854547 93
0.54667914 -0.75158513 1.9846202 93
0.6882652 -0.94625157 1.9840788 87
0.85076821 -1.1696759 1.9892817 55
1.0376365 -1.4265994 1.9906548 43
1.1392179 -1.5576712 1.9762113 67
1.3806343 -1.8877709 1.9675231 73
1.686808 -2.307256 1.9584669 64
2.1082468 -2.8837163 1.9556454 65
2.2435055 -3.0698516 1.6245378 73
2.2386827 -3.0643747 1.204716 83
2.2312605 -3.0542152 0.80958962 83
2.2320251 -3.0563817 0.43205085 86
1.2540337 -1.7197008 1.9761342 79
1.5229745 -2.0892763 1.96612 75
1.8752561 -2.5725565 1.9556034 26
2.2431374 -3.0783613 1.8482418 79
2.2358196 -3.0694442 1.4100605 83
2.2317629 -3.0649984 1.0051607 84
2.223552 -3.0548427 0.61852998 92
2.2249451 -3.0578783 0.24622431 93
0.018030677 -0.025646828 1.9991974 80
0.18285486 -0.25415441 1.9909451 98
0.25261578 -0.34942695 2.0964177 55
0.36334267 -0.50189871 2.0268178 32
0.48074242 -0.66384494 1.99051 95
0.61441523 -0.84813589 1.9857829 83
0.76309359 -1.0533806 1.9830275 80
0.94338679 -1.3022674 2.0012317 43
0.07207796 -0.10218995 1.9960728 89
0.12543404 -0.17978834 1.9983203 95
0.31170014 -0.43229353 2.0880225 47
0.41553998 -0.57591337 1.9854547 91
0.54405224 -0.75348878 1.9846202 92
0.68495798 -0.94864833 1.9840788 87
0.84668005 -1.1726385 1.9892817 55
1.0326504 -1.4302129 1.9906548 43
1.1337737 -1.5616384 1.9762113 62
1.3717493 -1.8894289 1.9643854 73
1.678744 -2.3131299 1.9584669 69
2.0955656 -2.8874724 1.9533273 57
2.2273309 -3.070159 1.6207917 75
2.2223396 -3.0644033 1.2018976 83
2.214818 -3.0540318 0.80772436 84
2.2154968 -3.0560901 0.43115842 87
1.2480233 -1.7240677 1.9761342 81
1.5156722 -2.0945799 1.96612 73
1.8586825 -2.5686083 1.948006 33
2.2270584 -3.0788181 1.8440458 80
2.2195573 -3.069576 1.4067751 83
2.2153556 -3.0648918 1.0028161 84
2.2070744 -3.0545576 0.61715037 92
2.2113323 -3.0615761 0.24602279 94
0.017941043 -0.02570961 1.9991974 80
0.18241802 -0.25542358 1.9958843 99
0.25139451 -0.35030663 2.0964177 52
0.36420316 -0.50680268 2.0411332 31
0.47842222 -0.665519 1.99051 95
0.61145091 -0.85027546 1.9857829 85
0.75941193 -1.0560378 1.9830275 80
0.93883532 -1.3055524 2.0012317 43
0.071720809 -0.10244092 1.9960728 89
0.1248057 -0.18022507 1.9983203 93
0.31018922 -0.43337893 2.0880225 51
0.41352713 -0.57736027 1.9854547 91
0.54141879 -0.75538325 1.9846202 92
0.68164241 -0.95103347 1.9840788 85
0.8408258 -1.1731371 1.9852921 55
1.0276517 -1.4338087 1.9906548 43
1.1283154 -1.5655864 1.9762113 52
1.3651457 -1.8942056 1.9643854 71
1.6706593 -2.3189759 1.9584669 69
2.0828843 -2.8911755 1.9510094 43
2.2111824 -3.0703914 1.6170458 74
2.2060235 -3.0643554 1.1990793 84
2.1984041 -3.0537713 0.80585915 82
2.2019069 -3.059763 0.43071222 87
1.2419975 -1.7284136 1.9761342 81
1.5083514 -2.0998578 1.96612 75
1.8572506 -2.5855854 1.9556034 40
2.2110035 -3.0792 1.8398496 79
2.2033212 -3.0696321 1.4034897 84
2.1989763 -3.0647078 1.0004715 85
2.1906259 -3.0541949 0.61577076 92
2.1948097 -3.061156 0.24561971 93
0.017851191 -0.02577208 1.9991974 80
0.18152532 -0.25605878 1.9958843 98
0.25017017 -0.35118204 2.0964177 55
0.36416647 -0.5105027 2.0506766 31
0.47609624 -0.66718489 1.99051 95
0.60847914 -0.85240465 1.9857829 85
0.75572109 -1.0586822 1.9830275 80
0.93427235 -1.3088217 2.0012317 43
0.071362786 -0.10269066 1.9960728 89
0.12417584 -0.18065964 1.9983203 93
0.30867457 -0.43445906 2.0880225 51
0.41150925 -0.57880026 1.9854547 91
0.53877872 -0.75726861 1.9846202 93
0.67831856 -0.95340705 1.9840788 87
0.83672571 -1.176065 1.9852921 63
1.0226406 -1.4373871 1.9906548 43
1.1228437 -1.5695155 1.9762113 44
1.3585254 -1.8989593 1.9643854 71
1.664987 -2.3281946 1.9612085 69
2.0702026 -2.894825 1.9486914 20
2.1950591 -3.0705483 1.6132996 73
2.1897352 -3.0642309 1.1962608 85
2.182019 -3.0534332 0.80399388 82
2.1854234 -3.0593259 0.42981982 88
1.2337883 -1.7296984 1.9728094 81
1.5010126 -2.1051102 1.96612 75
1.8457109 -2.5885425 1.9530709 66
2.1949732 -3.0795076 1.8356537 79
2.1871121 -3.0696123 1.4002044 83
2.1826255 -3.0644469 0.9981268 85
2.174207 -3.0537546 0.61439109 92
2.1783173 -3.060658 0.24521667 93
0.017761121 -0.025834234 1.9991974 80
0.1806304 -0.25669086 1.9958843 97
0.24894281 -0.35205314 2.0964177 59
0.36410835 -0.51420861 2.06022 32
0.47376442 -0.66884273 1.99051 95
0.60549998 -0.85452336 1.9857829 85
0.75202096 -1.0613137 1.9830275 82
0.92969799 -1.3120748 2.0012317 43
0.071003899 -0.10293913 1.9960728 91
0.12354446 -0.18109199 1.9983203 91
0.30715615 -0.43553391 2.0880225 49
0.40948635 -0.58023322 1.9854547 93
0.5361321 -0.75914472 1.9846202 92
0.67498642 -0.95576906 1.9840788 85
0.83261538 -1.1789787 1.9852921 70
1.0176169 -1.4409481 1.9906548 45
1.1173582 -1.5734254 1.9762113 39
1.3518883 -1.90369 1.9643854 71
1.65685 -2.3339925 1.9612085 69
2.052392 -2.891196 1.9417373 11
2.178962 -3.0706306 1.6095536 74
2.1734746 -3.0640302 1.1934425 84
2.165663 -3.0530181 0.80212867 82
2.1718502 -3.0628734 0.42937359 88
1.2277429 -1.7339945 1.9728094 81
1.4936552 -2.1103365 1.96612 75
1.8391548 -2.5984883 1.9556034 72
2.1789675 -3.0797408 1.8314574 81
2.1709304 -3.0695169 1.396919 83
2.1663034 -3.0641088 0.99578214 85
2.1578178 -3.0532374 0.61301148 93
2.1618547 -3.0600822 0.24481359 94
0.017670833 -0.025896076 1.9991974 82
0.17973329 -0.25731981 1.9958843 97
0.2477124 -0.35291997 2.0964177 59
0.36402884 -0.51792037 2.0697634 35
0.47142684 -0.67049241 1.99051 93
0.60251343 -0.85663176 1.9857829 85
0.7483117 -1.0639324 1.9830275 82
0.92511237 -1.3153121 2.0012317 43
0.070480973 -0.10294715 1.9910811 91
0.12291158 -0.18152215 1.9983203 91
0.30563396 -0.4366034 2.0880225 49
0.40745848 -0.58165902 1.9854547 93
0.53347892 -0.76101148 1.9846202 93
0.67164606 -0.95811939 1.9840788 85
0.82676494 -1.1794099 1.9813027 76
1.0125809 -1.4444915 1.9906548 45
1.1118592 -1.5773159 1.9762113 39
1.3452351 -1.9083972 1.9643854 73
1.6486926 -2.3397617 1.9612085 71
2.0397353 -2.894721 1.9394193 11
2.1628909 -3.0706375 1.6058074 76
2.1572418 -3.0637536 1.1906241 84
2.1493366 -3.0525265 0.8002634 82
2.1554129 -3.0622911 0.42848116 88
1.2216828 -1.7382696 1.9728094 81
1.4862797 -2.1155379 1.96612 75
1.8300731 -2.6048925 1.9556034 72
2.1629875 -3.0799 1.8272614 82
2.1547754 -3.0693457 1.3936336 83
2.1500103 -3.0636947 0.99343747 86
2.1414592 -3.0526426 0.61163187 93
2.1482916 -3.0635197 0.24461207 94
0.017580332 -0.025957601 1.9991974 82
0.17883398 -0.25794563 1.9958843 97
0.24647897 -0.3537825 2.0964177 54
0.36307326 -0.52041286 2.0745351 38
0.46908355 -0.67213392 1.99051 95
0.59951961 -0.85872972 1.9857829 83
0.74459338 -1.0665379 1.9830275 78
0.92051548 -1.3185333 2.0012317 43
0.070121184 -0.10319255 1.9910811 91
0.12227721 -0.18195006 1.9983203 93
0.30410808 -0.43766761 2.0880225 51
0.40542558 -0.58307773 1.9854547 93
0.53081918 -0.762869 1.9846202 93
0.66829747 -0.96045798 1.9840788 85
0.82264292 -1.1822885 1.9813027 78
1.0094688 -1.4508002 1.99433 47
1.1063465 -1.5811875 1.9762113 40
1.3385653 -1.9130814 1.9643854 73
1.6405153 -2.3455024 1.9612085 71
2.0499318 -2.9308662 1.9579635 18
2.1495025 -3.074369 1.6039344 75
2.143786 -3.067333 1.1892149 82
2.13304 -3.0519576 0.7983982 82
2.1418583 -3.0657139 0.42803496 88
1.2156075 -1.7425236 1.9728094 81
1.478886 -2.120713 1.96612 73
1.8209693 -2.6112647 1.9556034 70
2.1496282 -3.083708 1.8251634 82
2.1413484 -3.072974 1.3919909 83
2.1337464 -3.0632041 0.9910928 86
2.1279604 -3.0560348 0.61094201 92
2.1318767 -3.062799 0.24420899 94
0.017489616 -0.02601881 1.9991974 82
0.17749217 -0.2579281 1.9909451 95
0.24524252 -0.35464072 2.0964177 52
0.36210468 -0.52290493 2.0793068 39
0.46673447 -0.67376721 1.99051 93
0.5965184 -0.86081719 1.9857829 83
0.74086589 -1.0691305 1.9830275 76
0.91590726 -1.3217385 2.0012317 43
0.069760546 -0.10343669 1.9910811 89
0.12164133 -0.18237579 1.9983203 93
0.30257848 -0.43872648 2.0880225 51
0.40338784 -0.58448941 1.9854547 91
0.52815312 -0.76471734 1.9846202 93
0.66494077 -0.96278489 1.9840788 85
0.81679821 -1.1826729 1.9773132 72
1.0043985 -1.4543151 1.99433 45
1.1008204 -1.5850397 1.9762113 40
1.3318794 -1.9177423 1.9643854 73
1.6323179 -2.3512144 1.9612085 71
2.0497944 -2.9525609 1.9672356 25
2.1334717 -3.0742366 1.6001884 75
2.1275971 -3.0669141 1.1863965 83
2.1167738 -3.0513124 0.79653293 82
2.1254683 -3.0649872 0.42714256 88
1.2095176 -1.7467562 1.9728094 81
1.4691738 -2.122539 1.9631768 71
1.811843 -2.6176052 1.9556034 70
2.1336856 -3.0837283 1.8209671 81
2.125236 -3.0726621 1.3887055 83
2.1175125 -3.0626376 0.98874819 86
2.1116486 -3.0552964 0.6095624 92
2.1183326 -3.0661116 0.24400747 94
0.017398689 -0.026079699 1.9991974 82
0.17659074 -0.25854608 1.9909451 95
0.24342698 -0.35465512 2.0915227 55
0.36027721 -0.52416575 2.0793068 44
0.46548662 -0.67700225 1.9951125 95
0.59351003 -0.86289424 1.9857829 83
0.73712945 -1.0717101 1.9830275 80
0.91128802 -1.3249276 2.0012317 40
0.069399059 -0.10367957 1.9910811 89
0.12100398 -0.18279928 1.9983203 95
0.30104521 -0.43978 2.0880225 53
0.40134513 -0.58589393 1.9854547 91
0.52548057 -0.7665562 1.9846202 93
0.66157603 -0.96510011 1.9840788 87
0.81266493 -1.1855168 1.9773132 61
0.9993158 -1.4578121 1.99433 45
1.0952809 -1.5888727 1.9762113 50
1.325177 -1.9223796 1.9643854 71
1.6241007 -2.3568981 1.9612085 69
2.0520444 -2.9779379 1.9788257 12
2.1174681 -3.074029 1.5964422 77
2.1114373 -3.0664198 1.1835781 84
2.1033242 -3.054637 0.79560035 81
2.1091092 -3.0641832 0.42625013 88
1.2034129 -1.7509676 1.9728094 81
1.4617559 -2.1276543 1.9631768 67
1.802695 -2.6239135 1.9556034 72
2.11777 -3.0836751 1.8167711 81
2.1091518 -3.0722754 1.3854202 84
2.1040585 -3.0660028 0.98757589 86
2.0953681 -3.0544817 0.60818273 92
2.1019664 -3.0652471 0.24360442 94
0.017307546 -0.026140276 1.9991974 80
0.17568719 -0.25916094 1.9909451 95
0.24218751 -0.35550264 2.0915227 59
0.35844535 -0.52542007 2.0793068 42
0.46312058 -0.67862302 1.9951125 95
0.59049433 -0.86496067 1.9857829 83
0.73338395 -1.0742767 1.9830275 82
0.90665758 -1.3281004 2.0012317 40
0.06903673 -0.10392118 1.9910811 89
0.12036515 -0.18322055 1.9983203 93
0.29950827 -0.44082817 2.0880225 56
0.39929751 -0.58729136 1.9854547 93
0.52280158 -0.76838589 1.9846202 93
0.65820312 -0.96740365 1.9840788 87
0.80852175 -1.1883464 1.9773132 51
0.99422103 -1.4612916 1.99433 45
1.089728 -1.5926863 1.9762113 56
1.3184587 -1.9269936 1.9643854 71
1.6158637 -2.3625529 1.9612085 72
2.0541418 -3.0033658 1.9904157 12
2.1014919 -3.0737481 1.5926963 77
2.0980136 -3.0698106 1.1821688 82
2.0871053 -3.0538492 0.79373515 81
2.0927815 -3.0633025 0.4253577 88
1.1972936 -1.7551576 1.9728094 81
1.45432 -2.1327438 1.9631768 60
1.7935247 -2.6301901 1.9556034 72
2.1018806 -3.0835483 1.8125749 81
2.0957556 -3.0757165 1.3837775 84
2.0878706 -3.0652938 0.98523128 87
2.0791187 -3.0535903 0.60680312 90
2.0856318 -3.0643051 0.24320135 93
0.01721162 -0.026203534 1.9991974 78
0.17473613 -0.25980315 1.9909451 95
0.24088292 -0.35638794 2.0915227 54
0.35651717 -0.52673036 2.0793068 39
0.46063021 -0.68031585 1.9951125 95
0.58732009 -0.86711913 1.9857829 83
0.72944158 -1.0769575 1.9830275 80
0.90178376 -1.3314146 2.0012317 42
0.068814307 -0.10441556 1.9960728 89
0.1196928 -0.18366049 1.9983203 91
0.29789051 -0.44192296 2.0880225 53
0.39714229 -0.5887509 1.9854547 93
0.51984733 -0.77038765 1.9846202 93
0.65448374 -0.96992379 1.9840788 85
0.80395287 -1.1914421 1.9773132 42
0.9886027 -1.4650983 1.99433 45
1.0818802 -1.593719 1.9727067 67
1.3113871 -1.9318131 1.9643854 71
1.6071937 -2.3684595 1.9612085 71
2.0555582 -3.0292041 2.0020061 13
2.0876095 -3.0775928 1.5908233 77
2.0813637 -3.0695384 1.1793505 83
2.0726078 -3.0577741 0.79280245 82
2.0782106 -3.0671928 0.4249115 87
1.1905456 -1.7597419 1.9728094 81
1.4461201 -2.1383121 1.9631768 40
1.7834122 -2.6370573 1.9556034 72
2.0849416 -3.0840764 1.8083789 80
2.0786421 -3.0759151 1.3804922 84
2.0733645 -3.0692606 0.98405892 87
2.0623686 -3.052983 0.60542351 91
2.0715907 -3.0677886 0.24299982 93
0.017124631 -0.026260467 1.9991974 78
0.17430498 -0.26102743 1.9958843 96
0.23969978 -0.35718474 2.0915227 54
0.35476848 -0.5279097 2.0793068 39
0.45728174 -0.68021822 1.99051 95
0.58444142 -0.86906201 1.9857829 83
0.72586632 -1.0793705 1.9830275 80
0.89736372 -1.3343978 2.0012317 40
0.068485938 -0.10463122 1.9960728 89
0.11911523 -0.18403561 1.9983203 91
0.29650071 -0.44285664 2.0880225 51
0.39529073 -0.58999568 1.9854547 93
0.51742452 -0.77201694 1.9846202 92
0.65143341 -0.97197515 1.9840788 87
0.80020589 -1.1939619 1.9773132 42
0.98425132 -1.4680251 1.99433 45
1.0785825 -1.6002551 1.9762113 67
1.3049736 -1.936151 1.9643854 73
1.5993307 -2.3737762 1.9612085 69
2.0578787 -3.0543749 2.0135961 13
2.0727499 -3.076447 1.5870771 77
2.0690303 -3.072083 1.1779413 84
2.0602479 -3.0601957 0.79186988 84
2.0630035 -3.0654433 0.42401907 88
1.1850111 -1.7634734 1.9728094 79
1.4393954 -2.1428447 1.9631768 39
1.77558 -2.6423373 1.9556034 72
2.0707202 -3.0827138 1.8041826 79
2.0668738 -3.0781486 1.3788494 84
2.0588312 -3.0673273 0.98171431 88
2.0500083 -3.0553346 0.60473365 91
2.0563769 -3.0659833 0.24259675 94
0.017032862 -0.026320083 1.9991974 80
0.17339274 -0.26163426 1.9958843 95
0.23845148 -0.35801929 2.0915227 52
0.35292357 -0.52914488 2.0793068 39
0.4549045 -0.68181026 1.99051 91
0.58140427 -0.87109685 1.9857829 83
0.72209418 -1.0818976 1.9830275 80
0.89270031 -1.337522 2.0012317 40
0.068101987 -0.10488155 1.9960728 89
0.11843991 -0.18447095 1.9983203 91
0.29487559 -0.4439404 2.0880225 51
0.39312565 -0.5914405 1.9854547 93
0.51472646 -0.77381837 1.9846202 92
0.64803654 -0.9742431 1.9840788 85
0.79603326 -1.1967479 1.9773132 44
0.97886407 -1.4716227 1.99433 43
1.0729901 -1.6040103 1.9762113 67
1.3003715 -1.9439301 1.9675231 73
1.5887105 -2.3758683 1.9584669 69
2.06198 -3.0836358 2.0275044 14
2.0563078 -3.0763147 1.5833311 77
2.0524261 -3.0716679 1.1751229 83
2.044095 -3.0591998 0.79000461 84
2.0467584 -3.0643437 0.42312667 88
1.1788484 -1.7675992 1.9728094 79
1.4319067 -2.1478562 1.9631768 39
1.7658837 -2.6488273 1.9556034 70
2.0543737 -3.0827296 1.7999867 79
2.0503418 -3.0778427 1.3755641 84
2.0448811 -3.070807 0.980542 87
2.033308 -3.0545831 0.60335404 91
2.0423582 -3.0693405 0.24239522 95
0.016940884 -0.026379379 1.9991974 80
0.17247842 -0.26223794 1.9958843 95
0.23720032 -0.35884947 2.0915227 52
0.35107437 -0.53037357 2.0793068 39
0.4525218 -0.68339401 1.99051 91
0.57836002 -0.87312096 1.9857829 83
0.71831322 -1.0844116 1.9830275 78
0.888026 -1.3406299 2.0012317 42
0.067735463 -0.10511862 1.9960728 91
0.11779526 -0.18488325 1.9983203 93
0.29332414 -0.44496697 2.0880225 55
0.39105874 -0.5928092 1.9854547 91
0.5120222 -0.77561039 1.9846202 92
0.64463186 -0.9764992 1.9840788 87
0.79185098 -1.1995192 1.9773132 53
0.97372121 -1.4750305 1.99433 43
1.0673844 -1.6077459 1.9762113 75
1.2935779 -1.9484572 1.9675231 73
1.5827198 -2.3848839 1.9612085 71
2.063452 -3.109271 2.0390942 25
2.0404315 -3.0757477 1.5795851 76
2.0363889 -3.0708172 1.1723045 83
2.0306892 -3.0622222 0.78907198 84
2.0305464 -3.0631673 0.42223424 88
1.1726711 -1.7717034 1.9728094 81
1.4221702 -2.1494701 1.9602337 48
1.7566267 -2.6549752 1.9556034 70
2.0385933 -3.0823109 1.7957906 80
2.0343766 -3.0771022 1.3722787 85
2.0287895 -3.0698161 0.9781974 86
2.0171735 -3.0533981 0.60197443 91
2.0261257 -3.0681131 0.24199218 95
0.016848698 -0.026438352 1.9991974 80
0.17156199 -0.26283842 1.9958843 96
0.23594627 -0.35967526 2.0915227 49
0.35004091 -0.53284413 2.0840786 39
0.45013356 -0.68496948 1.99051 93
0.57399261 -0.87313247 1.9813942 83
0.71452355 -1.0869124 1.9830275 80
0.88334095 -1.3437216 2.0012317 42
0.06736812 -0.10535442 1.9960728 89
0.11714918 -0.1852933 1.9983203 95
0.29176912 -0.44598818 2.0880225 53
0.38804191 -0.59272677 1.980762 81
0.50931168 -0.77739292 1.9846202 92
0.64121932 -0.97874343 1.9840788 85
0.78765911 -1.2022759 1.9773132 63
0.96856648 -1.4784205 1.99433 43
1.0617659 -1.6114621 1.9762113 75
1.2867689 -1.952961 1.9675231 73
1.5743855 -2.390394 1.9612085 71
2.0525861 -3.1164551 2.0390942 48
2.0245841 -3.0751073 1.575839 76
2.02302 -3.0738995 1.1708953 83
2.0145867 -3.0610855 0.78720677 83
2.0143673 -3.0619156 0.42134184 88
1.1664796 -1.7757858 1.9728094 81
1.4146584 -2.1544216 1.9602337 66
1.7473484 -2.6610911 1.9556034 72
2.0228407 -3.08182 1.7915945 80
2.0184419 -3.0762882 1.3689934 85
2.0153956 -3.0728147 0.97702503 86
2.0037878 -3.0562794 0.60128462 89
2.012665 -3.0709884 0.24179062 95
0.016756309 -0.026497003 1.9991974 82
0.17064346 -0.26343566 1.9958843 97
0.23524478 -0.36135003 2.0964177 49
0.3481788 -0.5340628 2.0840786 39
0.44773981 -0.68653649 1.99051 93
0.57094133 -0.87513077 1.9813942 81
0.71072513 -1.0893999 1.9830275 80
0.87864506 -1.3467969 2.0012317 42
0.066999957 -0.10558894 1.9960728 89
0.11678486 -0.18615375 2.0032918 93
0.29021057 -0.44700393 2.0880225 53
0.38597056 -0.59407777 1.980762 71
0.50659502 -0.7791661 1.9846202 92
0.63779896 -0.98097581 1.9840788 85
0.78345758 -1.205018 1.9773132 80
0.96339995 -1.4817924 1.99433 43
1.0561343 -1.6151584 1.9762113 77
1.2778136 -1.9541826 1.9643854 73
1.5660318 -2.395875 1.9612085 61
2.0368476 -3.1161845 2.0344584 81
2.0087662 -3.0743937 1.5720929 75
2.0070312 -3.0729098 1.168077 84
2.0012028 -3.0639863 0.78627414 83
2.0009444 -3.0647588 0.42089561 90
1.1602738 -1.7798469 1.9728094 79
1.4071295 -2.1593466 1.9602337 71
1.7380489 -2.6671743 1.9556034 69
2.0071163 -3.0812562 1.7873983 80
2.0051146 -3.0793579 1.3673507 85
1.9993542 -3.0716839 0.97468042 86
1.9877053 -3.0549536 0.59990495 90
1.9964851 -3.0696187 0.24138758 96
0.016663715 -0.026555333 1.9991974 80
0.16972286 -0.26402971 1.9958843 96
0.23398198 -0.362169 2.0964177 57
0.34631243 -0.53527492 2.0840786 38
0.44534063 -0.68809527 1.99051 95
0.56788307 -0.87711841 1.9813942 83
0.70844746 -1.0942365 1.9871606 82
0.87393856 -1.3498557 2.0012317 40
0.066630974 -0.10582217 1.9960728 89
0.11613433 -0.18656027 2.0032918 93
0.28864849 -0.4480142 2.0880225 55
0.38389447 -0.59542137 1.980762 52
0.50387216 -0.78092968 1.9846202 92
0.63437086 -0.9831962 1.9840788 85
0.77924651 -1.2077456 1.9773132 84
0.95822167 -1.4851464 1.99433 45
1.05049 -1.6188353 1.9762113 77
1.2709844 -1.9586313 1.9643854 73
1.557659 -2.4013269 1.9612085 63
2.0211353 -3.1158416 2.0298221 80
1.992978 -3.0736074 1.5683469 76
1.9936832 -3.075871 1.1666677 84
1.9851519 -3.0627089 0.78440887 83
1.9848181 -3.0633655 0.42000318 90
1.1540538 -1.7838862 1.9728094 81
1.3995835 -2.1642451 1.9602337 75
1.7287282 -2.6732247 1.9556034 70
1.9938849 -3.0844321 1.7853003 80
1.9892271 -3.0784051 1.3640653 85
1.9859827 -3.0745611 0.97350812 84
1.9743433 -3.057713 0.59921515 90
1.9830488 -3.072372 0.24118605 96
0.016570918 -0.026613338 1.9991974 82
0.1688002 -0.26462054 1.9958843 95
0.23271635 -0.36298352 2.0964177 59
0.34444186 -0.53648049 2.0840786 37
0.44188032 -0.68800187 1.9859076 95
0.56481791 -0.87909532 1.9813942 85
0.70462352 -1.0967027 1.9871606 80
0.86922133 -1.352898 2.0012317 40
0.066261172 -0.10605411 1.9960728 89
0.11548241 -0.18696454 2.0032918 93
0.28708282 -0.44901904 2.0880225 55
0.38274372 -0.59821141 1.9854547 44
0.50114304 -0.78268373 1.9846202 92
0.63093495 -0.98540455 1.9840788 87
0.7750259 -1.2104584 1.9773132 84
0.95303166 -1.4884821 1.99433 45
1.0448328 -1.6224923 1.9762113 75
1.2641398 -1.9630558 1.9643854 73
1.5492675 -2.4067495 1.9612085 69
2.012645 -3.1266029 2.0321403 73
1.9772195 -3.0727484 1.5646008 77
1.9777437 -3.0747421 1.1638494 82
1.9717916 -3.0654883 0.78347629 85
1.9714198 -3.0660865 0.41955698 88
1.14782 -1.7879037 1.9728094 81
1.3942034 -2.1725192 1.9631768 75
1.7217146 -2.6828711 1.9581357 70
1.978205 -3.0837333 1.7811042 81
1.9733709 -3.0773795 1.36078 84
1.969992 -3.0732906 0.97116345 84
1.9609863 -3.0604165 0.59852535 91
1.9669229 -3.0708613 0.24078298 95
0.01647792 -0.026671018 1.9991974 84
0.16787548 -0.26520815 1.9958843 95
0.23144788 -0.36379364 2.0964177 56
0.34256709 -0.53767955 2.0840786 38
0.43947604 -0.68954009 1.9859076 91
0.56174588 -0.88106161 1.9813942 85
0.70079106 -1.0991555 1.9871606 80
0.86449361 -1.355924 2.0012317 40
0.065738425 -0.1060384 1.9910811 89
0.11455066 -0.18691091 1.9983203 95
0.28551373 -0.45001844 2.0880225 55
0.3806532 -0.59954381 1.9854547 40
0.49840796 -0.7844283 1.9846202 92
0.62749147 -0.98760092 1.9840788 87
0.7724123 -1.2157003 1.9813027 87
0.94783008 -1.4917997 1.99433 43
1.0391629 -1.6261295 1.9762113 75
1.2572798 -1.9674566 1.9643854 73
1.5408568 -2.4121428 1.9612085 69
1.9993336 -3.1298757 2.0298221 73
1.9639866 -3.0757241 1.5627277 76
1.9644176 -3.0775833 1.1624402 82
1.955793 -3.0640714 0.78161103 83
1.9580264 -3.0687513 0.41911077 88
1.141572 -1.7918994 1.9728094 81
1.3866113 -2.1773727 1.9631768 73
1.7123392 -2.6888645 1.9581357 70
1.9625541 -3.0829623 1.776908 80
1.9600817 -3.0802648 1.3591373 85
1.9540347 -3.0719459 0.96881884 84
1.944977 -3.0588851 0.59714574 91
1.9508318 -3.0692756 0.24037993 94
0.016384719 -0.026728377 1.9991974 82
0.16694871 -0.26579255 1.9958843 95
0.23017661 -0.36459932 2.0964177 55
0.34068817 -0.53887206 2.0840786 39
0.43706641 -0.69106996 1.9859076 91
0.55994791 -0.88504177 1.9857829 85
0.69695002 -1.101595 1.9871606 82
0.85804123 -1.3562241 1.9973947 40
0.065367877 -0.10626722 1.9910811 89
0.11389752 -0.18730964 1.9983203 93
0.28394112 -0.45101228 2.0880225 53
0.37855807 -0.60086882 1.9854547 40
0.49566674 -0.78616327 1.9846202 92
0.62404031 -0.98978519 1.9840788 85
0.76816398 -1.2183892 1.9813027 87
0.942617 -1.4950991 1.99433 43
1.0315703 -1.6267351 1.9727067 77
1.2504044 -1.9718333 1.9643854 73
1.5324275 -2.4175067 1.9612085 67
1.9551904 -3.0844507 1.9973699 53
1.9482758 -3.074729 1.5589817 72
1.9485291 -3.0763161 1.1596218 82
1.9398285 -3.0625799 0.77974582 83
1.9419744 -3.0671518 0.41821834 88
1.1353101 -1.7958733 1.9728094 81
1.3790025 -2.1821995 1.9631768 75
1.702943 -2.6948256 1.9581357 70
1.9493569 -3.0859573 1.7748101 80
1.9442748 -3.079102 1.3558519 82
1.9381112 -3.0705273 0.96647424 83
1.931645 -3.0614672 0.59645587 90
1.9347759 -3.0676153 0.23997685 95
0.01629132 -0.026785407 1.9991974 82
0.16601989 -0.26637369 1.9958843 96
0.22836204 -0.36453769 2.0915227 51
0.33880508 -0.54005796 2.0840786 39
0.43465146 -0.69259137 1.9859076 95
0.55685514 -0.8869909 1.9857829 85
0.69160432 -1.1016378 1.9830275 82
0.85330188 -1.359211 1.9973947 40
0.064996541 -0.10649475 1.9910811 89
0.113243 -0.18770607 1.9983203 93
0.28236505 -0.45200071 2.0880225 53
0.37645835 -0.60218662 1.9854547 40
0.49291953 -0.78788871 1.9846202 93
0.62058151 -0.99195755 1.9840788 85
0.76390636 -1.221063 1.9813027 87
0.93739235 -1.4983804 1.99433 45
1.0258858 -1.6303262 1.9727067 77
1.2435137 -1.9761859 1.9643854 73
1.5239794 -2.4228408 1.9612085 67
1.9090297 -3.0350058 1.9625994 31
1.9350635 -3.0775864 1.5571086 72
1.9326731 -3.074976 1.1568034 82
1.9238983 -3.0610149 0.77788055 81
1.928607 -3.0696952 0.41777214 85
1.1270498 -1.7966617 1.9694844 81
1.3713766 -2.1869998 1.9631768 75
1.6935258 -2.7007535 1.9581357 70
1.9361626 -3.0888972 1.772712 80
1.9285001 -3.0778663 1.3525665 81
1.9222209 -3.0690353 0.96412951 83
1.9183191 -3.0639942 0.59576607 90
1.9187552 -3.0658805 0.23957381 93
0.016197722 -0.02684211 1.9991974 82
0.16508907 -0.26695156 1.9958843 96
0.22708815 -0.36533257 2.0915227 50
0.33612859 -0.53996938 2.0793068 39
0.43223122 -0.69410437 1.9859076 95
0.55375552 -0.88892931 1.9857829 85
0.68775469 -1.1040453 1.9830275 80
0.84685701 -1.35946 1.9935577 50
0.064624406 -0.10672098 1.9910811 91
0.11258709 -0.1881002 1.9983203 91
0.28078556 -0.45298359 2.0880225 53
0.37435406 -0.60349703 1.9854547 40
0.49016625 -0.78960449 1.9846202 95
0.61711508 -0.99411774 1.9840788 87
0.75963932 -1.2237222 1.9813027 87
0.93215632 -1.5016434 1.99433 45
1.0201885 -1.6338972 1.9727067 75
1.2366079 -1.9805145 1.9643854 73
1.5155128 -2.4281459 1.9612085 69
1.8984238 -3.0416512 1.9625994 31
1.9218549 -3.0803888 1.5552356 74
1.9143118 -3.0694914 1.1525757 80
1.9054034 -3.0552073 0.77508271 76
1.9152453 -3.0721824 0.41732591 85
1.1207715 -1.8005849 1.9694844 81
1.3637342 -2.1917737 1.9631768 75
1.684088 -2.7066483 1.9581357 70
1.9229716 -3.091783 1.7706139 81
1.9102641 -3.0725477 1.3476384 80
1.9089304 -3.0715978 0.9629572 80
1.899772 -3.0580518 0.59369665 86
1.9027704 -3.0640712 0.23917073 89
0.016103927 -0.026898487 1.9991974 80
0.16415623 -0.26752621 1.9958843 95
0.2252771 -0.36525634 2.0866275 50
0.33424172 -0.54113936 2.0793068 39
0.43083259 -0.69727087 1.99051 95
0.55064929 -0.89085686 1.9857829 85
0.6838966 -1.1064392 1.9830275 74
0.84210646 -1.3624078 1.9935577 57
0.06425149 -0.10694592 1.9910811 89
0.11192981 -0.18849207 1.9983203 93
0.27920264 -0.45396096 2.0880225 53
0.37224519 -0.60480005 1.9854547 39
0.48740706 -0.79131067 1.9846202 93
0.61364126 -0.99626583 1.9840788 87
0.75536317 -1.2263664 1.9813027 87
0.92690897 -1.5048881 1.99433 45
1.0144789 -1.6374483 1.9727067 77
1.2296872 -1.9848191 1.9643854 73
1.5070279 -2.4334214 1.9612085 69
1.8691347 -3.0181282 1.9440553 33
1.9110907 -3.0870788 1.5552356 74
1.9010614 -3.0720758 1.1511667 75
1.8895572 -3.0534854 0.77321744 70
1.9071296 -3.0830846 0.41777214 77
1.1144794 -1.8044862 1.9694844 81
1.3539518 -2.1930811 1.9602337 73
1.6746298 -2.7125106 1.9581357 72
1.9121675 -3.0984766 1.7706139 80
1.8945687 -3.0711586 1.3443531 76
1.8930947 -3.0699685 0.9606126 65
1.8786918 -3.047802 0.59093738 41
1.9025464 -3.0877078 0.23997685 84
0.016009936 -0.026954535 1.9991974 80
0.16322137 -0.26809761 1.9958843 96
0.22400075 -0.36604047 2.0866275 48
0.33235076 -0.54230285 2.0793068 39
0.42839602 -0.69877052 1.99051 91
0.54628366 -0.89073122 1.9813942 83
0.68003023 -1.1088197 1.9830275 76
0.83566964 -1.3626062 1.9897208 64
0.063877784 -0.10716954 1.9910811 88
0.11127117 -0.18888164 1.9983203 93
0.27761632 -0.45493278 2.0880225 53
0.37013179 -0.60609579 1.9854547 39
0.48464188 -0.79300719 1.9846202 92
0.61015987 -0.99840176 1.9840788 89
0.75107771 -1.2289956 1.9813027 87
0.92165023 -1.5081145 1.99433 45
1.0106248 -1.6440178 1.9762113 77
1.2227514 -1.9890994 1.9643854 73
1.4985245 -2.4386671 1.9612085 69
1.8632269 -3.0321834 1.9486914 52
1.9003031 -3.0937307 1.5552356 71
nan nan nan 0
nan nan nan 0
1.8989609 -3.0939672 0.41821834 16
1.1081738 -1.8083653 1.9694844 81
1.3462884 -2.197794 1.9602337 75
1.6651512 -2.7183397 1.9581357 72
1.9037102 -3.1090031 1.772712 76
1.9035596 -3.1099761 1.3574946 15
nan nan nan 0
nan nan nan 0
1.8943626 -3.0985925 0.24017838 80
0.015915751 -0.027010258 1.9991974 80
0.16228455 -0.2686657 1.9958843 97
0.22166492 -0.36507937 2.0768371 42
0.33045575 -0.54345959 2.0793068 39
0.42595425 -0.70026165 1.99051 93
0.54317111 -0.89263266 1.9813942 83
0.67615557 -1.1111867 1.9830275 82
0.83090818 -1.365515 1.9897208 62
0.063650265 -0.10764135 1.9960728 88
0.11061118 -0.18926889 1.9983203 93
0.27602664 -0.45589906 2.0880225 55
0.36801386 -0.60738409 1.9854547 39
0.48187083 -0.79469407 1.9846202 93
0.60667109 -1.0005255 1.9840788 87
0.74678314 -1.2316098 1.9813027 89
0.91638029 -1.5113224 1.99433 45
1.0048798 -1.6475354 1.9762113 75
1.2158005 -1.9933554 1.9643854 73
1.4900028 -2.4438829 1.9612085 69
1.8526312 -3.0386686 1.9486914 63
1.8894924 -3.1003454 1.5552356 67
3.2048745 -5.2607398 1.8994493 10
3.8002806 -6.2380886 1.4782783 28
1.8907398 -3.1048305 0.41866457 16
1.1018548 -1.8122226 1.9694844 79
1.3365092 -2.1990259 1.9572905 73
1.6556524 -2.7241354 1.9581357 70
1.8928461 -3.1156294 1.772712 74
1.9123025 -3.1488931 1.3706361 15
3.7986438 -6.2575035 1.8562632 33
nan nan nan 0
1.8913081 -3.1180007 0.24078298 83
0.015821369 -0.02706565 1.9991974 80
0.16134574 -0.26923057 1.9958843 97
0.21828789 -0.36236203 2.057256 40
0.32855672 -0.54460984 2.0793068 39
0.4235073 -0.7017442 1.99051 95
0.54005194 -0.89452326 1.9813942 83
0.67227274 -1.1135403 1.9830275 80
0.82613665 -1.3684071 1.9897208 57
0.063274138 -0.10786288 1.9960728 88
0.10994983 -0.18965384 1.9983203 93
0.27443355 -0.45685983 2.0880225 55
0.36678049 -0.61014402 1.9901476 39
0.47909388 -0.79637128 1.9846202 93
0.60317492 -1.002637 1.9840788 87
0.7424795 -1.2342091 1.9813027 89
0.91109926 -1.5145118 1.99433 45
0.9991228 -1.6510332 1.9762113 75
1.2088352 -1.9975873 1.9643854 73
1.481463 -2.449069 1.9612085 66
1.844306 -3.0489075 1.9510094 62
1.8810575 -3.1108892 1.5571086 71
3.1864917 -5.2718954 1.8994493 10
3.7632372 -6.2260933 1.4726826 27
1.8824657 -3.1156738 0.41911077 18
1.0955223 -1.8160579 1.9694844 81
1.3288249 -2.2036777 1.9572905 73
1.6461332 -2.7298982 1.9581357 70
