# .PCD v0.7 - Point Cloud Data file format
VERSION 0.7
FIELDS x y z intensity
SIZE 4 4 4 4
TYPE F F F F
COUNT 1 1 1 1
WIDTH 1328
HEIGHT 1
VIEWPOINT 0 0 0 1 0 0 0
POINTS 1328
DATA ascii
-0.51443911 0.73305559 0.45014623 6
-0.50437069 0.71897519 0.34792519 5
-0.51343161 0.73189151 0.26120901 4
nan nan nan 0
-0.51609188 0.73704648 0.88225901 10
-0.51605374 0.73726588 0.73882216 9
-0.50783545 0.72552907 0.60582012 6
-0.526223 0.75207829 0.51178247 5
-0.52271062 0.74733609 0.40638009 4
-0.50698608 0.72512347 0.30411482 6
nan nan nan 0
nan nan nan 0
-0.017558901 0.02602475 2.0041974 33
-0.17617634 0.25506023 1.9711881 73
-0.23599228 0.33999154 2.0131991 69
-0.35108349 0.50510228 2.0125027 84
-0.47571656 0.6841799 2.0227277 95
-0.50226146 0.72209895 1.6785766 38
-0.50652999 0.72824043 1.3754841 16
-0.50999469 0.73322624 1.1455929 14
-0.070264816 0.10379489 2.0010643 89
-0.12255242 0.18305129 2.0082631 95
-0.29260576 0.42268428 2.0154345 95
-0.41030321 0.59229594 2.0136113 91
-0.5046736 0.72799927 1.8946036 39
-0.50466597 0.72799277 1.519092 39
-0.51150417 0.73786193 1.2631929 17
-0.51249522 0.73929602 1.0534879 16
-0.51216054 0.7346977 0.95989293 14
-0.51154184 0.73381478 0.80340767 7
-0.51284063 0.7359516 0.6727193 4
-0.5200538 0.74630743 0.56251138 4
nan nan nan 0
-0.53475386 0.76797438 0.36483553 6
-0.49964574 0.71755433 0.25747854 5
nan nan nan 0
-0.51564717 0.74190998 0.88558388 10
-0.51578331 0.74238229 0.74176532 9
nan nan nan 0
nan nan nan 0
-0.53625762 0.77243161 0.41623619 4
-0.55987656 0.8067534 0.32756117 5
nan nan nan 0
-0.55501074 0.80033821 0.13296393 7
-0.017491721 0.026122471 2.009197 33
-0.17528492 0.25567365 1.9711881 85
-0.23538165 0.34165171 2.0180943 71
-0.34931818 0.50632471 2.0125027 86
-0.47332546 0.68583632 2.0227277 95
-0.50246 0.72779083 1.687354 38
-0.5071823 0.73463553 1.38375 28
-0.51107484 0.74027848 1.1532668 16
-0.069902085 0.10403952 2.0010643 89
-0.1219127 0.18347795 2.0082631 93
-0.29112858 0.4237031 2.0154345 95
-0.40823323 0.59372455 2.0136113 89
-0.50459814 0.73334461 1.9036052 39
-0.50507838 0.73404711 1.5276239 39
-0.51234233 0.74460888 1.271172 31
-0.51183307 0.7438733 1.0571631 23
-0.51162207 0.73941374 0.9633975 16
-0.51119226 0.73879713 0.80654544 7
-0.51264715 0.74117625 0.67546082 4
-0.51996565 0.75176185 0.56482941 4
nan nan nan 0
-0.56207305 0.81324738 0.38033667 4
-0.56137502 0.81223738 0.27892879 5
nan nan nan 0
-0.51729536 0.74985313 0.89223355 15
-0.51318878 0.74417812 0.74176532 9
nan nan nan 0
nan nan nan 0
-0.5281989 0.76652157 0.41295084 4
-0.53775609 0.78068262 0.31935495 4
-0.57005793 0.82788604 0.23223317 3
-0.56354409 0.81873196 0.13377005 6
-0.017400429 0.026183371 2.009197 36
-0.17439142 0.25628397 1.9711881 93
-0.2341876 0.34247127 2.0180943 71
-0.34754869 0.507541 2.0125027 86
-0.47092858 0.68748438 2.0227277 95
-0.50262487 0.73349291 1.6961312 38
-0.5062055 0.73872292 1.3878829 33
-0.51392418 0.74999183 1.1647776 31
-0.069538489 0.10428289 2.0010643 89
-0.12127151 0.1839024 2.0082631 93
-0.28964779 0.42471674 2.0154345 95
-0.40615824 0.59514588 2.0136113 89
-0.50449151 0.73869824 1.912607 39
-0.5054546 0.74011308 1.5361557 39
-0.5114398 0.74888164 1.2751615 35
-0.51305723 0.75125462 1.0645134 35
-0.51307571 0.74707454 0.97040653 23
-0.51301795 0.74699497 0.81282103 13
-0.51479006 0.74985576 0.68094373 7
-0.51984572 0.75722462 0.56714743 4
nan nan nan 0
-0.55923098 0.8152045 0.38033667 4
-0.52241206 0.76153243 0.26680472 4
-0.56035328 0.81714624 0.18172713 4
-0.51678461 0.75473553 0.89555842 28
-0.515154 0.75263602 0.74765164 13
-0.51482052 0.7521534 0.62101465 7
-0.51575577 0.75380188 0.50968438 6
-0.52818596 0.77225864 0.41459352 4
-0.53777099 0.78656739 0.32052726 4
-0.56716466 0.82987094 0.23223317 3
-0.56068271 0.82069415 0.13377005 6
-0.017308924 0.026243949 2.009197 36
-0.17349574 0.25689113 1.9711881 93
-0.23299074 0.34328669 2.0180943 73
-0.34577492 0.50875109 2.0125027 84
-0.46742749 0.6875084 2.0181251 95
-0.50275612 0.739205 1.7049085 38
-0.50678891 0.74513912 1.3961488 36
-0.51490891 0.757083 1.1724515 35
-0.069333449 0.10476673 2.0060561 89
-0.12033702 0.18387747 2.0032918 95
-0.28816348 0.42572519 2.0154345 95
-0.4040783 0.59656006 2.0136113 91
-0.50435364 0.74405998 1.9216086 40
-0.50579464 0.74619061 1.5446875 39
-0.51051366 0.7531572 1.279151 38
-0.51423597 0.7586534 1.0718638 37
-0.51448214 0.75475454 0.97741562 35
-0.51259989 0.75199783 0.8159588 30
-0.51687849 0.75855911 0.68642664 14
-0.51969397 0.76269573 0.56946546 8
-0.52242243 0.76698762 0.46325746 8
-0.54288214 0.79732454 0.37329069 6
-0.53080922 0.77959305 0.2705352 4
-0.55469543 0.81498033 0.18128091 4
-0.5162459 0.75962353 0.89888322 36
-0.51479506 0.7577731 0.75059479 33
-0.5194599 0.76464427 0.62861192 21
-0.51822078 0.76310682 0.51388049 9
-0.52548707 0.77409762 0.41459352 9
-0.53229284 0.78441787 0.31935495 8
-0.50866503 0.74987996 0.21843684 7
-0.52697271 0.77716142 0.13155322 8
-0.017217211 0.026304208 2.009197 37
-0.17259796 0.25749516 1.9711881 93
-0.23179103 0.34409785 2.0180943 71
-0.34399691 0.50995493 2.0125027 84
-0.46502483 0.68913585 2.0181251 95
-0.5041939 0.74691254 1.7180746 38
-0.50733358 0.75156838 1.4044147 38
-0.51585037 0.76419014 1.1801254 37
-0.068967327 0.10500812 2.0060561 89
-0.11969443 0.18429641 2.0032918 95
-0.28667566 0.42672846 2.0154345 93
-0.40199348 0.59796691 2.0136113 91
-0.50539994 0.75123674 1.9351109 40
-0.50609833 0.75227946 1.5532194 39
-0.5095638 0.75743538 1.2831405 39
-0.51347691 0.76325673 1.0755389 38
-0.51384276 0.75949961 0.9809202 37
-0.51433456 0.76023114 0.82223433 35
-0.51656991 0.76382244 0.6891681 34
-0.51951027 0.76817495 0.57178348 31
-0.52493483 0.77648783 0.46700355 17
-0.53472352 0.79126501 0.37047231 9
-0.52258384 0.77330106 0.26866996 8
-0.5462718 0.80865818 0.18038851 6
-0.51776761 0.76761276 0.90553302 38
-0.5144065 0.76291686 0.75353795 37
-0.52401817 0.77717674 0.63620919 35
-0.52062714 0.77243817 0.5180766 33
-0.52278179 0.77592719 0.41459352 23
-0.52683628 0.78223956 0.31818265 11
-0.5226382 0.7762987 0.22257572 10
-0.54099292 0.80386466 0.1327624 10
-0.017125288 0.026364148 2.009197 37
-0.17169809 0.2580961 1.9711881 95
-0.23058851 0.34490487 2.0180943 71
-0.34221476 0.51115263 2.0125027 84
-0.46261644 0.69075489 2.0181251 93
-0.50425053 0.75264871 1.7268519 38
-0.50627321 0.75567251 1.4085476 38
-0.5149641 0.76864958 1.1839623 38
-0.068600357 0.10524821 2.0060561 89
-0.11905038 0.1847131 2.0032918 93
-0.28518435 0.4277266 2.0154345 91
-0.39990371 0.59936649 2.0136113 91
-0.50519311 0.75661868 1.9441129 40
-0.50636572 0.75837952 1.5617512 39
-0.51026392 0.76422262 1.2911195 40
-0.51457459 0.77068347 1.0828893 39
-0.51516449 0.76721007 0.98792928 38
-0.51384783 0.76525378 0.8253721 37
-0.5185613 0.77256477 0.69465107 37
-0.51929474 0.77366209 0.57410151 36
-0.52222109 0.77831548 0.46700355 33
-0.52661383 0.78515851 0.36765391 11
-0.52261752 0.77920014 0.2696026 15
-0.54067254 0.80642372 0.17994229 13
-0.51716244 0.77251863 0.90885788 39
-0.51398826 0.76806706 0.75648111 38
-0.5213021 0.77900112 0.63620919 37
-0.51792765 0.77425075 0.5180766 34
-0.52269518 0.78167295 0.41623619 24
-0.52410257 0.78407377 0.31818265 18
-0.51442266 0.76988316 0.22119612 22
-0.53540868 0.80159378 0.13256088 31
-0.017033156 0.026423765 2.009197 38
-0.17079613 0.25869384 1.9711881 95
-0.22938314 0.34570768 2.0180943 71
-0.34042844 0.51234406 2.0125027 86
-0.46020246 0.69236547 2.0181251 93
-0.50427318 0.7583943 1.7356292 38
-0.5067485 0.7621218 1.4168135 38
-0.51582789 0.77578175 1.1916362 39
-0.068232551 0.10548703 2.0060561 89
-0.11840489 0.18512753 2.0032918 93
-0.28368959 0.42871946 2.0154345 93
-0.39780912 0.60075873 2.0136113 91
-0.50615764 0.76382345 1.9576153 39
-0.50659662 0.76449054 1.5702833 38
-0.50925803 0.76851153 1.295109 40
-0.51375383 0.77530098 1.0865644 40
-0.51446098 0.77197134 0.9914338 39
-0.51549101 0.7735216 0.83164763 38
-0.5181796 0.77785009 0.69739258 38
-0.51904708 0.77915704 0.57641953 36
-0.52207065 0.78399229 0.46887657 33
-0.52386987 0.78699189 0.36765391 16
-0.51989442 0.78101963 0.2696026 22
-0.53785419 0.8083061 0.17994229 22
-0.51652926 0.77742958 0.91218269 39
-0.51354027 0.77322358 0.75942427 38
-0.52096492 0.78440738 0.63874161 37
-0.52024233 0.78361619 0.52227271 35
-0.52257472 0.78742748 0.41787887 24
-0.52136242 0.78589845 0.31818265 21
-0.51720595 0.77992851 0.22257572 30
-0.53536767 0.80762196 0.1327624 29
-0.016940817 0.026483061 2.009197 39
-0.16989207 0.25928846 1.9711881 92
-0.228175 0.34650627 2.0180943 71
-0.33863795 0.51352924 2.0125027 86
-0.45778283 0.69396764 2.0181251 93
-0.50558138 0.76614881 1.7487953 38
-0.50718492 0.76858354 1.4250795 38
-0.5148825 0.78025341 1.1954732 39
-0.067863919 0.10572457 2.0060561 89
-0.11775795 0.18553971 2.0032918 93
-0.28219134 0.42970708 2.0154345 95
-0.39570966 0.6021437 2.0136113 91
-0.50588155 0.7692247 1.9666169 39
-0.506791 0.77061236 1.5788151 39
-0.50988442 0.77532101 1.3030879 39
-0.51476997 0.78275472 1.0939147 40
-0.51569778 0.77971143 0.99844289 38
-0.51493526 0.77856326 0.83478546 38
-0.51776731 0.78314221 0.70013404 38
-0.51876748 0.78465968 0.57873756 36
-0.52188689 0.7896775 0.47074959 33
-0.52111959 0.7888158 0.36765391 24
-0.51716495 0.78282964 0.2696026 21
-0.53228509 0.80602294 0.17949608 21
-0.51586807 0.78234547 0.91550756 39
-0.51528698 0.78176111 0.76531059 38
-0.52059627 0.78982079 0.64127403 37
-0.52000082 0.78921717 0.52437073 35
-0.52242047 0.79319078 0.41952157 24
-0.5186159 0.78771359 0.31818265 19
-0.51448029 0.78172916 0.22257572 29
-0.53254527 0.80948579 0.1327624 28
-0.0168254 0.026504874 2.0041974 40
-0.16898595 0.25987992 1.9711881 90
-0.22640716 0.34644824 2.0131991 73
-0.33684331 0.51470816 2.0125027 86
-0.45535764 0.69556141 2.0181251 91
-0.50552899 0.77191746 1.7575725 38
-0.50758237 0.77505755 1.4333454 38
-0.51566863 0.7874099 1.2031471 39
-0.067339301 0.10571633 2.0010643 89
-0.11710957 0.18594964 2.0032918 93
-0.28068969 0.43068948 2.0154345 95
-0.39360538 0.60352135 2.0136113 91
-0.50557381 0.77463329 1.9756186 39
-0.50837415 0.77892888 1.5916129 39
-0.51046944 0.78214407 1.311067 40
-0.51388735 0.78738582 1.09759 40
-0.51492983 0.7844882 1.0019475 39
-0.51435059 0.7836104 0.83792323 38
-0.51732433 0.78844082 0.70287549 38
-0.51845568 0.79016984 0.58105558 36
-0.52166975 0.79537094 0.47262263 33
-0.52099323 0.79464191 0.36906311 25
-0.51712257 0.78873819 0.2705352 17
-0.53219813 0.81204128 0.17994229 21
-0.51722366 0.79039097 0.92215723 39
-0.51476765 0.78693765 0.76825374 38
-0.52019608 0.79524106 0.64380646 37
-0.51972663 0.79482609 0.52646881 35
-0.52223229 0.79896247 0.42116427 26
-0.51586312 0.78951907 0.31818265 20
-0.51445645 0.78766644 0.22326556 29
-0.52971643 0.81133974 0.1327624 29
-0.016732778 0.026563447 2.0041974 40
-0.16807777 0.26046821 1.9711881 93
-0.22519644 0.34723645 2.0131991 73
-0.33504459 0.51588088 2.0125027 86
-0.45292693 0.69714665 2.0181251 93
-0.50544244 0.77769494 1.7663498 38
-0.50794071 0.78154361 1.4416113 39
-0.51466388 0.79189324 1.206984 39
-0.066969879 0.10595074 2.0010643 88
-0.11674217 0.18681043 2.0082631 95
-0.27918458 0.43166667 2.0154345 95
-0.39149627 0.6048916 2.0136113 93
-0.50523442 0.78004903 1.9846202 40
-0.50848758 0.78507668 1.6001447 39
-0.51101297 0.7889806 1.3190459 40
-0.51482159 0.79486579 1.1049403 40
-0.51413482 0.78926909 1.005452 39
-0.51373684 0.78866285 0.841061 38
-0.51685071 0.79374593 0.70561695 37
-0.51811177 0.79568726 0.58337361 36
-0.52141917 0.80107242 0.47449565 33
-0.52083254 0.80047673 0.37047231 26
-0.51704526 0.79465592 0.27146783 18
-0.52936041 0.81389409 0.17994229 21
-0.51649535 0.79532343 0.92548209 39
-0.51641929 0.79551029 0.77414006 38
-0.52211201 0.80428439 0.64887136 37
-0.52189004 0.80424976 0.53066492 35
-0.52201015 0.80474246 0.42280695 26
-0.5157485 0.79539329 0.31935495 20
-0.51439744 0.79361302 0.22395536 29
-0.52959764 0.81737667 0.13296393 29
-0.016617345 0.026584376 1.9991974 42
-0.16716753 0.26105332 1.9711881 93
-0.22398297 0.34802043 2.0131991 71
-0.33324179 0.51704723 2.0125027 84
-0.45049065 0.69872344 2.0181251 93
-0.50532174 0.78348118 1.7751272 38
-0.50978512 0.79040647 1.4540101 39
-0.51537168 0.79907322 1.2146579 39
-0.06659963 0.10618386 2.0010643 88
-0.11608936 0.1872168 2.0082631 95
-0.27767608 0.43263859 2.0154345 95
-0.38938242 0.60625446 2.0136113 93
-0.50486332 0.7854718 1.9936218 45
-0.50856429 0.79123479 1.6086767 39
-0.51151502 0.79583043 1.3270249 40
-0.51570982 0.80236173 1.1122906 40
-0.5133127 0.79405385 1.0089566 39
-0.51520759 0.79698986 0.84733653 38
-0.51861566 0.80256921 0.71109986 37
-0.52013993 0.80493295 0.58800966 36
-0.52113509 0.80678183 0.4763687 33
-0.52063745 0.80632013 0.37188148 24
-0.51959741 0.80470937 0.27333307 16
-0.52921677 0.81992108 0.18038851 21
-0.5157389 0.80026048 0.92880696 39
-0.51582831 0.80070603 0.77708322 38
-0.52163613 0.8097263 0.65140384 38
-0.52153671 0.80988234 0.53276294 36
-0.52431017 0.81450146 0.42609233 27
-0.5129689 0.79718876 0.31935495 20
-0.51698208 0.80373371 0.225335 28
-0.5294432 0.82342255 0.13316546 29
-0.016524445 0.026642218 1.9991974 42
-0.16625527 0.26163524 1.9711881 93
-0.22276682 0.34880012 2.0131991 73
-0.33143494 0.51820731 2.0125027 82
-0.44804892 0.70029169 2.0181251 95
-0.50516671 0.789276 1.7839044 38
-0.51005685 0.79692137 1.462276 38
-0.51430744 0.80356759 1.2184948 38
-0.066228576 0.10641569 2.0010643 89
-0.11543514 0.18762089 2.0082631 95
-0.27616417 0.43360522 2.0154345 93
-0.3872638 0.60760999 2.0136113 91
-0.50328952 0.78906536 1.9981228 43
-0.50860411 0.7974028 1.6172085 39
-0.51197535 0.80269325 1.335004 40
-0.5147289 0.80701536 1.1159657 40
-0.51438898 0.80184424 1.0159657 39
-0.51452434 0.80206001 0.8504743 38
-0.51806808 0.80789453 0.71384132 37
-0.51971841 0.81047291 0.59032768 36
-0.52081752 0.81249893 0.47824171 33
-0.52299613 0.8162111 0.37469989 25
-0.51943552 0.81065422 0.27426568 16
-0.52903748 0.82595694 0.18083471 20
-0.51696622 0.80834788 0.93545663 39
-0.51738441 0.80931288 0.78296953 38
-0.52345079 0.81880707 0.65646869 38
-0.52115041 0.81552231 0.53486103 35
-0.52400607 0.82030648 0.427735 28
-0.51279902 0.80307114 0.32052726 20
-0.51683778 0.80970776 0.22602481 29
-0.52925295 0.82947731 0.133367 29
-0.016431347 0.026699737 1.9991974 47
-0.16534099 0.262214 1.9711881 95
-0.22209288 0.3504357 2.0180943 75
-0.32962403 0.51936108 2.0125027 84
-0.44560167 0.70185137 2.0181251 95
-0.50497741 0.79507929 1.7926818 37
-0.51028925 0.80344784 1.470542 38
-0.51493686 0.81077045 1.2261688 38
-0.06585671 0.10664622 2.0010643 89
-0.11477953 0.18802269 2.0082631 95
-0.27464893 0.43456656 2.0154345 93
-0.38514051 0.60895813 2.0136113 91
-0.50286138 0.79449773 2.0071244 40
-0.51000184 0.80578458 1.6300063 39
-0.51078218 0.80702227 1.3389934 40
-0.51553488 0.81453639 1.123316 40
-0.51350194 0.80664331 1.0194702 39
-0.5159024 0.81041896 0.85674983 38
-0.51748979 0.81322581 0.71658283 37
-0.51926464 0.81601977 0.5926457 36
-0.52046633 0.81822348 0.48011476 33
-0.52529186 0.82612824 0.3775183 25
-0.51923829 0.81660777 0.27519831 14
-0.52882254 0.83200163 0.18128091 21
-0.51614243 0.81330055 0.9387815 39
-0.51672143 0.81452709 0.78591269 38
-0.52289885 0.82426971 0.65900111 38
-0.52316159 0.82500219 0.53905714 35
-0.52366775 0.82611924 0.42937768 28
-0.51259422 0.80896205 0.32169959 20
-0.51665807 0.81569046 0.22671464 29
-0.52902687 0.83554065 0.13356853 31
-0.016338047 0.026756931 1.9991974 47
-0.16442467 0.26278955 1.9711881 95
-0.22086827 0.35120881 2.0180943 87
-0.32780913 0.52050853 2.0125027 84
-0.44314903 0.70340252 2.0181251 95
-0.50603104 0.8029176 1.8058478 38
-0.51048237 0.80998552 1.4788078 38
-0.51552224 0.81798738 1.2338426 39
-0.065484047 0.10687546 2.0010643 89
-0.1141225 0.1884222 2.0082631 95
-0.27313033 0.43552262 2.0154345 93
-0.3830125 0.61029875 2.0136113 91
-0.50124317 0.79809231 2.0116253 40
-0.50996017 0.81197703 1.6385381 39
-0.51116782 0.81390494 1.3469725 39
-0.51629454 0.8220728 1.1306664 40
-0.51449227 0.81446105 1.0264792 39
-0.51722848 0.81879741 0.86302549 38
-0.51688039 0.81856275 0.71932429 38
-0.51877838 0.82157332 0.59496373 35
-0.52008152 0.8239556 0.48198777 33
-0.52752477 0.83607125 0.38033667 24
-0.51900595 0.82256967 0.27613091 14
-0.53122842 0.84226686 0.18217334 22
-0.51728022 0.82141721 0.94543117 40
-0.51818162 0.8231672 0.79179901 38
-0.5223152 0.8297385 0.66153353 38
-0.52269572 0.83066463 0.54115516 35
-0.52329528 0.83193958 0.43102038 29
-0.51494169 0.81897604 0.32404423 19
-0.51644289 0.82168174 0.22740445 29
-0.52876484 0.84161258 0.13377005 31
-0.016244549 0.026813798 1.9991974 53
-0.16350637 0.2633619 1.9711881 93
-0.21964099 0.35197768 2.0180943 93
-0.3259902 0.5216496 2.0125027 84
-0.44069102 0.70494515 2.0181251 95
-0.50576574 0.80874169 1.814625 38
-0.51063597 0.81653434 1.4870737 39
-0.51606345 0.82521826 1.2415166 39
-0.064960577 0.1068557 1.9960728 89
-0.11346409 0.18881941 2.0082631 95
-0.27160841 0.43647337 2.0154345 93
-0.38087982 0.61163205 2.0136113 91
-0.49960604 0.80168539 2.0161262 50
-0.50988144 0.81817901 1.6470701 39
-0.51151174 0.82080013 1.3549514 40
-0.5152148 0.82674724 1.1343416 40
-0.51354015 0.81927371 1.0299839 39
-0.51850218 0.82719481 0.86930102 38
-0.51846021 0.82744873 0.7248072 38
-0.51825958 0.82713336 0.59728175 36
-0.52212375 0.83362389 0.48573384 34
-0.52969468 0.84603977 0.38315508 24
-0.51873821 0.82853979 0.27706355 13
-0.53092712 0.84833747 0.18261954 22
-0.51638865 0.82638478 0.94875604 39
-0.51744646 0.82839924 0.79474217 39
-0.52169961 0.83521324 0.66406596 38
-0.52219671 0.83633387 0.54325324 35
-0.52288848 0.83776724 0.43266305 30
-0.51465267 0.8248924 0.32521653 19
-0.51881278 0.83188343 0.22878408 29
-0.53110981 0.85193229 0.13417313 31
-0.016150851 0.02687034 1.9991974 53
-0.16258608 0.26393104 1.9711881 93
-0.21841103 0.3527422 2.0180943 95
-0.32416734 0.52278435 2.0125027 84
-0.43822762 0.70647919 2.0181251 93
-0.50672919 0.81660932 1.8277911 38
-0.51075 0.82309407 1.4953396 39
-0.51487005 0.8297388 1.2453535 39
-0.064587183 0.10708181 1.9960728 89
-0.11280429 0.18921432 2.0082631 95
-0.27008319 0.43741879 2.0154345 93
-0.37874252 0.61295778 2.0136113 93
-0.49680457 0.80342442 2.0161262 73
-0.50976551 0.82439029 1.6556019 39
-0.51022857 0.82514411 1.3589408 40
-0.51589161 0.83430749 1.1416918 40
-0.51444435 0.82711798 1.036993 39
-0.51766759 0.83230525 0.87243879 38
-0.51777649 0.8328045 0.72754866 38
-0.51770836 0.83269984 0.59959984 36
-0.52165771 0.83937877 0.48760688 34
-0.53180122 0.85603362 0.38597345 22
-0.51843512 0.83451819 0.27799615 13
-0.53058994 0.85441643 0.18306577 23
-0.51743662 0.83452982 0.95540571 39
-0.51668096 0.83363599 0.79768533 39
-0.52105224 0.84069371 0.66659838 38
-0.52166444 0.84200966 0.54535127 36
-0.52493376 0.84761721 0.4359484 30
-0.51432866 0.83081663 0.32638884 18
-0.51851171 0.83790046 0.22947389 30
-0.530761 0.85802984 0.13437465 32
-0.016056959 0.026926551 1.9991974 58
-0.1616638 0.26449698 1.9711881 93
-0.21717839 0.35350245 2.0180943 95
-0.32234052 0.52391273 2.0125027 86
-0.43575889 0.70800453 2.0181251 93
-0.50638777 0.82245338 1.8365685 38
-0.50934911 0.82726806 1.4994725 39
-0.51533222 0.83699083 1.2530273 39
-0.064213008 0.1073066 1.9960728 89
-0.11214313 0.18960692 2.0082631 95
-0.26855469 0.4383589 2.0154345 95
-0.37660059 0.61427611 2.0136113 93
-0.49513587 0.80700988 2.020627 88
-0.50961244 0.83061069 1.6641337 39
-0.51049745 0.83205813 1.3669199 40
-0.51474911 0.83899289 1.145367 40
-0.5134269 0.83194351 1.0404975 39
-0.518848 0.84073281 0.87871432 38
-0.51925707 0.84172428 0.73303157 38
-0.51712459 0.83827233 0.60191786 37
-0.52115786 0.84514058 0.4894799 34
-0.53132713 0.86196852 0.38738266 22
-0.52067411 0.84468609 0.27986142 14
-0.53021663 0.86050308 0.18351197 23
-0.51843387 0.84269232 0.96205539 40
-0.51588529 0.8388775 0.80062848 38
-0.52037287 0.84617978 0.6691308 38
-0.52347565 0.85155827 0.54954737 36
-0.52444428 0.85346788 0.43759111 30
-0.51651347 0.84089035 0.3287335 19
-0.51817495 0.84392548 0.23016369 30
-0.53037602 0.86413521 0.13457619 33
-0.015962869 0.026982436 1.9991974 58
-0.16073954 0.26505968 1.9711881 95
-0.21594311 0.35425836 2.0180943 95
-0.32050973 0.52503473 2.0125027 84
-0.43328485 0.70952135 2.0181251 95
-0.5072605 0.83034933 1.8497344 38
-0.5093922 0.83384383 1.5077385 38
-0.51574999 0.84425628 1.2607013 39
-0.063838042 0.10753009 1.9960728 91
-0.1114806 0.18999724 2.0082631 95
-0.26702291 0.43929365 2.0154345 95
-0.37445411 0.615587 2.0136113 91
-0.49231592 0.80873328 2.020627 95
-0.50942224 0.83683997 1.6726656 39
-0.51072431 0.83898401 1.3748989 40
-0.51534289 0.84657621 1.1527174 40
-0.51424438 0.83981341 1.0475066 39
-0.51794297 0.84585869 0.88185215 39
-0.5184986 0.84709811 0.73577303 38
-0.51650804 0.84385091 0.60423589 37
-0.52304363 0.85486358 0.49322596 34
-0.53332114 0.87200308 0.39020103 24
-0.52028543 0.85068905 0.28079402 13
-0.52980733 0.86659753 0.18395817 24
-0.51938045 0.85087174 0.96870506 40
-0.51505917 0.8441236 0.80357164 39
-0.52190703 0.85535163 0.67419565 38
-0.52286321 0.85725516 0.55164546 36
-0.52637857 0.86335766 0.44087645 30
-0.51610458 0.84683871 0.32990581 18
-0.5178023 0.84995824 0.23085353 31
-0.52995491 0.87024832 0.13477771 34
-0.015868586 0.027037993 1.9991974 62
-0.15981333 0.26561913 1.9711881 95
-0.21470521 0.35501 2.0180943 95
-0.31944874 0.52742779 2.0172744 86
-0.4308055 0.71102947 2.0181251 95
-0.50684249 0.83621258 1.8585117 38
-0.5093956 0.8404299 1.5160043 38
-0.51612324 0.85153472 1.2683752 39
-0.063462302 0.10775228 1.9960728 89
-0.1108167 0.19038522 2.0082631 95
-0.26548782 0.44022307 2.0154345 95
-0.37230301 0.61689031 2.0136113 89
-0.48948988 0.81044692 2.020627 95
-0.50919455 0.84307808 1.6811975 39
-0.51246703 0.84850144 1.3868674 40
-0.51588994 0.8541739 1.1600677 40
-0.51501304 0.84769905 1.0545157 39
-0.51902974 0.85431552 0.88812768 39
-0.51987946 0.85605079 0.741256 38
-0.5181585 0.85322195 0.60887194 37
-0.52246207 0.86064696 0.49509901 34
-0.53276277 0.87796068 0.39161023 23
-0.5198611 0.85669953 0.28172666 11
-0.52936184 0.87269956 0.18440439 24
-0.52027619 0.85906798 0.97535479 40
-0.51629603 0.85283184 0.80945796 39
-0.52115083 0.86085624 0.67672807 38
-0.52456713 0.86684084 0.55584157 36
-0.52580589 0.86923045 0.44251916 32
-0.51817548 0.8569538 0.33225045 17
-0.51739401 0.85599875 0.23154333 32
-0.5294975 0.87636894 0.13497925 33
-0.015752682 0.027055211 1.9941976 64
-0.15888517 0.26617536 1.9711881 93
-0.21346468 0.3557573 2.0180943 95
-0.3176057 0.52853966 2.0172744 86
-0.42832091 0.71252888 2.0181251 95
-0.50762433 0.84413612 1.8716776 39
-0.50935924 0.84702611 1.5242703 38
-0.5164519 0.85882592 1.276049 39
-0.063085794 0.10797314 1.9960728 89
-0.11015146 0.19077088 2.0082631 95
-0.26394954 0.44114712 2.0154345 95
-0.37014738 0.61818618 2.0136113 91
-0.48665789 0.8121506 2.020627 95
-0.50892961 0.84932464 1.6897295 39
-0.51260036 0.85545576 1.3948464 40
-0.51464766 0.85887748 1.1637428 40
-0.51573288 0.8556003 1.0615247 39
-0.51805407 0.85945606 0.89126545 39
-0.51904607 0.86144191 0.74399745 38
-0.51746339 0.85882008 0.61118996 37
-0.52184647 0.86643672 0.49697202 35
-0.53216916 0.8839249 0.39301944 23
-0.51940125 0.86271739 0.28265926 11
-0.52888024 0.87880903 0.1848506 25
-0.51919758 0.86407983 0.9786796 40
-0.51539719 0.85809398 0.81240118 39
-0.52036256 0.86636597 0.67926049 38
-0.52387428 0.87255782 0.55793959 36
-0.52762884 0.87915909 0.44580451 32
-0.52018201 0.86709356 0.33459508 17
-0.51694965 0.86204666 0.23223317 33
-0.5290038 0.88249695 0.13518077 35
-0.015658146 0.027110035 1.9941976 64
-0.15795508 0.26672837 1.9711881 95
-0.21222155 0.35650027 2.0180943 95
-0.3149941 0.52836221 2.0125027 84
-0.42683175 0.71569759 2.0227277 95
-0.50712955 0.85001773 1.8804549 39
-0.50928295 0.85363221 1.5325361 39
-0.51673597 0.86612982 1.2837229 39
-0.062708512 0.10819269 1.9960728 89
-0.10948487 0.19115421 2.0082631 95
-0.26240805 0.44206578 2.0154345 95
-0.36798728 0.61947441 2.0136113 91
-0.48382002 0.81384438 2.020627 95
-0.50995982 0.85782146 1.7025272 39
-0.51269132 0.86242139 1.4028255 40
-0.51511115 0.86649704 1.1710931 40
-0.51640385 0.86351669 1.0685339 39
-0.51704884 0.86460018 0.89440322 39
-0.52032685 0.8704266 0.74948037 39
-0.51673555 0.86442375 0.61350799 37
-0.52119684 0.87223262 0.49884507 34
-0.52908051 0.88577718 0.39301944 27
-0.51890564 0.86874247 0.2835919 15
-0.53091538 0.88920158 0.18574302 28
-0.52000254 0.87230217 0.98532933 40
-0.51653689 0.86683238 0.81828749 39
-0.5195421 0.87188065 0.68179291 38
-0.52314776 0.87828022 0.56003767 36
-0.52697265 0.88505304 0.44744721 32
-0.52460986 0.88143462 0.33811203 17
-0.51900148 0.87235785 0.23361278 31
-0.52847368 0.88863212 0.13538231 38
-0.015563419 0.027164526 1.9941976 64
-0.15702306 0.26727811 1.9711881 95
-0.21097584 0.35723889 2.0180943 95
-0.31314784 0.52945852 2.0125027 84
-0.42433092 0.71718317 2.0227277 95
-0.50537962 0.85384452 1.8848437 38
-0.50916666 0.86024803 1.5408021 39
-0.5153423 0.87068719 1.2875599 39
-0.062330469 0.10841094 1.9960728 89
-0.10881696 0.19153522 2.0082631 95
-0.26086333 0.44297907 2.0154345 95
-0.36582264 0.6207552 2.0136113 91
-0.48097622 0.81552827 2.020627 95
-0.50961208 0.86408925 1.7110591 40
-0.51120889 0.86680186 1.4068149 42
-0.51380557 0.87120992 1.1747683 42
-0.51520616 0.86838114 1.0720384 39
-0.5180003 0.87309581 0.90067875 39
-0.5194183 0.87583405 0.75222182 39
-0.51597476 0.87003273 0.61582601 37
-0.52287716 0.88202244 0.50259119 35
-0.52843094 0.89174569 0.39442861 25
-0.51837415 0.8747744 0.2845245 13
-0.53034627 0.89533418 0.18618923 28
-0.51885551 0.87732643 0.98865426 42
-0.51556492 0.87210959 0.82123065 39
-0.52088338 0.88111132 0.68685776 38
-0.52238774 0.88400835 0.5621357 36
-0.52628189 0.89095324 0.44908988 33
-0.52647251 0.89163131 0.34045666 17
-0.51847035 0.87842894 0.23430261 33
-0.52790719 0.89477432 0.13558383 39
-0.01548953 0.027256917 1.9991974 64
-0.15608913 0.26782459 1.9711881 95
-0.20972757 0.35797316 2.0180943 95
-0.31205356 0.53183657 2.0172744 86
-0.42182493 0.71866 2.0227277 95
-0.50360912 0.85766929 1.8892323 37
-0.50901043 0.86687338 1.549068 39
-0.5155465 0.87800992 1.2952337 39
-0.061951667 0.10862784 1.9960728 89
-0.1081477 0.1919139 2.0082631 93
-0.25931549 0.44388694 2.0154345 95
-0.36365354 0.62202829 2.0136113 91
-0.47922632 0.8190819 2.0251279 93
-0.50922674 0.8703649 1.7195909 40
-0.51122403 0.87378389 1.414794 42
-0.51418531 0.87885058 1.1821188 42
-0.51578969 0.87632108 1.0790476 39
-0.51692408 0.87825352 0.90381652 39
-0.52059859 0.88484979 0.75770473 39
-0.51742768 0.87946528 0.62046206 37
-0.52214533 0.88783836 0.50446421 35
-0.52531493 0.89358485 0.39442861 28
-0.51780689 0.8808133 0.28545713 14
-0.52974081 0.90147358 0.18663543 29
-0.51767963 0.88235313 0.99197906 40
-0.51456231 0.87739068 0.82417381 39
-0.5199855 0.88664317 0.68939018 39
-0.52159405 0.88974178 0.56423378 37
-0.52555627 0.89685929 0.45073256 34
-0.52827042 0.90185177 0.3428013 16
-0.52040541 0.88878042 0.23568225 30
-0.52982777 0.90523493 0.13598689 46
-0.015394291 0.027310818 1.9991974 67
-0.15515329 0.26836783 1.9711881 93
-0.20847672 0.35870305 2.0180943 96
-0.31019524 0.53292257 2.0172744 84
-0.41931373 0.72012806 2.0227277 95
-0.50181812 0.86149228 1.893621 34
-0.50739777 0.87107652 1.553201 40
-0.51409215 0.88257438 1.2990707 40
-0.061572101 0.10884345 1.9960728 89
-0.10747714 0.19229022 2.0082631 93
-0.25776443 0.44478944 2.0154345 95
-0.36148012 0.623294 2.0136113 91
-0.47636425 0.82074976 2.0251279 93
-0.50749463 0.87439281 1.7238568 42
-0.50968379 0.87816989 1.4187834 46
-0.51281613 0.8835721 1.1857939 45
-0.51452571 0.88119584 1.0825521 39
-0.51581806 0.88341433 0.90695435 39
-0.51961446 0.89027292 0.76044625 39
-0.51658779 0.8850922 0.62278008 38
-0.52137911 0.89365977 0.50633723 36
-0.52460933 0.89955723 0.39583781 30
-0.51720381 0.88685876 0.28638974 12
-0.53160703 0.91192198 0.18752787 25
-0.5164749 0.88738233 0.99530393 40
-0.51556164 0.8861689 0.83006012 39
-0.51905543 0.89217931 0.69192261 39
-0.52076674 0.89548039 0.5663318 37
-0.52479583 0.90277123 0.45237529 34
-0.53000331 0.91209549 0.34514591 16
-0.52227437 0.89915591 0.23706186 30
-0.52917325 0.91139936 0.13618843 49
-0.015298866 0.027364392 1.9991974 67
-0.15421559 0.26890776 1.9711881 93
-0.20722334 0.35942858 2.0180943 96
-0.30833304 0.53400213 2.0172744 86
-0.41679746 0.72158736 2.0227277 95
-0.49880788 0.86323857 1.893621 34
-0.50576192 0.87527883 1.5573338 44
-0.51261216 0.88713938 1.3029076 42
-0.061191797 0.10905769 1.9960728 89
-0.10680526 0.19266424 2.0082631 93
-0.25621027 0.44568649 2.0154345 95
-0.35930216 0.62455195 2.0136113 93
-0.47349641 0.82240754 2.0251279 93
-0.50574058 0.87841922 1.7281227 48
-0.50811899 0.88255554 1.4227729 52
-0.51142031 0.88829482 1.1894691 51
-0.51502156 0.88915849 1.0895611 39
-0.51468241 0.88857806 0.91009212 39
-0.51859879 0.89570004 0.76318777 39
-0.51571488 0.89072412 0.62509811 38
-0.52057862 0.8994866 0.5082103 36
-0.52386838 0.90553546 0.39724702 30
-0.51902467 0.89716274 0.28825498 12
-0.53091359 0.91808319 0.18797407 25
-0.51524132 0.89241368 0.9986288 45
-0.51448566 0.89146399 0.83300328 40
-0.51809287 0.89771962 0.69445503 39
-0.51990569 0.90122408 0.56842989 37
-0.52400041 0.90868855 0.45401797 34
-0.52924359 0.91815114 0.34631824 24
-0.52160496 0.90526438 0.23775169 39
-0.52848208 0.91757017 0.13638996 53
-0.015203252 0.027417626 1.9991974 67
-0.15327598 0.26944444 1.9711881 93
-0.20596744 0.36014974 2.0180943 95
-0.30646718 0.53507519 2.0172744 86
-0.41427609 0.7230379 2.0227277 95
-0.49460021 0.86289591 1.8892323 34
-0.50410289 0.87948036 1.5614668 49
-0.50951231 0.88892329 1.3029076 49
-0.060810741 0.10927064 1.9960728 89
-0.1061321 0.19303587 2.0082631 93
-0.25465298 0.44657809 2.0154345 93
-0.35711989 0.62580234 2.0136113 91
-0.47062278 0.82405537 2.0251279 93
-0.5039646 0.88244385 1.7323887 55
-0.50503522 0.88432384 1.4227729 56
-0.50999773 0.89301854 1.1931442 60
-0.51369137 0.89404297 1.0930656 45
-0.5135169 0.89374465 0.91322988 39
-0.51755154 0.90113068 0.76592922 40
-0.51480889 0.89636052 0.62741613 39
-0.51743561 0.90129828 0.5082103 36
-0.52309203 0.91151935 0.39865619 33
-0.51833481 0.90322953 0.28918761 25
-0.53018355 0.92425054 0.18842027 100
-0.51397896 0.89744741 1.0019536 55
-0.51337886 0.89676237 0.83594644 46
-0.51495612 0.89952266 0.69445503 40
-0.51901078 0.90697253 0.57052791 38
-0.52082539 0.91051203 0.45401797 37
-0.52844805 0.92421246 0.34749055 34
-0.52335656 0.91567856 0.2391313 73
-0.53023255 0.92808515 0.13679302 128
-0.015107454 0.027470529 1.9991974 67
-0.15233451 0.26997781 1.9711881 93
-0.20470904 0.36086652 2.0180943 95
-0.30459756 0.53614169 2.0172744 84
-0.41174972 0.72447956 2.0227277 95
-0.49158511 0.86461723 1.8892323 36
-0.50102985 0.88123465 1.5614668 49
-0.50799084 0.89348334 1.3067446 50
-0.060428943 0.10948224 1.9960728 89
-0.10520262 0.19293608 2.0032918 95
-0.25309256 0.44746429 2.0154345 93
-0.35493323 0.62704515 2.0136113 91
-0.46774343 0.82569313 2.0251279 93
-0.50088125 0.88419765 1.7323887 53
-0.50343084 0.88870382 1.4267623 60
-0.50687736 0.89479333 1.1931442 63
-0.51233327 0.898929 1.0965701 51
-0.51232159 0.89891374 0.91636765 56
-0.5164727 0.90656513 0.76867068 50
-0.51386982 0.90200138 0.62973416 40
-0.51658052 0.90712756 0.51008332 39
-0.52228028 0.9175089 0.40006539 37
-0.52003896 0.91357148 0.29105285 37
-0.52695417 0.92609566 0.18842027 125
-0.51268774 0.90248293 1.0052785 60
-0.51024544 0.89854896 0.83594644 54
-0.51394188 0.90506375 0.69698745 55
-0.51584172 0.90877867 0.57052791 42
-0.51997435 0.91643196 0.45566064 39
-0.52521873 0.92605144 0.34749055 39
-0.52015698 0.9174999 0.2391313 87
-0.52698976 0.92993039 0.13679302 138
-0.015011472 0.027523097 1.9991974 67
-0.15139118 0.27050793 1.9711881 93
-0.20344812 0.36157888 2.0180943 95
-0.30272421 0.5372017 2.0172744 80
-0.40921831 0.72591245 2.0227277 95
-0.48856401 0.86632788 1.8892323 38
-0.4979507 0.8829782 1.5614668 49
-0.50486887 0.89525115 1.3067446 50
-0.060046412 0.10969251 1.9960728 89
-0.1045285 0.19330212 2.0032918 95
-0.2515291 0.44834501 2.0154345 91
-0.35274228 0.62828028 2.0136113 89
-0.46485835 0.82732087 2.0251279 93
-0.49779174 0.88594073 1.7323887 53
-0.50032556 0.89045566 1.4267623 56
-0.50541145 0.89951271 1.1968193 63
-0.50919229 0.90071195 1.0965701 55
-0.50918067 0.90069664 0.91636765 58
-0.51330507 0.90836239 0.76867068 50
-0.51071817 0.90378964 0.62973416 52
-0.51341087 0.90892518 0.51008332 39
-0.52143317 0.92350399 0.40147462 36
-0.51684684 0.91538119 0.29105285 29
-0.52616602 0.93226641 0.1888665 114
-0.5095343 0.90426713 1.0052785 62
-0.50908947 0.90384632 0.8388896 58
-0.5107795 0.90685219 0.69698745 55
-0.51489288 0.91452855 0.57262599 42
-0.51677227 0.91824144 0.45566064 38
-0.52198303 0.92787915 0.34749055 29
-0.51695114 0.91930991 0.2391313 42
-0.52618843 0.93611926 0.13699456 110
-0.014915306 0.027575329 1.9991974 69
-0.150446 0.27103475 1.9711881 93
-0.20218474 0.36228684 2.0180943 95
-0.30084717 0.5382551 2.0172744 80
-0.4066819 0.72733641 2.0227277 95
-0.48436752 0.86593717 1.8848437 40
-0.49486554 0.88471097 1.5614668 49
-0.50174081 0.89700806 1.3067446 49
-0.05966315 0.10990144 1.9960728 89
-0.10385311 0.19366583 2.0032918 95
-0.24996254 0.44922027 2.0154345 89
-0.35054705 0.62950772 2.0136113 89
-0.46196765 0.82893842 2.0251279 93
-0.49469617 0.8876729 1.7323887 51
-0.49721426 0.89219671 1.4267623 56
-0.50226843 0.90127146 1.1968193 60
-0.5060451 0.90248388 1.0965701 55
-0.50603354 0.9024685 0.91636765 58
-0.51013118 0.91014862 0.76867068 54
-0.50972623 0.90943146 0.63205218 40
-0.51250088 0.91475618 0.51195633 39
-0.51820636 0.92531848 0.40147462 33
-0.51604867 0.92146564 0.29198545 17
-0.52047598 0.92975193 0.18842027 65
-0.50819659 0.90929997 1.0086033 60
-0.50593132 0.90561789 0.8388896 56
-0.50761086 0.9086296 0.69698745 55
-0.51169741 0.91632026 0.57262599 40
-0.51356387 0.92003971 0.45566064 38
-0.51637262 0.92545104 0.34631824 28
-0.51132679 0.91678387 0.2384415 41
-0.52048481 0.93358678 0.13679302 61
-0.01481896 0.027627224 1.9991974 69
-0.149499 0.27155823 1.9711881 93
-0.20091888 0.36299041 2.0180943 95
-0.29896647 0.53930199 2.0172744 84
-0.40414056 0.7287516 2.0227277 95
-0.48134184 0.86762267 1.8848437 44
-0.49177426 0.88643301 1.5614668 47
-0.49860656 0.898754 1.3067446 49
-0.059279155 0.11010904 1.9960728 89
-0.10317647 0.19402717 2.0032918 95
-0.24839294 0.45009011 2.0154345 82
-0.34834751 0.63072747 2.0136113 87
-0.45907128 0.83054596 2.0251279 95
-0.49159461 0.88939434 1.7323887 51
-0.49263889 0.891289 1.4227729 54
-0.49747947 0.90005219 1.1931442 63
-0.50289178 0.90424484 1.0965701 53
-0.50288028 0.9042294 0.91636765 56
-0.50695103 0.91192383 0.76867068 54
-0.50654864 0.91120517 0.63205218 40
-0.5093047 0.91653961 0.51195633 39
-0.51730263 0.93131548 0.40288383 33
-0.51044375 0.91896713 0.29105285 15
-0.51722741 0.93156302 0.18842027 56
-0.50501943 0.91106844 1.0086033 62
-0.50276703 0.90737838 0.8388896 54
-0.50443608 0.91039592 0.69698745 53
-0.50849581 0.91810077 0.57262599 40
-0.51034921 0.92182678 0.45566064 37
-0.51313907 0.92724788 0.34631824 31
-0.50812352 0.91856313 0.2384415 38
-0.51722282 0.93539792 0.13679302 53
-0.014722433 0.027678784 1.9991974 69
-0.14855017 0.27207845 1.9711881 92
-0.19965059 0.36368951 2.0180943 95
-0.29636264 0.53903353 2.0125027 84
-0.40159428 0.73015791 2.0227277 93
-0.47715545 0.86719847 1.8804549 51
-0.48867708 0.88814414 1.5614668 47
-0.49392089 0.8976801 1.3029076 49
-0.058894441 0.11031529 1.9960728 89
-0.10274699 0.19485873 2.0082631 95
-0.24682032 0.45095438 2.0154345 73
-0.34614372 0.63193959 2.0136113 89
-0.45512253 0.83023369 2.020627 95
-0.48723346 0.88881797 1.7281227 51
-0.48952472 0.89300323 1.4227729 56
-0.4943347 0.90178317 1.1931442 62
-0.49800992 0.90287197 1.0930656 53
-0.49784076 0.90257061 0.91322988 53
-0.50174582 0.91002601 0.76592922 50
-0.50122583 0.90908825 0.62973416 43
-0.50610232 0.91831189 0.51195633 38
-0.51404858 0.93311548 0.40288383 32
-0.50723284 0.92074329 0.29105285 14
-0.51157027 0.92900032 0.18797407 48
-0.50003713 0.90955329 1.0052785 60
-0.49765 0.90558541 0.83594644 54
-0.50125515 0.91215122 0.69698745 53
-0.50528789 0.9198702 0.57262599 40
-0.5071283 0.92360264 0.45566064 37
-0.50756061 0.92477244 0.34514591 30
-0.50253212 0.91598946 0.23775169 34
-0.51155227 0.93281716 0.13659149 46
-0.014625726 0.027730007 1.9991974 69
-0.14759953 0.27259532 1.9711881 92
-0.19837987 0.3643842 2.0180943 95
-0.29447925 0.54006469 2.0125027 84
-0.39904311 0.73155522 2.0227277 95
-0.47412547 0.86885881 1.8804549 57
-0.48422599 0.8873744 1.5573338 47
-0.49078438 0.89939874 1.3029076 49
-0.058509015 0.1105202 1.9960728 89
-0.10206618 0.19521619 2.0082631 95
-0.24524468 0.45181322 2.0154345 62
-0.34393576 0.63314402 2.0136113 91
-0.45222172 0.83181727 2.020627 95
-0.48288229 0.88822204 1.7238568 51
-0.48496509 0.89205867 1.4187834 56
-0.48956466 0.90052474 1.1894691 60
-0.49314374 0.90147609 1.0895611 53
-0.49468717 0.9043029 0.91322988 55
-0.49856618 0.91177183 0.76592922 52
-0.49804947 0.91083229 0.62973416 42
-0.50289369 0.92007291 0.51195633 38
-0.50848818 0.93069434 0.40147462 31
-0.50166053 0.91819739 0.29012021 16
-0.50832433 0.93078041 0.18797407 43
-0.49685913 0.91129315 1.0052785 60
-0.49448586 0.9073171 0.83594644 54
-0.49806806 0.91389537 0.69698745 51
-0.49990278 0.91764295 0.57052791 40
-0.50164282 0.92121971 0.45401797 37
-0.50432938 0.92653841 0.34514591 29
-0.49696487 0.91338807 0.23706186 38
-0.50829303 0.93459707 0.13659149 41
-0.014528841 0.02778089 1.9991974 69
-0.14664711 0.27310887 1.9711881 92
-0.19710672 0.36507446 2.0180943 95
-0.29259229 0.54108936 2.0125027 86
-0.39648706 0.73294371 2.0227277 95
-0.47108969 0.87050849 1.8804549 61
-0.4811255 0.88905931 1.5573338 47
-0.48611611 0.89828688 1.2990707 49
-0.058122866 0.11072376 1.9960728 89
-0.10138413 0.19557127 2.0082631 95
-0.24306995 0.45155892 2.0105951 62
-0.34172359 0.63434082 2.0136113 91
-0.44931537 0.83339077 2.020627 93
-0.47854123 0.88760644 1.7195909 51
-0.48041797 0.89109308 1.414794 56
-0.4848094 0.89924401 1.1857939 56
-0.48999402 0.90319198 1.0895611 53
-0.4896712 0.90260237 0.91009212 55
-0.49338719 0.90983087 0.76318777 50
-0.49275517 0.90867084 0.62741613 40
-0.49746975 0.91774702 0.51008332 38
-0.50523633 0.93246359 0.40147462 33
-0.4961122 0.91562396 0.28918761 14
-0.50270051 0.92817014 0.18752787 41
-0.49189895 0.90973705 1.0019536 60
-0.49131572 0.90903765 0.83594644 54
-0.49487495 0.91562837 0.69698745 51
-0.49669656 0.91938239 0.57052791 40
-0.49842408 0.92296517 0.45401797 37
-0.49878326 0.92401606 0.34397361 27
-0.49142194 0.91075897 0.23637205 35
-0.50265598 0.93196857 0.13638996 39
-0.01443178 0.027831437 1.9991974 69
-0.14569288 0.27361909 1.9711881 92
-0.19583118 0.36576027 2.0180943 95
-0.29070175 0.5421074 2.0125027 84
-0.39392617 0.73432326 2.0227277 95
-0.46804816 0.87214756 1.8804549 65
-0.47668853 0.88825375 1.553201 42
-0.48297754 0.89997828 1.2990707 47
-0.057736013 0.11092597 1.9960728 89
-0.10045737 0.19544882 2.0032918 93
-0.24149223 0.45240462 2.0105951 62
-0.33950722 0.6355297 2.0136113 91
-0.44640353 0.83495408 2.020627 93
-0.47421035 0.88697159 1.715325 51
-0.47730455 0.89276463 1.414794 54
-0.48166752 0.90093094 1.1857939 58
-0.48514867 0.90175629 1.0860566 51
-0.48651755 0.90430617 0.91009212 53
-0.49020827 0.9115476 0.76318777 50
-0.4895803 0.91038537 0.62741613 40
-0.49426317 0.91947788 0.51008332 38
-0.49970761 0.92999548 0.40006539 33
-0.49058795 0.91302299 0.28825498 14
-0.49945751 0.92991924 0.18752787 39
-0.48872036 0.9114486 1.0019536 60
-0.48623016 0.90718454 0.83300328 54
-0.48963919 0.91355038 0.69445503 50
-0.49348429 0.92111051 0.57052791 40
-0.49519926 0.92469943 0.45401797 37
-0.4955548 0.92575145 0.34397361 26
-0.48823979 0.91246891 0.23637205 34
-0.49939972 0.93371749 0.13638996 39
-0.014319994 0.027840067 1.9941976 71
-0.14478472 0.27410072 1.9711881 95
-0.1946172 0.36640769 2.0180943 95
-0.28890246 0.54306847 2.0125027 86
-0.39148894 0.73562551 2.0227277 95
-0.46515346 0.8736949 1.8804549 65
-0.47241798 0.88734567 1.549068 44
-0.47999045 0.90157497 1.2990707 47
-0.057387248 0.11110681 1.9960728 89
-0.099842846 0.19576345 2.0032918 93
-0.24006976 0.45316109 2.0105951 62
-0.33750901 0.63659322 2.0136113 91
-0.4436323 0.83642983 2.020627 95
-0.47004449 0.88623524 1.7110591 51
-0.47292927 0.89167988 1.4108044 52
-0.47724584 0.899445 1.1821188 60
-0.48215568 0.90336013 1.0860566 51
-0.4835161 0.90591449 0.91009212 53
-0.48521456 0.90947896 0.76044625 50
-0.48447341 0.90809518 0.62509811 40
-0.48918998 0.91693592 0.5082103 38
-0.49678352 0.93156075 0.40006539 33
-0.4852469 0.91030991 0.28732237 15
-0.49637106 0.93157047 0.18752787 39
-0.48394147 0.90976733 0.9986288 60
-0.48321915 0.90879196 0.83300328 54
-0.48676679 0.91508418 0.69445503 50
-0.4905881 0.92265636 0.57052791 40
-0.49007556 0.92208052 0.45237529 36
-0.49264401 0.92730373 0.34397361 28
-0.48304823 0.90962458 0.23568225 34
-0.49646389 0.93528175 0.13638996 36
-0.014222726 0.027889881 1.9941976 71
-0.14382705 0.27460444 1.9711881 95
-0.19333699 0.36708477 2.0180943 95
-0.28700507 0.54407358 2.0125027 86
-0.38891873 0.73698759 2.0227277 95
-0.46210086 0.87531328 1.8804549 63
-0.46931767 0.88898933 1.549068 46
-0.47684047 0.90324491 1.2990707 42
-0.056979638 0.11131639 1.9960728 89
-0.099124677 0.19612807 2.0032918 93
-0.23840724 0.45403793 2.0105951 62
-0.33517349 0.63782591 2.0136113 91
-0.44070992 0.8379733 2.020627 95
-0.46694809 0.88787055 1.7110591 48
-0.46981385 0.89332527 1.4108044 54
-0.47394603 0.90118808 1.1821188 58
-0.47899941 0.9050377 1.0860566 51
-0.48035091 0.90759677 0.91009212 51
-0.48203695 0.91116714 0.76044625 50
-0.48130059 0.9097808 0.62509811 42
-0.48365879 0.91462457 0.50633723 38
-0.491124 0.92913401 0.39865619 33
-0.47977081 0.90765536 0.28638974 14
-0.4907898 0.9288941 0.18708165 40
-0.48076287 0.91145098 0.9986288 60
-0.48004395 0.91047311 0.83300328 54
-0.48340955 0.91686207 0.69445503 48
-0.4850871 0.92043316 0.56842989 40
-0.48669264 0.92387056 0.45237529 37
-0.48697728 0.92480224 0.3428013 26
-0.47740445 0.90700662 0.23499241 34
-0.49070644 0.93267369 0.13618843 36
-0.014125286 0.027939359 1.9941976 71
-0.14322555 0.27579448 1.9761273 92
-0.19205445 0.36775741 2.0180943 95
-0.28510413 0.54507208 2.0125027 84
-0.38543808 0.73660964 2.0181251 95
-0.46015373 0.87904352 1.8848437 60
-0.4649066 0.888129 1.544935 44
-0.47219786 0.90206361 1.2952337 42
-0.056590721 0.11151461 1.9960728 89
-0.098439455 0.19647288 2.0032918 93
-0.23682089 0.45486736 2.0105951 64
-0.33294502 0.63899207 2.0136113 91
-0.43778214 0.83950657 2.020627 95
-0.46264011 0.88718259 1.7067931 51
-0.4652991 0.89228737 1.4068149 54
-0.47079739 0.90283704 1.1821188 58
-0.4741801 0.90354633 1.0825521 51
-0.47537088 0.90582091 0.90695435 53
-0.4788534 0.91284418 0.76044625 50
-0.47606391 0.90753198 0.62278008 40
-0.48046324 0.91630727 0.50633723 38
-0.4878777 0.9308427 0.39865619 34
-0.47431916 0.90497363 0.28545713 14
-0.48754436 0.93060166 0.18708165 36
-0.47757837 0.91312361 0.9986288 60
-0.47499022 0.90856117 0.83006012 54
-0.47820881 0.91472328 0.69192261 50
-0.48187122 0.92212087 0.56842989 40
-0.48127827 0.92137784 0.45073256 36
-0.48374614 0.92649657 0.3428013 26
-0.4742355 0.90866762 0.23499241 34
-0.4874478 0.93438101 0.13618843 35
-0.014027673 0.027988495 1.9941976 69
-0.14226198 0.27629271 1.9761273 93
-0.19076957 0.36842555 2.0180943 95
-0.2831997 0.54606402 2.0125027 84
-0.38286448 0.73795056 2.0181251 95
-0.45708245 0.88064444 1.8848437 56
-0.46050733 0.88724875 1.5408021 46
-0.46904618 0.90370637 1.2952337 47
-0.056201119 0.11171146 1.9960728 89
-0.097753033 0.19681533 2.0032918 95
-0.23523167 0.45569125 2.0105951 64
-0.33071247 0.64015031 2.0136113 91
-0.43570209 0.84304011 2.0251279 95
-0.45818797 0.88655537 1.7025272 51
-0.46202558 0.89398676 1.4068149 54
-0.46592867 0.90154475 1.1784436 60
-0.47102323 0.90519607 1.0825521 51
-0.47220609 0.90747476 0.90695435 53
-0.47373462 0.91080052 0.75770473 50
-0.47289315 0.90918821 0.62278008 40
-0.47512335 0.91386563 0.50446421 38
-0.48241335 0.92828327 0.39724702 35
-0.47099906 0.90670604 0.28545713 14
-0.48413023 0.93238235 0.18708165 36
-0.47250989 0.91155267 0.99530393 58
-0.47165698 0.91029602 0.83006012 54
-0.47485298 0.91646987 0.69192261 50
-0.47640103 0.91985065 0.5663318 40
-0.47789803 0.92313564 0.45073256 36
-0.48034713 0.92826331 0.3428013 26
-0.46878484 0.90591919 0.23430261 37
-0.481888 0.93163931 0.13598689 35
-0.013924995 0.02803972 1.9941976 69
-0.14160135 0.2775045 1.9810666 95
-0.18941793 0.3691223 2.0180943 95
-0.28119639 0.54709828 2.0125027 86
-0.38015717 0.73934889 2.0181251 95
-0.4538517 0.88231385 1.8848437 54
-0.45725232 0.88893068 1.5408021 46
-0.46426439 0.90256858 1.2913967 47
-0.0557913 0.11191671 1.9960728 89
-0.097031012 0.19717227 2.0032918 95
-0.23355991 0.45655033 2.0105951 64
-0.32836401 0.6413582 2.0136113 91
-0.43260926 0.84463143 2.0251279 95
-0.45493549 0.88822877 1.7025272 48
-0.45737195 0.8929916 1.4028255 56
-0.46262121 0.9032464 1.1784436 58
-0.46606788 0.9037469 1.0790476 47
-0.46709263 0.90573967 0.90381652 53
-0.47039318 0.91253072 0.75770473 50
-0.46955761 0.91091537 0.62278008 40
-0.47177067 0.91560096 0.50446421 38
-0.4768112 0.92578036 0.39583781 34
-0.46542424 0.90405875 0.2845245 14
-0.48070964 0.93415046 0.18708165 36
-0.46916571 0.91327828 0.99530393 58
-0.46647114 0.90842301 0.82711697 54
-0.47149074 0.91820419 0.69192261 50
-0.47095394 0.91755283 0.56423378 40
-0.47235566 0.92067927 0.44908988 36
-0.47915968 0.93434274 0.34397361 24
-0.46546134 0.9076314 0.23430261 37
-0.47847009 0.93339926 0.13598689 35
-0.013827035 0.028088158 1.9941976 73
-0.14063182 0.27799705 1.9810666 91
-0.18812831 0.36978126 2.0180943 95
-0.27928495 0.54807645 2.0125027 86
-0.37757406 0.7406714 2.0181251 93
-0.44968063 0.88175839 1.8804549 46
-0.45286816 0.8880145 1.5366691 46
-0.45965451 0.90132773 1.2875599 49
-0.055400293 0.11211078 1.9960728 89
-0.096575633 0.19798994 2.0082631 93
-0.23196483 0.45736286 2.0105951 66
-0.32612324 0.64250046 2.0136113 91
-0.42980599 0.84606141 2.0251279 93
-0.45080632 0.8874073 1.6982613 51
-0.45440814 0.89450341 1.4028255 56
-0.45808795 0.90175295 1.1747683 60
-0.46291038 0.90536821 1.0790476 47
-0.46392816 0.90736455 0.90381652 53
-0.46720499 0.91416705 0.75770473 50
-0.46637508 0.91254884 0.62278008 40
-0.46646276 0.91311371 0.50259119 38
-0.47357672 0.92743903 0.39583781 35
-0.46242374 0.90559721 0.2845245 15
-0.47534528 0.93130386 0.18663543 36
-0.46443924 0.91150177 0.99197906 56
-0.46345612 0.90996486 0.82711697 54
-0.46648669 0.91592097 0.68939018 50
-0.46584961 0.91506499 0.5621357 40
-0.46929997 0.92224061 0.44908988 36
-0.47605863 0.93592656 0.34397361 24
-0.46004584 0.90483612 0.23361278 37
-0.47294557 0.93060994 0.13578537 34
-0.013752406 0.028173329 1.9991974 71
-0.13970917 0.2784619 1.9810666 91
-0.18690105 0.37040305 2.0180943 95
-0.27813956 0.55033261 2.0172744 86
-0.37511581 0.7419194 2.0181251 93
-0.44675413 0.88324475 1.8804549 46
-0.44865078 0.88700032 1.5325361 46
-0.45666307 0.90284699 1.2875599 49
-0.055047814 0.11228427 1.9960728 89
-0.095953152 0.19829237 2.0082631 93
-0.2310922 0.45921296 2.0154345 67
-0.32410315 0.64352185 2.0136113 91
-0.42601812 0.84553713 2.020627 92
-0.44668764 0.88656825 1.6939954 48
-0.45008329 0.89331371 1.3988359 56
-0.45372686 0.90016025 1.1710931 60
-0.4582926 0.90371764 1.0755429 53
-0.45915604 0.90542603 0.90067875 53
-0.46228036 0.91198164 0.75496328 52
-0.46134341 0.91013891 0.62046206 40
-0.46359181 0.91457462 0.50259119 38
-0.46849248 0.9246428 0.39442861 35
-0.45719871 0.90274346 0.2835919 15
-0.47225434 0.93287498 0.18663543 36
-0.46141404 0.91303694 0.99197906 58
-0.46043602 0.91149676 0.82711697 54
-0.46360695 0.91738194 0.68939018 50
-0.46297255 0.91652393 0.5621357 39
-0.46640036 0.92371041 0.44908988 36
-0.47311598 0.93741751 0.34397361 23
-0.45720097 0.90627694 0.23361278 37
-0.47001964 0.93209118 0.13578537 30
-0.013653979 0.028221162 1.9991974 73
-0.13908216 0.27964365 1.9860058 95
-0.18560696 0.37105319 2.0180943 95
-0.27621683 0.55130011 2.0172744 86
