# .PCD v0.7 - Point Cloud Data file format
VERSION 0.7
FIELDS x y z intensity
SIZE 4 4 4 4
TYPE F F F F
COUNT 1 1 1 1
WIDTH 1380
HEIGHT 1
VIEWPOINT 0 0 0 1 0 0 0
POINTS 1380
DATA ascii
0.11451524 -0.051666781 2.0060561 49
0.20032948 -0.091624066 2.0082631 112
0.46731746 -0.20500985 2.0009167 95
0.65201962 -0.28578702 1.9901476 91
0.85731047 -0.37542418 1.9981228 27
1.0742083 -0.47041276 1.9883448 87
1.3193643 -0.57777649 1.9813027 84
1.6562673 -0.72531891 2.0384321 55
1.7959162 -0.78087819 2.0042477 38
2.1519318 -0.93568093 1.9737986 71
2.6285238 -1.1434547 1.9639498 67
3.2837884 -1.4285105 1.9602815 63
4.1920156 -1.8244776 1.9354613 55
5.7358475 -2.4975863 1.9276333 20
5.9810472 -2.6043549 1.3299917 75
5.9944634 -2.6114416 0.67880487 76
2.0054216 -0.87530798 2.0293317 18
2.376797 -1.0378975 1.9720063 71
2.9372129 -1.2826234 1.9682654 70
3.6983125 -1.6157501 1.9531444 65
4.8685622 -2.1280315 1.9373622 44
5.985527 -2.6174982 1.6663477 77
5.9841366 -2.6181343 1.0020676 83
5.9906554 -2.6222322 0.35746935 82
0.028511692 -0.013036432 1.9991974 45
0.30105931 -0.1337069 2.0946693 98
0.3758342 -0.16588001 1.9985133 96
0.55608368 -0.24500498 1.9886441 86
0.75011432 -0.33035111 1.99051 90
0.95853871 -0.42195272 1.9857829 81
1.1930698 -0.52520055 1.9871606 82
1.5099163 -0.66468519 2.0511119 49
0.11433419 -0.052066199 2.0060561 53
0.20000844 -0.092322797 2.0082631 112
0.46659899 -0.20663986 2.0009167 95
0.65101802 -0.28806126 1.9901476 89
0.85599476 -0.37841442 1.9981228 27
1.0725596 -0.47415957 1.9883448 87
1.3173395 -0.58237839 1.9813027 84
1.6537254 -0.73109585 2.0384321 64
1.7931794 -0.78714228 2.0042477 38
2.1522171 -0.94475162 1.9769365 71
2.6245165 -1.1526229 1.9639498 69
3.2787821 -1.4399643 1.9602815 63
4.1856213 -1.8390992 1.9354613 55
5.7314858 -2.5195239 1.9290425 21
5.9809127 -2.6291704 1.331857 75
5.9989882 -2.6383655 0.68014354 78
2.0057716 -0.88380879 2.0326567 19
2.3731592 -1.0461876 1.9720063 69
2.9327178 -1.2928684 1.9682654 69
3.6926496 -1.6286498 1.9531444 64
4.8611045 -2.1450131 1.9373622 44
5.9896941 -2.6442649 1.6698647 78
5.9840207 -2.6430082 1.0034472 82
5.9906054 -2.647166 0.35787243 82
0.028466012 -0.013135877 1.9991974 45
0.30059078 -0.13475698 2.0946693 98
0.37525287 -0.16719089 1.9985133 96
0.55522507 -0.24694459 1.9886441 86
0.74895662 -0.33296749 1.99051 90
0.95705998 -0.4252961 1.9857829 81
1.1912292 -0.52936196 1.9871606 82
1.5075871 -0.66995174 2.0511119 50
0.11415174 -0.052464984 2.0060561 53
0.19968493 -0.093020387 2.0082631 112
0.46587485 -0.20826732 2.0009167 93
0.65000856 -0.29033199 1.9901476 89
0.85466868 -0.38140014 1.9981228 27
1.0708981 -0.47790062 1.9883448 87
1.3180509 -0.58820152 1.9852921 84
1.6511633 -0.73686403 2.0384321 57
1.7904209 -0.79339689 2.0042477 36
2.1489062 -0.95225853 1.9769365 71
2.6204772 -1.1617771 1.9639498 67
3.2737358 -1.4514008 1.9602815 61
4.1791763 -1.8536986 1.9354613 56
5.7226562 -2.5395148 1.9290425 28
5.9851689 -2.656009 1.3346547 74
5.9988446 -2.663331 0.68103594 78
2.0060861 -0.89232254 2.0359814 18
2.369493 -1.0544651 1.9720063 71
2.9281871 -1.3030976 1.9682654 69
3.6869423 -1.6415296 1.9531444 64
4.8492732 -2.1600471 1.9357196 47
5.9848671 -2.6671352 1.671037 77
5.9838047 -2.6679137 1.0048269 82
5.9904532 -2.6721315 0.35827547 84
0.028419986 -0.013235161 1.9991974 45
0.30011854 -0.13580541 2.0946693 97
0.37466699 -0.16849977 1.9985133 96
0.55435967 -0.24888119 1.9886441 86
0.74778974 -0.33557978 1.99051 88
0.95556957 -0.42863429 1.9857829 81
1.1893741 -0.53351688 1.9871606 82
1.5081643 -0.67652225 2.0549488 37
0.11396792 -0.052863125 2.0060561 58
0.19935901 -0.093716852 2.0082631 112
0.46514499 -0.20989227 2.0009167 93
0.64899111 -0.29259917 1.9901476 89
0.85333204 -0.38438118 1.9981228 30
1.0692232 -0.48163587 1.9883448 89
1.3159896 -0.59279877 1.9852921 84
1.6485811 -0.74262315 2.0384321 57
1.7876405 -0.79964173 2.0042477 35
2.1455691 -0.95975375 1.9769365 71
2.6164057 -1.1709173 1.9639498 67
3.2686493 -1.4628193 1.9602815 61
4.1769109 -1.8701698 1.9373344 56
5.713757 -2.5594752 1.9290425 28
5.9848275 -2.6809015 1.3365201 75
5.9986005 -2.6883283 0.6819284 77
2.006366 -0.90084928 2.0393064 18
2.3621109 -1.0610735 1.9690632 71
2.9236205 -1.3133109 1.9682654 70
3.6811898 -1.6543894 1.9531444 64
4.8417039 -2.1769612 1.9357196 47
5.9888186 -2.6939921 1.6745539 79
5.9834867 -2.6928494 1.0062065 83
5.9902005 -2.6971281 0.35867855 82
0.028373614 -0.013334285 1.9991974 49
0.29964268 -0.1368522 2.0946693 97
0.37407649 -0.16980657 1.9985133 96
0.55348748 -0.25081474 1.9886441 86
0.74661386 -0.33818802 1.99051 90
0.95406753 -0.43196723 1.9857829 83
1.1875045 -0.53766531 1.9871606 80
1.5057936 -0.68178266 2.0549488 37
0.1137827 -0.053260624 2.0060561 60
0.19903068 -0.094412178 2.0082631 113
0.46440953 -0.21151465 2.0009167 93
0.64796585 -0.29486278 1.9901476 87
0.85198522 -0.38735747 1.9981228 34
1.0675355 -0.48536518 1.9883448 89
1.3139123 -0.5973888 1.9852921 87
1.6428927 -0.74697 2.0347569 43
1.7848383 -0.80587691 2.0042477 35
2.142206 -0.96723735 1.9769365 71
2.6123025 -1.1800431 1.9639498 69
3.2635229 -1.4742202 1.9602815 62
4.1703577 -1.8847384 1.9373344 56
5.7004166 -2.5774279 1.9276333 25
5.984385 -2.7058237 1.3383853 73
6.0027924 -2.7154086 0.683267 76
2.0066104 -0.90938878 2.0426311 18
2.3583925 -1.0693125 1.9690632 71
2.9190185 -1.3235084 1.9682654 69
3.6753924 -1.6672291 1.9531444 59
4.8297758 -2.1918969 1.9340769 48
5.9882302 -2.7188995 1.6768986 78
5.9830689 -2.7178156 1.0075861 83
5.9898453 -2.7221553 0.3590816 82
0.028326895 -0.013433246 1.9991974 51
0.29916313 -0.13789731 2.0946693 97
0.37348148 -0.1711113 1.9985133 95
0.55260867 -0.25274524 1.9886441 86
0.74542874 -0.34079215 1.99051 90
0.95473278 -0.43629065 1.9901714 83
1.1856205 -0.54180723 1.9871606 80
1.5004888 -0.68570215 2.0511119 43
0.11359608 -0.05365748 2.0060561 64
0.19918121 -0.095337465 2.0132346 114
0.46366835 -0.21313444 2.0009167 93
0.6469326 -0.29712281 1.9901476 87
0.85062784 -0.39032912 1.9981228 40
1.0658348 -0.48908865 1.9883448 89
1.311819 -0.60197157 1.9852921 84
1.6402752 -0.75270027 2.0347569 43
1.7820144 -0.81210232 2.0042477 38
2.1388166 -0.97470921 1.9769365 71
2.6081674 -1.1891546 1.9639498 67
3.258357 -1.485603 1.9602815 62
4.1637526 -1.8992842 1.9373344 57
5.6913848 -2.5973103 1.9276333 24
5.9883099 -2.7328146 1.3411832 72
6.002337 -2.7404821 0.6841594 77
2.0068197 -0.91794091 2.0459561 18
2.3546455 -1.0775383 1.9690632 71
2.9143806 -1.3336896 1.9682654 70
3.673677 -1.6819378 1.9552425 58
4.8220949 -2.2087429 1.9340769 48
5.9919591 -2.7458608 1.6804155 77
5.9825482 -2.7428114 1.0089657 83
5.9893894 -2.7472131 0.35948467 82
0.028279833 -0.013532044 1.9991974 53
0.29867995 -0.13894074 2.0946693 97
0.37288192 -0.17241396 1.9985133 95
0.551723 -0.25467268 1.9886441 86
0.74423468 -0.3433921 1.99051 90
0.95320398 -0.43962064 1.9901714 83
1.183722 -0.54594254 1.9871606 82
1.4951749 -0.68959296 2.0472748 42
0.11340809 -0.054053675 2.0060561 64
0.1988472 -0.09603215 2.0132346 114
0.46292156 -0.21475166 2.0009167 91
0.64589149 -0.29937923 1.9901476 87
0.84728402 -0.3923808 1.9936218 62
1.0641211 -0.49280611 1.9883448 89
1.306975 -0.60528052 1.9813027 84
1.6376379 -0.7584213 2.0347569 54
1.7791688 -0.81831771 2.0042477 38
2.1354012 -0.98216909 1.9769365 73
2.6040006 -1.1982515 1.9639498 61
3.2531519 -1.4969677 1.9602815 53
4.1570983 -1.9138069 1.9373344 57
5.6779265 -2.6151545 1.9262241 17
5.9876571 -2.7578111 1.3430483 72
6.0017805 -2.7655859 0.68505186 78
2.0036032 -0.92494047 2.0459561 17
2.3508699 -1.0857509 1.9690632 73
2.9097073 -1.3438545 1.9682654 69
3.6677835 -1.694751 1.9552425 49
4.8143554 -2.2255616 1.9340769 49
5.995573 -2.7728806 1.6839324 80
5.9864216 -2.7699168 1.0110352 82
5.9888301 -2.7723007 0.35988772 81
0.028232425 -0.013630676 1.9991974 51
0.29748991 -0.13965216 2.0897303 97
0.37227783 -0.17371452 1.9985133 95
0.55083066 -0.25659701 1.9886441 84
0.74303144 -0.34598789 1.99051 91
0.95166361 -0.44294524 1.9901714 83
1.1818091 -0.55007112 1.9871606 82
1.4956651 -0.69616073 2.0511119 42
0.11295798 -0.054323278 2.0010643 66
0.19851078 -0.096725672 2.0132346 114
0.46216911 -0.21636625 2.0009167 91
0.64327943 -0.30090073 1.9854547 87
0.84590918 -0.39533597 1.9936218 81
1.0623943 -0.49651757 1.9883448 89
1.3048542 -0.60983896 1.9813027 84
1.6349804 -0.7641331 2.0347569 61
1.7763014 -0.82452321 2.0042477 38
2.1319597 -0.98961705 1.9769365 73
2.5998023 -1.2073338 1.9639498 61
3.2438884 -1.5064481 1.9579635 36
4.1503921 -1.9283062 1.9373344 57
5.6687636 -2.634958 1.9262241 14
5.9913583 -2.7849069 1.3458463 72
6.0011215 -2.790719 0.68594426 78
2.0037475 -0.93350571 2.0492809 18
2.3470657 -1.0939504 1.9690632 73
2.904999 -1.3540031 1.9682654 69
3.6618454 -1.7075436 1.9552425 38
4.8065581 -2.2423532 1.9340769 48
5.9990711 -2.7999597 1.6874495 77
5.9856896 -2.7949865 1.0124148 81
5.9881701 -2.7974179 0.3602908 81
0.028184673 -0.013729143 1.9991974 55
0.29700062 -0.14068973 2.0897303 97
0.3716692 -0.17501293 1.9985133 95
0.54993165 -0.25851819 1.9886441 82
0.7418192 -0.34857941 1.99051 91
0.95011163 -0.44626451 1.9901714 83
1.1798818 -0.55419314 1.9871606 80
1.4932258 -0.70137739 2.0511119 43
0.11276767 -0.054717243 2.0010643 66
0.19817194 -0.097418018 2.0132346 114
0.46141103 -0.21797819 2.0009167 91
0.64222509 -0.30314437 1.9854547 87
0.84452403 -0.39828631 1.9936218 92
1.0606546 -0.50022298 1.9883448 87
1.3027174 -0.61439002 1.9813027 84
1.6292369 -0.76838946 2.0310817 55
1.776642 -0.8322314 2.0077524 37
2.1284924 -0.99705297 1.9769365 71
2.595572 -1.2164015 1.9639498 69
3.23861 -1.5177623 1.9579635 27
4.1436357 -1.942782 1.9373344 55
5.6595311 -2.6547296 1.9262241 14
5.9949422 -2.8120618 1.3486441 73
6.0048685 -2.8179967 0.68728292 77
2.0004768 -0.94049442 2.0492809 19
2.3432326 -1.1021365 1.9690632 73
2.9002545 -1.3641353 1.9682654 70
3.6558628 -1.7203156 1.9552425 31
4.7987013 -2.2591176 1.9340769 49
5.9980555 -2.8250253 1.6897941 76
5.9893365 -2.8221962 1.0144843 81
5.9874063 -2.8225639 0.36069384 81
0.028136577 -0.013827441 1.9991974 55
0.29650769 -0.1417256 2.0897303 97
0.37105599 -0.17630924 1.9985133 95
0.54902589 -0.26043624 1.9886441 86
0.7405979 -0.35116675 1.99051 91
0.94854814 -0.44957829 1.9901714 83
1.1779401 -0.55830824 1.9871606 80
1.4936656 -0.70795852 2.0549488 39
0.11257598 -0.055110548 2.0010643 67
0.19783068 -0.098109178 2.0132346 114
0.46064737 -0.21958749 2.0009167 89
0.64116299 -0.30538428 1.9854547 89
0.84312862 -0.40123183 1.9936218 93
1.0589021 -0.50392234 1.9883448 87
1.300565 -0.61893362 1.9813027 87
1.6234835 -0.77261502 2.0274065 50
1.7737262 -0.83842796 2.0077524 37
2.1249988 -1.0044767 1.9769365 71
2.5913103 -1.2254543 1.9639498 69
3.2332923 -1.5290579 1.9579635 27
4.1368294 -1.9572343 1.9373344 55
5.6545658 -2.6765215 1.9276333 13
5.9939694 -2.8371744 1.3505093 72
6.0039973 -2.8432033 0.68817532 76
2.0005555 -0.94907224 2.0526056 21
2.3393714 -1.1103092 1.9690632 71
2.8954754 -1.3742507 1.9682654 70
3.6498353 -1.7330663 1.9552425 18
4.7907863 -2.2758543 1.9340769 49
6.0013275 -2.8522043 1.693311 75
5.9883933 -2.8473387 1.0158639 81
5.9865408 -2.847739 0.36109692 77
0.02804932 -0.013905648 1.9941976 58
0.29601118 -0.14275974 2.0897303 97
0.37043831 -0.17760341 1.9985133 95
0.54811347 -0.2623511 1.9886441 86
0.7393676 -0.35374975 1.99051 91
0.94697303 -0.45288658 1.9901714 81
1.1759841 -0.56241661 1.9871606 80
1.4911851 -0.71316803 2.0549488 39
0.11238293 -0.055503167 2.0010643 67
0.19748701 -0.098799139 2.0132346 114
0.459878 -0.22119412 2.0009167 89
0.64009315 -0.30762053 1.9854547 89
0.84172291 -0.40417248 1.9936218 92
1.0571367 -0.50761557 1.9883448 87
1.2983965 -0.62346971 1.9813027 84
1.6146647 -0.77534229 2.0200562 38
1.7707887 -0.84461433 2.0077524 37
2.1214797 -1.0118883 1.9769365 71
2.5870168 -1.2344922 1.9639498 69
3.2319338 -1.5422429 1.9602815 38
4.1299715 -1.9716625 1.9373344 55
5.6451883 -2.696243 1.9276333 24
5.9973278 -2.8644314 1.3533072 71
6.0075164 -2.8705854 0.68951398 77
2.0005991 -0.95766222 2.0559306 24
2.3354814 -1.1184683 1.9690632 71
2.8906605 -1.3843493 1.9682654 70
3.6437635 -1.7457962 1.9552425 13
4.7828131 -2.2925634 1.9340769 48
6.0001001 -2.8773391 1.6956557 77
5.9873476 -2.8725092 1.0172436 82
5.9855719 -2.872942 0.36149997 77
0.02800061 -0.014003474 1.9941976 56
0.29551107 -0.14379214 2.0897303 97
0.36981609 -0.17889538 1.9985133 95
0.54719436 -0.26426277 1.9886441 82
0.7381283 -0.35632849 1.99051 91
0.94538641 -0.45618939 1.9901714 83
1.1740137 -0.56651813 1.9871606 80
1.4886868 -0.71836895 2.0549488 39
0.1121885 -0.055895124 2.0010643 69
0.19714093 -0.099487893 2.0132346 114
0.45910314 -0.22279803 2.0009167 93
0.63901544 -0.30985299 1.9854547 91
0.840307 -0.40710816 1.9936218 92
1.0553583 -0.51130253 1.9883448 87
1.2962123 -0.62799811 1.9813027 84
1.6088976 -0.77949572 2.016381 38
1.7646163 -0.84924388 2.0042477 38
2.1144269 -1.0175992 1.9737986 71
2.5826917 -1.243515 1.9639498 69
3.2265306 -1.5535151 1.9602815 61
4.123064 -1.9860668 1.9373344 55
5.6357427 -2.7159321 1.9276333 29
5.9961429 -2.8896136 1.3551724 71
6.0064311 -2.8958635 0.69040638 77
2.0006065 -0.96626383 2.0592554 27
2.331563 -1.1266139 1.9690632 73
2.8858109 -1.3944312 1.9682654 70
3.6376474 -1.7585046 1.9552425 11
4.7747812 -2.3092444 1.9340769 47
6.0031457 -2.9046166 1.6991726 76
5.9861989 -2.8977067 1.0186231 81
5.988996 -2.9003508 0.36210459 80
0.027951557 -0.014101129 1.9941976 60
0.29570472 -0.14516535 2.0946693 97
0.36918938 -0.1801852 1.9985133 95
0.54626852 -0.26617125 1.9886441 84
0.73688 -0.35890287 1.99051 91
0.94378823 -0.4594866 1.9901714 85
1.172029 -0.57061279 1.9871606 82
1.4832877 -0.72215772 2.0511119 39
0.1117342 -0.056155924 1.9960728 67
0.19679245 -0.10017543 2.0132346 115
0.45832264 -0.22439925 2.0009167 93
0.63792992 -0.31208166 1.9854547 89
0.83888078 -0.41003889 1.9936218 90
1.0535672 -0.5149833 1.9883448 89
1.2940122 -0.63251895 1.9813027 84
1.6000754 -0.78212947 2.0090308 38
1.761641 -0.85539836 2.0042477 38
2.110862 -1.0249738 1.9737986 71
2.5783353 -1.2525228 1.9639498 69
3.2210882 -1.5647683 1.9602815 65
4.1161065 -2.0004468 1.9373344 57
5.6262283 -2.7355881 1.9276333 31
5.9948554 -2.9148223 1.3570377 72
6.0052428 -2.9211693 0.69129878 76
1.9972214 -0.97324133 2.0592554 29
2.3276162 -1.1347457 1.9690632 71
2.8809257 -1.4044961 1.9682654 70
3.6355662 -1.7731813 1.9573406 10
4.7666912 -2.3258975 1.9340769 48
5.9973383 -2.9276865 1.7003449 77
5.9849477 -2.9229312 1.0200028 81
5.987813 -2.9256251 0.36250764 80
0.027902165 -0.014198612 1.9941976 60
0.29519618 -0.14619668 2.0946693 97
0.36855817 -0.18147281 1.9985133 96
0.54533613 -0.26807645 1.9886441 84
0.7356227 -0.36147287 1.99051 91
0.94217855 -0.46277824 1.9901714 81
1.1700301 -0.57470047 1.9871606 76
1.4778804 -0.72591758 2.0472748 39
0.11153749 -0.056545608 1.9960728 69
0.19644159 -0.10086177 2.0132346 115
0.45753652 -0.22599773 2.0009167 93
0.63683671 -0.31430656 1.9854547 89
0.83744437 -0.41296464 1.9936218 88
1.0517631 -0.5186578 1.9883448 85
1.2890931 -0.63569891 1.9773132 84
1.5942948 -0.78621054 2.0053556 37
1.7554419 -0.85997355 2.0007432 35
2.1072714 -1.0323358 1.9737986 71
2.5739474 -1.2615153 1.9639498 69
3.2156065 -1.5760025 1.9602815 64
4.1090984 -2.0148025 1.9373344 56
5.6166444 -2.7552106 1.9276333 32
5.9934645 -2.9400573 1.3589029 73
5.9994802 -2.9443073 0.69174498 78
1.9971633 -0.98185474 2.0625803 31
2.3236411 -1.1428636 1.9690632 71
2.8721371 -1.4126412 1.9657331 72
3.6334267 -1.7878647 1.9594386 9
4.7585435 -2.3425224 1.9340769 47
6.0001636 -2.9550457 1.7038618 78
5.9791498 -2.9459937 1.0206926 82
5.9910078 -2.9531353 0.36311224 84
0.027852435 -0.014295923 1.9941976 60
0.29468405 -0.14722621 2.0946693 97
0.36792248 -0.18275821 1.9985133 96
0.54439706 -0.2699784 1.9886441 84
0.7343564 -0.36403847 1.99051 86
0.93841088 -0.46500057 1.9857829 81
1.1680169 -0.57878113 1.9871606 74
1.4753374 -0.73107183 2.0472748 49
0.11133943 -0.056934603 1.9960728 69
0.1960883 -0.10154685 2.0132346 116
0.45674482 -0.22759347 2.0009167 95
0.63573569 -0.31652763 1.9854547 89
0.83599776 -0.41588536 1.9936218 92
1.0499462 -0.52232599 1.9883448 89
1.2868663 -0.64019489 1.9773132 84
1.5915407 -0.79177088 2.0053556 36
1.7524294 -0.8660959 2.0007432 35
2.1036549 -1.0396852 1.9737986 71
2.5695283 -1.2704922 1.9639498 69
3.2100856 -1.5872175 1.9602815 66
4.1020408 -2.0291338 1.9373344 52
5.6112928 -2.7769272 1.9290425 32
5.9875679 -2.9631393 1.3598355 75
6.0025549 -2.9718606 0.69308364 82
1.9970691 -0.99047917 2.0659051 34
2.3196373 -1.1509677 1.9690632 73
2.8671887 -1.4226582 1.9657331 70
3.6352942 -1.8045728 1.9636347 7
4.7503371 -2.3591185 1.9340769 47
5.9854589 -2.9738092 1.7026895 80
5.9910035 -2.9778676 1.0241417 87
5.9896092 -2.9784784 0.36351529 77
0.027802363 -0.014393059 1.9941976 60
0.29416838 -0.14825395 2.0946693 97
0.36728227 -0.1840414 1.9985133 95
0.54345131 -0.27187705 1.9886441 84
0.73308122 -0.36659962 1.99051 81
0.93892485 -0.46934456 1.9901714 83
1.1659895 -0.58285469 1.9871606 82
1.469909 -0.73478383 2.0434382 39
0.11114002 -0.057322901 1.9960728 69
0.19573264 -0.10223071 2.0132346 116
0.45594761 -0.2291864 2.0009167 93
0.63462692 -0.31874484 1.9854547 89
0.83454096 -0.41880101 1.9936218 93
1.0481166 -0.5259878 1.9883448 89
1.2846239 -0.64468294 1.9773132 84
1.5887672 -0.79732156 2.0053556 36
1.7493955 -0.87220776 2.0007432 35
2.100013 -1.047022 1.9737986 71
2.5650778 -1.2794539 1.9639498 69
3.2045255 -1.598413 1.9602815 66
4.0949326 -2.0434403 1.9373344 46
5.6015654 -2.7964973 1.9290425 33
5.9991632 -2.9949925 1.3644986 65
5.9743237 -2.9838946 0.69129878 64
1.9969394 -0.99911535 2.0692301 35
2.3156056 -1.1590577 1.9690632 73
2.862205 -1.4326578 1.9657331 70
3.637089 -1.8213155 1.9678308 7
4.7420735 -2.3756859 1.9340769 47
5.9924235 -3.003396 1.7073787 63
5.9761453 -2.9965425 1.0234518 86
5.979176 -2.9993682 0.36351529 77
0.02775448 -0.014485177 1.9941976 62
0.29367512 -0.14922862 2.0946693 97
0.36666995 -0.18525833 1.9985133 95
0.54254675 -0.27367771 1.9886441 86
0.73186153 -0.36902863 1.99051 72
0.93736327 -0.47245556 1.9901714 83
1.1640502 -0.58671808 1.9871606 82
1.4646013 -0.73821115 2.0396011 35
0.11095938 -0.057671774 1.9960728 69
0.19541052 -0.10284512 2.0132346 116
0.45522535 -0.23061767 2.0009167 91
0.63362247 -0.32073697 1.9854547 89
0.83314759 -0.42156613 1.9936218 93
1.0463666 -0.52946055 1.9883448 89
1.2824789 -0.64893937 1.9773132 84
1.5862545 -0.80230886 2.0053556 37
1.7464935 -0.87800413 2.0007432 37
2.0965292 -1.0539801 1.9737986 71
2.5608208 -1.2879529 1.9639498 69
3.1992075 -1.6090307 1.9602815 64
4.0926347 -2.0583775 1.9392073 40
5.592752 -2.8140814 1.9290425 34
5.9848108 -3.0126612 1.363566 65
5.9421568 -2.9924898 0.68906772 51
1.9969492 -1.0074139 2.0725548 36
2.3081408 -1.1649089 1.96612 73
2.8576901 -1.4416426 1.9657331 70
3.6435046 -1.8388677 1.974125 7
4.738802 -2.3927002 1.9357196 46
5.969943 -3.0156324 1.7038618 56
5.9269233 -2.9951999 1.0172436 50
5.9028459 -2.9843256 0.36049235 45
0.027703747 -0.014581969 1.9941976 62
0.29315242 -0.15025283 2.0946693 97
0.36602104 -0.18653712 1.9985133 95
0.54158819 -0.27556989 1.9886441 86
0.73056889 -0.37158102 1.99051 54
0.93357289 -0.47463897 1.9857829 83
1.1619951 -0.59077781 1.9871606 80
1.4563 -0.74041313 2.0319271 35
0.11074726 -0.058078073 1.9960728 69
0.19503225 -0.10356064 2.0132346 114
0.45437706 -0.23228462 2.0009167 91
0.63244265 -0.32305717 1.9854547 89
0.83167094 -0.4244718 1.9936218 93
1.044512 -0.5331099 1.9883448 89
1.280206 -0.6534121 1.9773132 82
1.5802838 -0.80657625 2.0016804 37
1.743418 -0.88409519 2.0007432 37
2.0928373 -1.0612919 1.9737986 73
2.5563095 -1.2968839 1.9639498 69
3.1935713 -1.6201882 1.9602815 64
4.0850625 -2.073364 1.9392073 37
5.5824003 -2.8345611 1.9290425 35
5.9041786 -2.9979498 1.3486441 35
5.9005942 -2.9974253 0.68594426 37
1.9934205 -1.0143783 2.0725548 36
2.3040605 -1.1729587 1.96612 73
2.8523872 -1.452107 1.9657331 72
3.6448288 -1.856329 1.9783211 7
4.7300005 -2.4100528 1.9357196 40
5.8938928 -3.0043814 1.6862772 37
5.8850236 -3.0011544 1.0124148 39
5.8429155 -2.9809659 0.35827547 8
0.027652679 -0.014678584 1.9941976 62
0.29262617 -0.15127522 2.0946693 97
0.36536771 -0.18781361 1.9985133 96
0.54062289 -0.2774587 1.9886441 82
0.72926736 -0.37412891 1.99051 49
0.9319104 -0.47789484 1.9857829 83
1.1599258 -0.59483027 1.9871606 80
1.4480013 -0.74256623 2.0242534 38
0.11054385 -0.0584643 1.9960728 69
0.19466957 -0.1042408 2.0132346 114
0.45356342 -0.23386927 2.0009167 93
0.63131106 -0.32526284 1.9854547 91
0.83018416 -0.42737228 1.9936218 93
1.0426447 -0.53675264 1.9883448 89
1.2779173 -0.65787685 1.9773132 84
1.5774585 -0.81208754 2.0016804 38
1.7403214 -0.89017546 2.0007432 34
2.0891201 -1.0685909 1.9737986 71
2.5517671 -1.3057994 1.9639498 72
3.1878965 -1.6313261 1.9602815 65
4.0778003 -2.087611 1.9392073 34
5.568202 -2.8518431 1.9276333 35
5.8761892 -3.0095837 1.3449136 33
5.8590713 -3.0021074 0.6828208 35
1.9931899 -1.0230358 2.0758798 35
2.299952 -1.1809943 1.96612 73
2.847301 -1.4620547 1.9657331 70
3.6464009 -1.8731881 1.9825172 7
4.725759 -2.4287074 1.9373622 39
5.8660793 -3.0160465 1.6815878 36
5.8436861 -3.0058227 1.0075861 38
5.8369169 -3.0036294 0.35847703 7
0.027601272 -0.01477502 1.9941976 64
0.29209629 -0.15229574 2.0946693 97
0.36470988 -0.18908785 1.9985133 95
0.5396511 -0.27934411 1.9886441 82
0.72795695 -0.37667227 1.99051 51
0.93023664 -0.48114493 1.9857829 83
1.1578424 -0.59887558 1.9871606 80
1.4368579 -0.74319762 2.0127425 36
0.11033911 -0.058849815 1.9960728 73
0.19430453 -0.10491969 2.0132346 113
0.45274436 -0.23545107 2.0009167 93
0.63017184 -0.32746458 1.9854547 89
0.82868731 -0.43026757 1.9936218 90
1.0407648 -0.54038888 1.9883448 89
1.2756131 -0.66233361 1.9773132 84
1.5746143 -0.81758898 2.0016804 36
1.7372035 -0.89624494 2.0007432 34
2.0853772 -1.0758768 1.9737986 71
2.5471933 -1.3146987 1.9639498 72
3.1821826 -1.6424439 1.9602815 65
4.070488 -2.1018324 1.9392073 30
5.5582132 -2.8712623 1.9276333 32
5.8307338 -3.0120411 1.3374527 32
5.8175869 -3.006536 0.67969733 35
1.9896069 -1.0299871 2.0758798 33
2.2958157 -1.1890154 1.96612 71
2.8460083 -1.4739674 1.9682654 70
3.6478992 -1.8900806 1.9867133 7
4.7172527 -2.4451885 1.9373622 36
5.8209963 -3.0186038 1.6722094 35
5.8023872 -3.0102391 1.0027574 38
nan nan nan 0
0.027549529 -0.014871277 1.9941976 64
0.29156291 -0.15331443 2.0946693 97
0.36404762 -0.19035979 1.9985133 95
0.53867275 -0.28122616 1.9886441 86
0.72663772 -0.37921104 1.99051 54
0.92855144 -0.4843891 1.9857829 83
1.1557449 -0.60291356 1.9871606 80
1.4285702 -0.74524301 2.0050688 37
0.110133 -0.059234612 1.9960728 73
0.19393711 -0.10559729 2.0132346 113
0.4519197 -0.23703001 2.0009167 91
0.62902492 -0.32966226 1.9854547 89
0.82718039 -0.43315759 1.9936218 90
1.0388721 -0.54401851 1.9883448 87
1.2732933 -0.66678232 1.9773132 84
1.5717508 -0.82308042 2.0016804 36
1.7340645 -0.9023034 2.0007432 34
2.081609 -1.0831496 1.9737986 69
2.5462973 -1.3255128 1.9666914 69
3.1764297 -1.6535418 1.9602815 65
4.0631266 -2.1160283 1.9392073 30
5.5481567 -2.8906465 1.9276333 32
5.7896886 -3.0164874 1.3309243 32
5.7717276 -3.0084102 0.67612767 36
1.9859993 -1.0369258 2.0758798 30
2.291651 -1.197022 1.96612 71
2.8408456 -1.4838928 1.9682654 72
3.6493247 -1.907007 1.9909095 8
4.7086883 -2.4616399 1.9373622 32
5.7802739 -3.0231357 1.664003 35
5.7567415 -3.0121078 0.99723887 38
5.6697407 -2.9678471 0.35182652 25
0.02753548 -0.014988745 1.9991974 66
0.29102597 -0.15433124 2.0946693 97
0.36338091 -0.19162938 1.9985133 95
0.53768778 -0.28310478 1.9886441 86
0.72530961 -0.38174513 1.99051 58
0.92685491 -0.48762739 1.9857829 83
1.1536334 -0.6069442 1.9871606 80
1.4231229 -0.74873239 2.0012317 37
0.11017988 -0.059757169 2.0010643 77
0.19356731 -0.10627362 2.0132346 114
0.45108956 -0.23860608 2.0009167 89
0.62787038 -0.33185595 1.9854547 89
0.82566333 -0.43604234 1.9936218 92
1.0369669 -0.54764152 1.9883448 87
1.2709581 -0.67122281 1.9773132 82
1.568868 -0.82856184 2.0016804 36
1.7309042 -0.90835094 2.0007432 37
2.0778155 -1.0904092 1.9737986 69
2.5416551 -1.3343929 1.9666914 69
3.1706386 -1.6646196 1.9602815 65
4.0557156 -2.1301982 1.9392073 32
5.5380325 -2.9099956 1.9276333 35
5.7443361 -3.0183992 1.3234633 33
5.7259264 -3.0100009 0.67255801 37
1.9856718 -1.0455917 2.0792046 26
2.2874589 -1.2050141 1.96612 73
2.8356488 -1.4938002 1.9682654 70
3.6466608 -1.9218498 1.9930075 8
4.700067 -2.4780612 1.9373622 28
5.735292 -3.0251527 1.6546245 35
5.711153 -3.0136948 0.99172032 40
nan nan nan 0
0.02748299 -0.015084771 1.9991974 66
0.2904855 -0.15534617 2.0946693 96
0.36270979 -0.19289665 1.9985133 95
0.53669631 -0.28497994 1.9886441 82
0.72224712 -0.38335866 1.9859076 60
0.92514712 -0.49085978 1.9857829 83
1.1515076 -0.61096746 1.9871606 80
1.4176687 -0.75219285 1.9973947 37
0.10997061 -0.060141403 2.0010643 77
0.19319516 -0.10694865 2.0132346 115
0.45025393 -0.24017921 2.0009167 89
0.62670815 -0.33404562 1.9854547 87
0.8241362 -0.43892181 1.9936218 92
1.0350488 -0.55125791 1.9883448 89
1.2686073 -0.67565525 1.9773132 84
1.5659664 -0.83403313 2.0016804 37
1.7277229 -0.9143874 2.0007432 37
2.0739965 -1.0976554 1.9737986 71
2.5369818 -1.3432568 1.9666914 63
3.1648088 -1.6756771 1.9602815 65
4.048255 -2.1443424 1.9392073 34
5.5278416 -2.9293091 1.9276333 34
5.6990414 -3.0200315 1.3160024 34
5.6801844 -3.0113091 0.66898829 37
1.9820099 -1.0525167 2.0792046 22
2.2832386 -1.2129916 1.96612 73
2.8304172 -1.5036895 1.9682654 70
3.6479447 -1.9388272 1.9972036 8
4.6872191 -2.4922354 1.9357196 29
5.6903672 -3.0268931 1.645246 35
5.6568818 -3.0103476 0.98482215 43
5.6488829 -3.0073566 0.35182652 32
0.027430169 -0.015180612 1.9991974 66
0.28994146 -0.15635921 2.0946693 96
0.36203426 -0.19416156 1.9985133 96
0.53569829 -0.28685161 1.9886441 80
0.72090453 -0.38587743 1.9859076 60
0.92342806 -0.49408615 1.9857829 83
1.1493679 -0.6149832 1.9871606 82
1.4122076 -0.75562429 1.9935577 39
0.10976001 -0.060524907 2.0010643 82
0.19282067 -0.10762238 2.0132346 116
0.4483051 -0.24115351 1.9960775 93
0.62553835 -0.3362312 1.9854547 87
0.82259911 -0.44179589 1.9936218 93
1.0308206 -0.55363345 1.9840788 89
1.2662411 -0.6800794 1.9773132 84
1.5630454 -0.83949429 2.0016804 37
1.7213743 -0.91873348 1.9972385 36
2.0701525 -1.1048883 1.9737986 71
2.5322776 -1.3521044 1.9666914 63
3.1589403 -1.6867141 1.9602815 67
4.0366564 -2.1562762 1.9373344 37
5.5218134 -2.9508486 1.9290425 34
5.6494727 -3.0190694 1.3076087 35
5.6301122 -3.0099864 0.66497242 37
1.981616 -1.0611918 2.0825293 17
2.2789905 -1.2209541 1.96612 73
2.825151 -1.5135602 1.9682654 58
3.6451554 -1.9536933 1.9993017 7
4.6784906 -2.5085819 1.9357196 31
5.6455002 -3.0283563 1.6358675 36
5.6070671 -3.0090005 0.97861385 42
5.6031375 -3.0081513 0.35021427 32
0.027377009 -0.015276269 1.9991974 66
0.2893939 -0.15737034 2.0946693 96
0.36135429 -0.19542412 1.9985133 96
0.53469372 -0.28871977 1.9886441 80
0.71955311 -0.38839149 1.9859076 63
0.92169774 -0.4973065 1.9857829 83
1.1472142 -0.61899155 1.9871606 82
1.4067401 -0.759027 1.9897208 40
0.1098009 -0.061048802 2.0060561 82
0.19244383 -0.1082948 2.0132346 116
0.44746059 -0.24271692 1.9960775 93
0.62436086 -0.3384127 1.9854547 89
0.8210519 -0.44466463 1.9936218 93
1.0288818 -0.55722827 1.9840788 89
1.2638594 -0.68449527 1.9773132 84
1.5601056 -0.84494519 2.0016804 37
1.7181568 -0.92473662 1.9972385 35
2.066283 -1.1121078 1.9737986 71
2.5275424 -1.3609353 1.9666914 71
3.1491327 -1.6956302 1.9579635 59
4.0291047 -2.1703537 1.9373344 40
5.5114799 -2.9701052 1.9290425 37
5.6086297 -3.0224588 1.3010805 34
5.5976529 -3.0178041 0.66274136 38
1.9778997 -1.0681025 2.0825293 16
2.2747147 -1.2289019 1.96612 73
2.8198504 -1.5234126 1.9682654 40
3.6423063 -1.9685632 2.0013998 8
4.6697059 -2.5248976 1.9357196 34
5.6006927 -3.0295439 1.6264889 36
5.5486207 -3.0026288 0.97102588 37
5.5618491 -3.0110424 0.34880355 34
0.02732352 -0.015371738 1.9991974 66
0.2888428 -0.15837955 2.0946693 97
0.35977605 -0.19619673 1.9936181 95
0.53368264 -0.29058447 1.9886441 82
0.71990889 -0.39183483 1.99051 68
0.91995627 -0.50052077 1.9857829 83
1.1450466 -0.62299228 1.9871606 80
1.4040821 -0.76393276 1.9897208 40
0.10958713 -0.061431706 2.0060561 84
0.19206463 -0.1089659 2.0132346 116
0.44661063 -0.24427736 1.9960775 93
0.6231758 -0.34059006 1.9854547 89
0.81949478 -0.44752792 1.9936218 92
1.0269305 -0.56081635 1.9840788 89
1.2614623 -0.68890274 1.9773132 84
1.5571467 -0.85038584 2.0016804 35
1.7149184 -0.93072844 1.9972385 35
2.0623887 -1.1193137 1.9737986 71
2.5227764 -1.3697499 1.9666914 71
3.1431944 -1.7066125 1.9579635 59
4.0215044 -2.1844046 1.9373344 44
5.5010781 -2.9893255 1.9290425 37
5.5419354 -3.0115275 1.2889564 10
5.5127048 -2.9968901 0.65515578 8
1.9741592 -1.0750002 2.0825293 16
2.2704113 -1.2368345 1.96612 71
2.8145156 -1.5332465 1.9682654 37
3.6393974 -1.9834368 2.0034976 8
4.6608634 -2.5411823 1.9357196 38
5.560214 -3.0327833 1.6182827 36
5.4946346 -2.9982576 0.96412772 22
5.5074539 -3.0065002 0.34678823 33
0.027269695 -0.015467023 1.9991974 66
0.28828821 -0.15938684 2.0946693 96
0.35908902 -0.19745138 1.9936181 96
0.53266507 -0.29244557 1.9886441 82
0.71853673 -0.3943454 1.99051 77
0.91820347 -0.50372899 1.9857829 83
1.1428649 -0.62698549 1.9871606 80
1.4014068 -0.76882935 1.9897208 45
0.10937203 -0.061813865 2.0060561 84
0.1916831 -0.10963565 2.0132346 116
0.44575521 -0.24583481 1.9960775 95
0.62349451 -0.34359625 1.9901476 91
0.8179276 -0.45038575 1.9936218 92
1.0249666 -0.56439757 1.9840788 89
1.2590499 -0.69330192 1.9773132 84
1.5541687 -0.85581613 2.0016804 35
1.7147877 -0.93842101 2.0007432 37
2.0584686 -1.126506 1.9737986 69
2.5179796 -1.3785477 1.9666914 71
3.1372182 -1.7175739 1.9579635 70
4.013855 -2.1984289 1.9373344 41
5.4906096 -3.0085099 1.9290425 40
5.5313892 -3.0308545 1.2889564 10
5.5022101 -3.0161147 0.65515578 8
1.9703948 -1.0818846 2.0825293 15
2.2660801 -1.2447523 1.96612 71
2.8053679 -1.5409861 1.9657331 37
3.6404066 -2.0005002 2.007694 7
4.6478271 -2.5551615 1.9340769 42
5.515522 -3.0334346 1.6089042 36
5.4797959 -3.0150318 0.96343786 21
5.466289 -3.0088429 0.34537753 34
0.02721554 -0.015562117 1.9991974 67
0.28773007 -0.16039218 2.0946693 96
0.35839757 -0.19870365 1.9936181 95
0.53164101 -0.29430318 1.9886441 82
0.71715587 -0.39685115 1.99051 84
0.91643953 -0.50693107 1.9857829 83
1.1406695 -0.63097101 1.9871606 80
1.3987145 -0.77371645 1.9897208 50
0.1091556 -0.062195268 2.0060561 86
0.19129923 -0.11030408 2.0132346 115
0.4448944 -0.2473893 1.9960775 95
0.62229127 -0.34577057 1.9901476 91
0.81635046 -0.45323813 1.9936218 92
1.0229902 -0.56797194 1.9840788 87
1.2566223 -0.69769257 1.9773132 84
1.5511719 -0.86123598 2.0016804 36
1.7115015 -0.94440109 2.0007432 36
2.0545239 -1.1336845 1.9737986 69
2.5131524 -1.3873287 1.9666914 71
3.1312037 -1.7285144 1.9579635 70
4.0061564 -2.2124264 1.9373344 41
5.4590797 -3.016058 1.9219965 32
5.494978 -3.0358913 1.2833607 18
5.5003657 -3.0401206 0.65604824 8
1.9633391 -1.0869473 2.0792046 15
2.2617214 -1.2526548 1.96612 73
2.7999718 -1.5507693 1.9657331 47
3.6373715 -2.0153954 2.0097921 7
4.6388798 -2.5713699 1.9340769 46
5.4751439 -3.0361683 1.6006979 36
5.4822302 -3.0413487 0.96550739 9
5.4164381 -3.0060859 0.34356374 34
0.027123559 -0.015634708 1.9941976 67
0.28716847 -0.16139556 2.0946693 97
0.35859054 -0.20045036 1.9985133 95
0.53061044 -0.29615715 1.9886441 84
0.71576625 -0.39935207 1.99051 91
0.91466439 -0.51012689 1.9857829 83
1.1384599 -0.63494879 1.9871606 78
1.3960053 -0.77859414 1.9897208 54
0.10893783 -0.062575907 2.0060561 86
0.19091304 -0.11097118 2.0132346 114
0.44402814 -0.24894078 1.9960775 93
0.62108058 -0.34794062 1.9901476 91
0.81476343 -0.45608494 1.9936218 90
1.0210013 -0.5715394 1.9840788 87
1.2541792 -0.70207477 1.9773132 84
1.5481561 -0.8666454 2.0016804 37
1.7081945 -0.9503696 2.0007432 36
2.050554 -1.1408492 1.9737986 71
2.5082943 -1.3960928 1.9666914 69
3.1251509 -1.7394338 1.9579635 71
3.998409 -2.2263973 1.9373344 48
5.4317546 -3.0257568 1.9163597 29
nan nan nan 0
5.4984198 -3.0641503 0.65694064 8
1.9562724 -1.0919739 2.0758798 14
2.2573349 -1.260542 1.96612 73
2.7945416 -1.5605335 1.9657331 65
3.6342762 -2.030293 2.0118899 8
4.6257529 -2.585243 1.9324342 48
5.4348149 -3.0386572 1.5924917 37
5.4715805 -3.0604668 0.96550739 6
5.3797526 -3.0103371 0.34235457 34
0.027068816 -0.01572929 1.9941976 67
0.28660333 -0.16239698 2.0946693 97
0.35788864 -0.20170087 1.9985133 93
0.52957338 -0.29800752 1.9886441 84
0.71436787 -0.40184814 1.99051 91
0.91287816 -0.51331657 1.9857829 83
1.1362367 -0.63891888 1.9871606 76
1.393279 -0.78346241 1.9897208 64
0.1084684 -0.062810272 2.0010643 88
0.19052452 -0.11163691 2.0132346 114
0.44315645 -0.25048921 1.9960775 93
0.61835963 -0.34925774 1.9854547 89
0.81316638 -0.45892623 1.9936218 92
1.0190001 -0.57509995 1.9840788 89
1.2517209 -0.70644838 1.9773132 84
1.5480739 -0.87371039 2.0053556 37
1.7048666 -0.95632648 2.0007432 36
2.0465593 -1.148 1.9737986 71
2.5034058 -1.4048399 1.9666914 69
3.1190603 -1.7503319 1.9579635 71
3.9906132 -2.2403407 1.9373344 49
5.4044285 -3.0353019 1.910723 29
nan nan nan 0
5.5050578 -3.0930824 0.65872544 6
1.9491942 -1.0969644 2.0725548 14
2.2529211 -1.2684139 1.96612 73
2.789077 -1.5702788 1.9657331 70
3.6311216 -2.0451939 2.013988 8
4.6167002 -2.6013741 1.9324342 48
5.3945355 -3.0409019 1.5842855 37
5.4565506 -3.0771151 0.96481752 5
5.3256998 -3.0045497 0.34033924 34
0.027013749 -0.015823683 1.9941976 67
0.2860347 -0.16339645 2.0946693 97
0.35718238 -0.2029489 1.9985133 87
0.52852994 -0.29985428 1.9886441 86
0.71466023 -0.40530315 1.9951125 91
0.91316491 -0.51768154 1.9901714 83
1.1339995 -0.64288121 1.9871606 76
1.3905358 -0.78832108 1.9897208 71
0.10824849 -0.063188516 2.0010643 88
0.19013366 -0.11230128 2.0132346 113
0.4422794 -0.25203457 1.9960775 93
0.61713666 -0.35141411 1.9854547 89
0.81155944 -0.46176192 1.9936218 92
1.0169864 -0.5786534 1.9840788 89
1.2492472 -0.7108134 1.9773132 84
1.5450146 -0.87910891 2.0053556 37
1.7015181 -0.96227175 2.0007432 36
2.045928 -1.1570532 1.9769365 69
2.4984868 -1.4135698 1.9666914 69
3.1129315 -1.7612089 1.9579635 72
3.9827685 -2.2542567 1.9373344 49
5.3729286 -3.04233 1.9036771 35
5.9972062 -3.3958168 1.3999382 13
5.4942274 -3.1122801 0.65872544 4
1.9421054 -1.1019188 2.0692301 14
2.2484798 -1.2762704 1.96612 73
2.7835789 -1.5800048 1.9657331 70
3.6200137 -2.0556154 2.0118899 8
4.6034856 -2.6151407 1.9307915 48
5.3543067 -3.0429025 1.5760792 37
5.5060468 -3.1304095 0.97447491 4
5.2630677 -2.9934819 0.33792087 34
0.026958346 -0.01591788 1.9941976 69
0.28546262 -0.16439389 2.0946693 97
0.35735524 -0.20470062 2.0034087 77
0.52748001 -0.30169734 1.9886441 86
0.7132411 -0.40779531 1.9951125 91
0.91135228 -0.52086592 1.9901714 83
1.1317484 -0.64683568 1.9871606 80
1.3877754 -0.79317015 1.9897208 73
0.10802726 -0.063565984 2.0010643 88
0.18974051 -0.11296429 2.0132346 113
0.44139695 -0.2535769 1.9960775 93
0.6159063 -0.35356617 1.9854547 89
0.80994266 -0.46459195 1.9936218 92
1.0172226 -0.58349758 1.9883448 87
1.2441442 -0.71367007 1.9733237 84
1.5448774 -0.88618356 2.0090308 36
1.6981487 -0.96820533 2.0007432 37
2.0418768 -1.1641878 1.9769365 71
2.4935374 -1.4222825 1.9666914 69
3.102916 -1.7698691 1.9556454 74
3.9748757 -2.2681456 1.9373344 50
5.3331113 -3.0444181 1.8938125 39
5.9767833 -3.4118598 1.398073 12
5.4400845 -3.1067426 0.65426338 6
1.9382471 -1.1086915 2.0692301 15
2.2440109 -1.2841111 1.96612 73
2.7743046 -1.5875705 1.9632006 70
3.6088779 -2.0659842 2.0097921 9
4.5943294 -2.6311941 1.9307915 49
5.3141298 -3.0446596 1.567873 38
5.3962669 -3.0929701 0.95860916 11
5.2525868 -3.0118351 0.33792087 36
0.02690262 -0.016011886 1.9941976 69
0.28488702 -0.16538933 2.0946693 97
0.35663855 -0.20594679 2.0034087 71
0.52642375 -0.30353674 1.9886441 84
0.71181327 -0.41028249 1.9951125 93
0.90952849 -0.52404392 1.9901714 83
1.1294837 -0.65078229 1.9871606 82
1.3849983 -0.79800951 1.9897208 71
0.10780472 -0.063942686 2.0010643 88
0.18888757 -0.1133506 2.0082631 113
0.44050908 -0.25511611 1.9960775 95
0.616162 -0.35657835 1.9901476 91
0.80643088 -0.46632621 1.9891212 86
1.0151798 -0.58704478 1.9883448 87
1.2416455 -0.71800864 1.9733237 84
1.5417746 -0.89157081 2.0090308 36
1.6947588 -0.97412705 2.0007432 36
2.0378008 -1.1713082 1.9769365 69
2.4885571 -1.4309781 1.9666914 71
3.0967193 -1.7806896 1.9556454 72
3.9669342 -2.2820067 1.9373344 50
5.2975054 -3.0486586 1.8853575 37
5.9222622 -3.4081998 1.3887467 10
5.3774157 -3.0958958 0.64890885 10
1.9052502 -1.0986611 2.0393064 17
2.2395148 -1.2919364 1.96612 73
2.7687461 -1.5972449 1.9632006 70
3.5937822 -2.0740318 2.0055959 9
4.5851164 -2.6472154 1.9307915 47
5.2740068 -3.0461738 1.5596669 38
5.3468471 -3.0894895 0.9524008 13
nan nan nan 0
0.026846565 -0.016105697 1.9941976 69
0.28497854 -0.16677538 2.0996087 97
0.35679743 -0.20770277 2.0083039 64
0.525361 -0.30537248 1.9886441 84
0.71037674 -0.41276467 1.9951125 91
0.90769368 -0.5272156 1.9901714 83
1.1272051 -0.65472096 1.9871606 80
1.379432 -0.80122894 1.9858838 76
0.10758086 -0.064318605 2.0010643 88
0.18849073 -0.11400925 2.0082631 112
0.43961591 -0.25665221 1.9960775 93
0.61491358 -0.35872701 1.9901476 91
0.80479819 -0.46913835 1.9891212 83
1.0131243 -0.59058481 1.9883448 87
1.2391315 -0.72233844 1.9733237 84
1.5386531 -0.89694715 2.0090308 38
1.6944337 -0.98182482 2.0042477 35
2.0336995 -1.1784142 1.9769365 69
2.4835472 -1.4396559 1.9666914 69
3.0904844 -1.7914883 1.9556454 72
3.9589443 -2.2958398 1.9373344 50
5.2577834 -3.0502801 1.875493 37
5.7276225 -3.3228555 1.3486441 9
5.332119 -3.0946496 0.64533913 11
1.8852609 -1.0959209 2.022682 23
2.2349916 -1.2997459 1.96612 73
2.7631538 -1.6068999 1.9632006 72
3.5433686 -2.0614588 1.9825172 11
4.5758481 -2.663204 1.9307915 35
5.2339377 -3.0474448 1.5514605 39
5.3017969 -3.0881944 0.94688231 14
4.2861085 -2.4975767 0.2937856 5
0.026790181 -0.016199311 1.9941976 67
0.28439462 -0.16776912 2.0996087 97
0.35694835 -0.20946234 2.0131991 54
0.52429181 -0.30720446 1.9886441 84
0.70724583 -0.41425437 1.99051 91
0.90584791 -0.53038079 1.9901714 83
1.124913 -0.65865159 1.9871606 80
1.3766268 -0.80603915 1.9858838 74
0.10735568 -0.064693742 2.0010643 88
0.18809164 -0.11466652 2.0082631 112
0.43871731 -0.25818518 1.9960775 93
0.61365759 -0.36087126 1.9901476 91
0.80315572 -0.47194478 1.9891212 81
1.0110567 -0.5941177 1.9883448 87
1.2392011 -0.72818631 1.9773132 84
1.5355128 -0.90231264 2.0090308 37
1.6909962 -0.98773348 2.0042477 35
2.0295739 -1.185506 1.9769365 54
2.4785066 -1.4483163 1.9666914 71
3.0842123 -1.8022652 1.9556454 71
3.950906 -2.3096454 1.9373344 50
5.2181163 -3.0516622 1.8656287 37
5.3640394 -3.137001 1.2712367 9
5.2783003 -3.0880949 0.64087707 12
1.8556485 -1.087391 1.9960833 29
2.2304411 -1.3075396 1.96612 73
2.7575278 -1.6165354 1.9632006 72
3.4930868 -2.0485592 1.9594386 13
4.566524 -2.6791608 1.9307915 14
5.1981173 -3.0509338 1.5444267 39
5.2525501 -3.0841148 0.94067395 15
4.3721342 -2.5681908 0.29821929 5
0.026733473 -0.016292727 1.9941976 69
0.28380728 -0.16876082 2.0996087 96
0.35796764 -0.21174398 2.0229895 40
0.52321631 -0.30903271 1.9886441 84
0.70579553 -0.4167206 1.99051 93
0.90399092 -0.53353953 1.9901714 83
1.122607 -0.66257429 1.9871606 82
1.371044 -0.80921006 1.982047 74
0.10712921 -0.065068088 2.0010643 86
0.18769021 -0.11532237 2.0082631 112
0.4378134 -0.25971505 1.9960775 93
0.61239421 -0.36301112 1.9901476 91
0.80150342 -0.47474542 1.9891212 76
1.0089766 -0.59764332 1.9883448 87
1.2366515 -0.73250753 1.9773132 87
1.5294368 -0.90593922 2.0053556 37
1.6906111 -0.99543959 2.0077524 37
2.0287778 -1.1945584 1.9800742 39
2.4734359 -1.4569591 1.9666914 71
3.0779026 -1.8130201 1.9556454 68
3.9428198 -2.3234224 1.9373344 51
5.1785035 -3.052804 1.8557644 37
5.2514968 -3.0958345 1.2488538 11
5.2288814 -3.0837324 0.63686121 12
1.8421959 -1.088164 1.9861088 33
2.2258632 -1.3153173 1.96612 73
2.7518682 -1.6261511 1.9632006 72
3.4741936 -2.0538111 1.9531444 17
4.5571442 -2.6950846 1.9307915 14
5.1581526 -3.0517354 1.5362206 40
5.2076588 -3.0822523 0.93515545 15
4.4018335 -2.6063459 0.30003306 5
0.026676437 -0.016385945 1.9941976 69
0.28321648 -0.16975048 2.0996087 96
0.35897538 -0.21403529 2.0327799 38
0.52213436 -0.31085718 1.9886441 82
0.70433658 -0.41918176 1.99051 91
0.90212303 -0.53669184 1.9901714 83
1.1202873 -0.66648889 1.9871606 82
1.368211 -0.81399101 1.982047 76
0.10690143 -0.065441638 2.0010643 88
0.18728653 -0.11597684 2.0082631 112
0.43690416 -0.2612417 1.9960775 93
0.61112338 -0.36514655 1.9901476 91
0.7998414 -0.47754028 1.9891212 71
1.0068843 -0.60116166 1.9883448 87
1.2340872 -0.73681974 1.9773132 87
1.5262651 -0.91127235 2.0053556 37
1.6932596 -1.0049754 2.0147614 39
2.0245955 -1.201633 1.9800742 28
2.4683349 -1.4655843 1.9666914 69
3.0715549 -1.8237529 1.9556454 60
3.9346855 -2.3371711 1.9373344 50
5.138947 -3.0537074 1.8458999 37
5.1857605 -3.0815251 1.2367297 13
5.1838398 -3.0816081 0.63329148 13
1.8383862 -1.0945879 1.9861088 34
2.2212584 -1.3230791 1.96612 73
2.7461753 -1.6357471 1.9632006 72
3.455307 -2.0589561 1.9468503 30
4.5517654 -2.7133937 1.9324342 17
5.1182456 -3.0522947 1.5280142 42
5.1628456 -3.0801136 0.9296369 16
4.3240695 -2.580729 0.29680857 16
0.026619077 -0.016478963 1.9941976 69
0.28195721 -0.1703361 2.0946693 96
0.35997143 -0.21633618 2.0425706 37
0.52104604 -0.31267789 1.9886441 82
0.70286906 -0.42163777 1.99051 91
0.90024412 -0.5398376 1.9901714 83
1.117954 -0.67039543 1.9871606 82
1.3653613 -0.81876206 1.982047 76
0.10667235 -0.065814398 2.0010643 88
0.18688056 -0.11662989 2.0082631 112
0.43598962 -0.2627652 1.9960775 91
0.60836667 -0.36638722 1.9854547 87
0.79816955 -0.48032933 1.9891212 66
1.002545 -0.60332781 1.9840788 87
1.2315077 -0.74112302 1.9773132 87
1.5230749 -0.91659451 2.0053556 36
1.6928016 -1.0127107 2.018266 40
2.0203886 -1.2086928 1.9800742 17
2.4632041 -1.4741912 1.9666914 69
3.0651703 -1.8344635 1.9556454 56
3.9265032 -2.3508918 1.9373344 50
5.0994477 -3.0543714 1.8360356 38
5.145473 -3.081939 1.2302012 13
5.134604 -3.0766466 0.62927562 13
1.8377559 -1.1029199 1.9894335 33
2.2166264 -1.3308245 1.96612 71
2.7404485 -1.6453229 1.9632006 72
3.4519901 -2.0733421 1.9489484 37
4.5463142 -2.731698 1.9340769 36
5.0825653 -3.0551176 1.5209804 40
5.1181111 -3.0777004 0.9241184 16
4.3664064 -2.6267111 0.29922694 13
0.026564283 -0.016567145 1.9941976 71
0.28139079 -0.17127016 2.0946693 97
0.36186486 -0.21911107 2.057256 37
0.52000636 -0.31440398 1.9886441 86
0.70146698 -0.42396623 1.99051 91
0.898449 -0.54281992 1.9901714 83
1.1157247 -0.67409897 1.9871606 80
1.3626387 -0.82328522 1.982047 76
0.10646505 -0.06614919 2.0010643 88
0.18651323 -0.11721641 2.0082631 112
0.43516198 -0.26413357 1.9960775 91
0.60721266 -0.36829662 1.9854547 81
0.79657233 -0.48297358 1.9891212 64
1.0005388 -0.6066491 1.9840788 87
1.2290432 -0.74520284 1.9773132 84
1.5201879 -0.92137486 2.0053556 36
1.6924886 -1.0201597 2.0217705 42
2.0163693 -1.2153859 1.9800742 17
2.4583023 -1.4823517 1.9666914 56
3.0590701 -1.844618 1.9556454 45
3.9190984 -2.3632157 1.9373344 50
5.0651808 -3.0555091 1.8275805 37
5.1057844 -3.0812185 1.223673 13
5.0902667 -3.073066 0.62570596 13
1.8340883 -1.1090081 1.9894335 33
2.2122011 -1.3381679 1.96612 71
2.7352662 -1.6539241 1.9632006 72
3.4454596 -2.0841765 1.9489484 53
4.5377097 -2.7459671 1.9340769 48
5.0438356 -3.0534492 1.5127741 40
5.0787659 -3.0758071 0.91928971 16
4.3581328 -2.6404157 0.29922694 13
0.026503384 -0.016664397 1.9941976 71
0.28076115 -0.17230037 2.0946693 96
0.36279732 -0.22149718 2.0670464 37
0.51885051 -0.31630781 1.9886441 80
0.69990838 -0.42653438 1.99051 93
0.8964535 -0.54610926 1.9901714 83
1.1132466 -0.67818379 1.9871606 82
1.3623499 -0.82994193 1.9858838 76
0.10621028 -0.066557504 2.0010643 88
0.18606178 -0.11793171 2.0082631 112
0.43521723 -0.26645938 2.0009167 93
0.60432208 -0.36972481 1.980762 69
0.79471201 -0.48602858 1.9891212 62
0.99820215 -0.61048633 1.9840788 87
1.2261728 -0.74991643 1.9773132 84
1.513585 -0.92570102 2.0016804 37
1.688738 -1.0263561 2.0217705 40
2.015228 -1.2247902 1.983212 17
2.4564252 -1.493524 1.9694327 58
3.0485032 -1.853516 1.9533273 40
3.9099956 -2.3782463 1.9373344 50
5.0247226 -3.0574791 1.817716 38
5.0561519 -3.0778124 1.2152793 14
5.0529089 -3.0770473 0.62302864 14
1.8298167 -1.1160423 1.9894335 34
2.2070465 -1.3466522 1.96612 75
2.7249248 -1.6626453 1.9606682 72
3.4370651 -2.0979905 1.9489484 61
4.52665 -2.7641604 1.9340769 49
5.00665 -3.0584683 1.5057403 42
5.0204315 -3.0668871 0.91170168 15
4.3564878 -2.6623404 0.29962999 12
0.026447978 -0.016752193 1.9941976 73
0.28018826 -0.17323045 2.0946693 96
0.36379531 -0.2237661 2.0768371 40
0.51779872 -0.31802663 1.9886441 80
0.69849014 -0.42885303 1.99051 91
0.89463758 -0.549079 1.9901714 83
1.1109915 -0.68187171 1.9871606 82
1.3595902 -0.83445507 1.9858838 76
0.10600066 -0.066890843 2.0010643 88
0.18569037 -0.11851566 2.0082631 112
0.434378 -0.26782534 2.0009167 95
0.60315752 -0.37162155 1.980762 66
0.79318118 -0.48852283 1.9891212 62
0.9962793 -0.61361927 1.9840788 85
1.2238108 -0.75376487 1.9773132 84
1.5108316 -0.93018788 2.0016804 35
1.6883664 -1.0338128 2.025275 40
2.0111554 -1.2314662 1.983212 21
2.4514592 -1.5016615 1.9694327 50
3.0423398 -1.8636148 1.9533273 39
3.8985517 -2.3880966 1.9354613 50
4.990551 -3.0582104 1.809261 38
5.0171418 -3.0757103 1.2087511 13
5.0177455 -3.0772851 0.62035143 14
1.8294837 -1.12374 1.9927584 35
2.202805 -1.3535792 1.96612 73
2.7199798 -1.6707231 1.9606682 70
3.4308252 -2.1081791 1.9489484 62
4.5184288 -2.7775791 1.9340769 49
4.9685702 -3.0554864 1.4975339 44
5.002336 -3.0774548 0.91032207 15
4.1396213 -2.5477047 0.28975499 3
0.026425786 -0.016868399 1.9991974 75
0.27958187 -0.17420746 2.0946693 97
0.36387736 -0.22557119 2.0817323 50
0.51668549 -0.31983218 1.9886441 86
0.69698888 -0.4312886 1.99051 91
0.89271551 -0.55219847 1.9901714 83
1.1086046 -0.6857456 1.9871606 82
1.3566691 -0.83919579 1.9858838 78
0.10575478 -0.067278907 2.0010643 89
0.18525474 -0.11919545 2.0082631 112
0.43339345 -0.26941562 2.0009167 95
0.60179144 -0.37382972 1.980762 62
0.79147106 -0.4912886 1.9891212 62
0.99413127 -0.61709321 1.9840788 87
1.2211722 -0.75803226 1.9773132 87
1.5074121 -0.93571913 2.0016804 35
1.6847475 -1.0397 2.025275 46
2.0068445 -1.2384789 1.983212 24
2.4426444 -1.508013 1.9666914 40
3.035816 -1.8742234 1.9533273 39
3.8897729 -2.4023695 1.9354613 49
4.9548206 -3.0613513 1.8008057 38
4.9771223 -3.0751307 1.2022227 13
nan nan nan 0
1.8255498 -1.1301192 1.9927584 36
2.1980669 -1.3612602 1.96612 73
2.7138379 -1.6806812 1.9606682 69
3.4230754 -2.1207397 1.9489484 62
4.5082183 -2.7941213 1.9340769 48
4.9325523 -3.0583088 1.4905001 44
4.9615641 -3.0774961 0.90549332 15
4.1005402 -2.5444217 0.28834426 3
0.026366744 -0.016960539 1.9991974 75
0.27897206 -0.1751823 2.0946693 97
0.36308777 -0.22683997 2.0817323 60
0.51556587 -0.32163379 1.9886441 84
0.69547915 -0.43371895 1.99051 95
0.89078254 -0.55531132 1.9901714 83
1.106204 -0.68961126 1.9871606 82
1.3537315 -0.84392643 1.9858838 78
0.10551928 -0.067647651 2.0010643 89
0.18483754 -0.11984138 2.0082631 112
0.43245035 -0.27092677 2.0009167 95
0.60048282 -0.37592813 1.980762 62
0.78975129 -0.49404836 1.9891212 62
0.99197114 -0.62055963 1.9840788 87
1.2185187 -0.7622903 1.9773132 87
1.5041367 -0.94097525 2.0016804 35
1.6780797 -1.0436909 2.0217705 40
2.0058148 -1.2475324 1.9863497 17
2.4373655 -1.5165303 1.9666914 39
3.0292556 -1.8848089 1.9533273 55
3.8813632 -2.4159327 1.9354613 40
4.9155989 -3.060878 1.7909414 38
4.9371691 -3.0743096 1.1956943 14
nan nan nan 0
1.821594 -1.1364846 1.9927584 37
2.1933017 -1.3689246 1.96612 73
2.7079546 -1.6901439 1.9606682 69
3.4156518 -2.1326756 1.9489484 62
4.4984374 -2.8098409 1.9340769 47
4.8971143 -3.0600536 1.4834661 44
nan nan nan 0
3.8078301 -2.381242 0.2748417 11
0.02630738 -0.017052474 1.9991974 73
0.27835888 -0.17615505 2.0946693 97
0.36315534 -0.22864857 2.0866275 64
0.51444006 -0.32343149 1.9886441 86
0.69396096 -0.43614399 1.99051 93
0.88883871 -0.55841732 1.9901714 85
1.1037902 -0.69346833 1.9871606 82
1.3507774 -0.84864652 1.9858838 76
0.10528251 -0.068015561 2.0010643 89
0.1844181 -0.12048586 2.0082631 112
0.43150204 -0.27243468 2.0009167 95
0.59916693 -0.3780219 1.980762 66
