# .PCD v0.7 - Point Cloud Data file format
VERSION 0.7
FIELDS x y z intensity
SIZE 4 4 4 4
TYPE F F F F
COUNT 1 1 1 1
WIDTH 1320
HEIGHT 1
VIEWPOINT 0 0 0 1 0 0 0
POINTS 1320
DATA ascii
-0.48503724 -0.99712855 0.13840526 25
-0.014149891 -0.027926905 1.9941976 75
-0.13880563 -0.2815147 1.9958843 95
-0.1817258 -0.3707028 2.0083039 93
-0.26778081 -0.54714459 1.9934158 88
-0.36190554 -0.73976231 1.999715 95
-0.45902812 -0.93868047 1.9813942 66
-0.46634126 -0.95362902 1.631727 38
-0.47123435 -0.96362889 1.3604618 38
-0.05635085 -0.11163602 1.9960728 88
-0.10003147 -0.19566713 2.0032918 93
-0.22575396 -0.45905894 2.0057559 53
-0.31471676 -0.64048183 1.9948403 95
-0.41150236 -0.83816385 1.9936218 93
-0.46624696 -0.94965923 1.8006437 38
-0.46740851 -0.95201921 1.4786259 39
-0.47264999 -0.96268892 1.2409213 40
-0.47232616 -0.96842986 1.1386248 38
-0.47233173 -0.96843535 0.95088327 38
-0.4758755 -0.97526914 0.7960853 38
-0.4746649 -0.97278231 0.6529144 36
-0.47827962 -0.97975641 0.5288136 34
-0.4780398 -0.97883171 0.40992978 21
-0.46562606 -0.95341355 0.29291809 7
-0.48087692 -0.98420531 0.19109753 14
-0.47436029 -0.96915776 1.0418518 39
-0.47398284 -0.96795875 0.86832118 39
-0.47668582 -0.97347283 0.72231174 38
-0.47769281 -0.97509831 0.58941036 36
-0.47826195 -0.97582883 0.46715942 32
-0.48368084 -0.98644978 0.3556968 14
-0.46885458 -0.95579016 0.24051094 17
-0.48411283 -0.98645943 0.1380022 27
-0.014247289 -0.027877342 1.9941976 75
-0.13978747 -0.28102848 1.9958843 95
-0.18301868 -0.3700662 2.0083039 95
-0.26968908 -0.54620659 1.9934158 88
-0.36448556 -0.73849446 1.999715 93
-0.46124199 -0.93492401 1.9770056 42
-0.46593201 -0.94442445 1.619328 37
-0.47033989 -0.95335299 1.348951 38
-0.056740187 -0.11143863 1.9960728 88
-0.10071386 -0.19531676 2.0032918 93
-0.227355 -0.45826814 2.0057559 40
-0.31695056 -0.63937938 1.9948403 95
-0.41442561 -0.83672231 1.9936218 93
-0.46724391 -0.94335186 1.7921119 38
-0.46805325 -0.94498008 1.4706469 39
-0.47299808 -0.95495743 1.2335709 40
-0.47255471 -0.96037555 1.1316158 38
-0.47227189 -0.959795 0.94460768 38
-0.47558343 -0.9660992 0.79060239 38
-0.47414431 -0.96317005 0.64827836 36
-0.47964847 -0.97392201 0.52694058 34
-0.47721305 -0.96855038 0.40711141 20
-0.46678022 -0.94737607 0.29198545 7
-0.47990584 -0.9735871 0.19020511 15
-0.4744336 -0.96079934 1.0352021 39
-0.47377828 -0.9590506 0.86243486 38
-0.47626197 -0.96407241 0.71724689 38
-0.47908276 -0.96935618 0.58731234 36
-0.47957218 -0.96992016 0.46551675 31
-0.48065591 -0.97168523 0.35217986 13
-0.46999156 -0.94970936 0.23982114 17
-0.4831199 -0.9758091 0.13759914 25
-0.014344512 -0.027827442 1.9941976 75
-0.14076757 -0.28053883 1.9958843 95
-0.18430935 -0.36942506 2.0083039 95
-0.27159405 -0.54526186 1.9934158 88
-0.3670612 -0.73721766 1.999715 93
-0.46236768 -0.92901868 1.9682282 38
-0.46671814 -0.93775386 1.6110622 37
-0.47080788 -0.94596511 1.3412771 38
-0.057128835 -0.1112399 1.9960728 88
-0.10139503 -0.19496404 2.0032918 91
-0.22895327 -0.4574717 2.0057559 39
-0.31918046 -0.63826913 1.9948403 93
-0.41734377 -0.83527064 1.9936218 95
-0.46703669 -0.93471611 1.7793139 38
-0.46865466 -0.93794835 1.4626678 39
-0.47329798 -0.94723529 1.2262206 40
-0.47273278 -0.95233142 1.1246065 38
-0.47215751 -0.95116675 0.93833214 38
-0.47709295 -0.96068811 0.78786093 38
-0.47356251 -0.95357347 0.64364231 36
-0.47891968 -0.9639383 0.52319455 34
-0.47845572 -0.96258289 0.4057022 19
-0.46789783 -0.94134212 0.29105285 7
-0.48108396 -0.96744674 0.1897589 16
-0.4761194 -0.95579487 1.0318773 39
-0.4735173 -0.95015562 0.85654855 38
-0.47770134 -0.95854539 0.71471447 38
-0.47841337 -0.95955467 0.58311623 36
-0.47873908 -0.95978844 0.4622314 31
-0.47970417 -0.96130306 0.34983522 13
-0.46887985 -0.93920153 0.2384415 19
-0.48205855 -0.96517777 0.13719608 25
-0.014441561 -0.027777199 1.9941976 75
-0.14174598 -0.28004575 1.9958843 96
-0.18559775 -0.36877948 2.0083039 95
-0.27349573 -0.54431051 1.9934158 88
-0.36963233 -0.73593187 1.999715 95
-0.46345782 -0.92311698 1.959451 37
-0.46746337 -0.93108922 1.6027962 38
-0.47123009 -0.93858582 1.3336033 38
-0.057516787 -0.1110398 1.9960728 88
-0.10207497 -0.1946089 2.0032918 93
-0.23054875 -0.45666972 2.0057559 39
-0.32140648 -0.63715112 1.9948403 93
-0.42025688 -0.83380878 1.9936218 93
-0.46794891 -0.92842233 1.7707821 38
-0.46921271 -0.93092394 1.4546889 39
-0.47354972 -0.93952268 1.2188703 39
-0.47286054 -0.94429797 1.1175975 38
-0.47373176 -0.94603199 0.93519431 39
-0.47669765 -0.95153993 0.78237802 38
-0.47291949 -0.94399273 0.63900626 36
-0.47812709 -0.95397168 0.51944846 34
-0.47966257 -0.95661849 0.404293 18
-0.46897909 -0.93531197 0.29012021 7
-0.47999212 -0.95685887 0.1888665 17
-0.47609937 -0.94745356 1.0252275 39
-0.47320005 -0.9412744 0.85066223 38
-0.47717142 -0.94916826 0.70964956 38
-0.47972068 -0.95382428 0.58101815 36
-0.47996387 -0.95389295 0.46058869 31
-0.47650033 -0.94659799 0.34631824 13
-0.46992797 -0.93313611 0.23775169 19
-0.48317683 -0.95902753 0.13699456 25
-0.014538433 -0.027726619 1.9941976 73
-0.14272265 -0.27954924 1.9958843 96
-0.1868839 -0.36812937 2.0083039 95
-0.27539402 -0.54335254 1.9934158 88
-0.37219894 -0.73463714 1.999715 95
-0.46451241 -0.91721904 1.9506736 37
-0.46816784 -0.92443103 1.5945303 38
-0.47160658 -0.93121523 1.3259294 38
-0.057904035 -0.11083835 1.9960728 89
-0.10275365 -0.1942514 2.0032918 91
-0.23214142 -0.45586216 2.0057559 58
-0.3236286 -0.63602531 1.9948403 93
-0.42316487 -0.83233666 1.9936218 95
-0.46764091 -0.9198088 1.7579843 38
-0.46972746 -0.9239071 1.4467099 39
-0.47528997 -0.93484199 1.2151952 39
-0.47293791 -0.93627518 1.1105883 38
-0.4735207 -0.93742317 0.92891872 39
-0.47813022 -0.9461382 0.7796365 38
-0.47421357 -0.93838215 0.63668823 36
-0.47727081 -0.94402254 0.51570243 33
-0.48083359 -0.95065743 0.40288383 18
-0.46780685 -0.92490232 0.28825498 7
-0.48108074 -0.95073402 0.18842027 18
-0.47602689 -0.93912411 1.0185778 39
-0.47282657 -0.93240684 0.84477592 38
-0.47658193 -0.93980664 0.70458472 38
-0.47894043 -0.944049 0.57682204 36
-0.48115334 -0.94800067 0.45894602 31
-0.47540042 -0.93626106 0.34397361 14
-0.46869665 -0.9226597 0.23637205 24
-0.48199463 -0.9484275 0.13659149 25
-0.014656061 -0.027713984 1.9991974 73
-0.14405349 -0.27974004 2.0008237 97
-0.18816778 -0.36747476 2.0083039 95
-0.27796894 -0.54371774 1.9981875 88
-0.37476104 -0.73333347 1.999715 96
-0.46444166 -0.90919149 1.9375075 37
-0.46755138 -0.91527331 1.5821315 38
-0.4719373 -0.92385328 1.3182554 38
-0.058290582 -0.11063556 1.9960728 88
-0.10317919 -0.19342078 1.9983203 93
-0.23373125 -0.45504907 2.0057559 82
-0.32584676 -0.63489175 1.9948403 93
-0.42606765 -0.83085454 1.9936218 93
-0.46846855 -0.91352952 1.7494525 38
-0.47019902 -0.91689819 1.4387308 39
-0.47545624 -0.92714405 1.2078449 39
-0.47458428 -0.93144119 1.1070838 38
-0.4750227 -0.93229598 0.92578095 39
-0.47763205 -0.93701285 0.77415359 38
-0.47346234 -0.92882711 0.63205218 36
-0.47845706 -0.93822086 0.51382935 33
-0.48196897 -0.9447 0.40147462 19
-0.4688001 -0.91888803 0.28732237 7
-0.48213246 -0.94461316 0.18797407 19
-0.47760218 -0.93413174 1.0152531 39
-0.47239709 -0.92355365 0.8388896 38
-0.47593305 -0.93046087 0.69951987 37
-0.48016536 -0.93833119 0.57472402 35
-0.48015544 -0.93790811 0.45566064 31
-0.47423416 -0.92594343 0.34162897 13
-0.46965629 -0.91661084 0.23568225 23
-0.48302332 -0.94229341 0.13638996 23
-0.014752712 -0.027662657 1.9991974 73
-0.14502908 -0.27923548 2.0008237 96
-0.18944937 -0.36681572 2.0083039 95
-0.27986518 -0.54274416 1.9981875 88
-0.37731859 -0.73202085 1.999715 96
-0.46541777 -0.90330529 1.9287302 37
-0.46816558 -0.90863264 1.5738657 38
-0.47222251 -0.91650063 1.3105814 38
-0.058676418 -0.11043141 1.9960728 88
-0.10385373 -0.19305941 1.9983203 93
-0.2347396 -0.45311362 2.0009167 93
-0.32806098 -0.63375044 1.9948403 93
-0.4289653 -0.82936215 1.9936218 92
-0.46805996 -0.90493923 1.7366546 38
-0.47062731 -0.90989721 1.4307519 40
-0.47557464 -0.91945636 1.2004945 40
-0.47457248 -0.92343509 1.1000748 38
-0.47471532 -0.92370743 0.91950542 39
-0.4789879 -0.93162107 0.77141213 38
-0.47467592 -0.9232288 0.62973416 36
-0.4774881 -0.92829996 0.51008332 33
-0.4830685 -0.93874609 0.40006539 20
-0.46975708 -0.91287822 0.28638974 7
-0.48314744 -0.93849677 0.18752787 18
-0.47743678 -0.92582095 1.0086033 39
-0.47376475 -0.91830689 0.83594644 38
-0.47720131 -0.9249624 0.69698745 37
-0.47927469 -0.92858344 0.57052791 35
-0.48125976 -0.93203026 0.45401797 31
-0.47300181 -0.9156456 0.33928433 14
-0.46830574 -0.90616703 0.23430261 25
-0.48172066 -0.9317258 0.13598689 27
-0.014849183 -0.027610991 1.9991974 75
-0.1460029 -0.27872753 2.0008237 95
-0.19072862 -0.3661522 2.0083039 95
-0.28175801 -0.5417639 1.9981875 89
-0.37987152 -0.73069924 1.999715 95
-0.46525386 -0.89529783 1.9155644 37
-0.46744159 -0.89950192 1.5614668 38
-0.47246218 -0.90915728 1.3029076 38
-0.059061535 -0.11022592 1.9960728 88
-0.104527 -0.19269574 1.9983203 91
-0.23631984 -0.45229149 2.0009167 96
-0.33027118 -0.63260144 1.9948403 93
-0.43185771 -0.82785976 1.9936218 90
-0.46880338 -0.89867526 1.7281227 38
-0.47101253 -0.90290445 1.4227729 39
-0.47407717 -0.90877348 1.1894691 40
-0.47451055 -0.91544056 1.0930656 38
-0.47435382 -0.91513252 0.91322988 39
-0.47838706 -0.92251939 0.76592922 38
-0.47381681 -0.91370064 0.62509811 37
-0.4785907 -0.92251247 0.5082103 33
-0.48413244 -0.93279612 0.39865619 19
-0.47067785 -0.90687287 0.28545713 8
-0.48412555 -0.93238479 0.18708165 19
-0.47721925 -0.91752267 1.0019536 39
-0.47323579 -0.90947628 0.83006012 38
-0.47644708 -0.91564214 0.69192261 37
-0.48041746 -0.92287904 0.56842989 35
-0.48014754 -0.92196763 0.45073256 30
-0.47170332 -0.90536767 0.33693972 13
-0.46917704 -0.90013534 0.23361278 24
-0.48266008 -0.92560881 0.13578537 28
-0.01492414 -0.027520929 1.9941976 73
-0.14697497 -0.27821618 2.0008237 93
-0.19200559 -0.36548418 2.0083039 95
-0.28364739 -0.54077709 1.9981875 88
-0.38241979 -0.72936881 1.999715 95
-0.46503967 -0.88730228 1.9023983 37
-0.4679659 -0.8928799 1.553201 38
-0.47414458 -0.90466297 1.2990707 38
-0.05944594 -0.11001907 1.9960728 88
-0.105199 -0.1923297 1.9983203 91
-0.23789719 -0.45146382 2.0009167 95
-0.33247736 -0.63144475 1.9948403 91
-0.43474483 -0.82634723 1.9936218 90
-0.46829447 -0.89010912 1.715325 38
-0.47135472 -0.89592016 1.414794 39
-0.4740895 -0.90111262 1.1821188 39
-0.4743987 -0.90745771 1.0860566 38
-0.4739382 -0.90657133 0.90695435 38
-0.4796665 -0.91713864 0.76318777 38
-0.47495013 -0.90811533 0.62278008 37
-0.47965872 -0.91672862 0.50633723 33
-0.4851608 -0.92685032 0.39724702 19
-0.47156247 -0.90087223 0.2845245 8
-0.48506695 -0.92627752 0.18663543 20
-0.47868437 -0.91254431 0.9986288 39
-0.47452933 -0.90423977 0.82711697 38
-0.47763702 -0.91015601 0.68939018 37
-0.47941658 -0.91315967 0.56423378 35
-0.48116693 -0.91610515 0.44908988 29
-0.47259986 -0.89941275 0.33576739 13
-0.46770766 -0.88972527 0.23223317 27
-0.48123732 -0.91507494 0.13538231 31
-0.015020114 -0.027468666 1.9941976 73
-0.14794523 -0.27770147 2.0008237 97
-0.19328018 -0.36481175 2.0083039 95
-0.28553334 -0.53978366 1.9981875 88
-0.38496345 -0.72802949 1.999715 95
-0.46589497 -0.88143748 1.893621 38
-0.46844971 -0.88626528 1.544935 38
-0.47430325 -0.8973338 1.2913967 38
-0.059829615 -0.1098109 1.9960728 88
-0.10586971 -0.19196132 1.9983203 91
-0.23947163 -0.45063064 2.0009167 91
-0.33467948 -0.63028038 1.9948403 93
-0.43762669 -0.82482469 1.9936218 92
-0.46773154 -0.88155764 1.7025272 38
-0.47165394 -0.88894463 1.4068149 39
-0.4740541 -0.89346272 1.1747683 39
-0.47423694 -0.89948702 1.0790476 38
-0.47528428 -0.90146798 0.90381652 38
-0.47896335 -0.90806174 0.75770473 38
-0.47398344 -0.898615 0.61814404 37
-0.48069224 -0.91094869 0.50446421 33
-0.48391387 -0.91666621 0.39442861 19
-0.47241098 -0.89487666 0.2835919 8
-0.48364586 -0.91577137 0.18574302 20
-0.47837436 -0.90426618 0.99197906 39
-0.47390133 -0.89543277 0.82123065 38
-0.47677773 -0.90086222 0.68432534 37
-0.48047748 -0.90746963 0.5621357 35
-0.47994083 -0.90607375 0.44580451 29
-0.47118467 -0.88916785 0.33342275 14
-0.46849099 -0.88371187 0.23154333 28
-0.48208782 -0.9089759 0.13518077 31
-0.015115907 -0.027416069 1.9941976 75
-0.14891368 -0.27718332 2.0008237 96
-0.19455244 -0.36413485 2.0083039 95
-0.28671277 -0.53746593 1.9934158 88
-0.38750237 -0.72668129 1.999715 95
-0.46558806 -0.87346339 1.8804549 37
-0.46889314 -0.87965828 1.5366691 38
-0.47441652 -0.89001459 1.2837229 38
-0.06021256 -0.10960139 1.9960728 88
-0.10653914 -0.19159059 1.9983203 91
-0.240449 -0.44868335 1.9960775 91
-0.33687752 -0.62910825 1.9948403 93
-0.44050321 -0.82329208 1.9936218 93
-0.46834508 -0.87532049 1.6939954 38
-0.47048828 -0.8793205 1.3948464 39
-0.47397116 -0.8858242 1.167418 40
-0.47402534 -0.89152855 1.0720384 38
-0.47477293 -0.89292908 0.89754099 38
-0.47820273 -0.89900106 0.75222182 37
-0.47503671 -0.89304364 0.61582601 36
-0.47951335 -0.90108013 0.50071812 33
-0.48485628 -0.91073686 0.39301944 17
-0.47322336 -0.88888615 0.28265926 9
-0.48449853 -0.9096821 0.1852968 22
-0.47801229 -0.89600116 0.98532933 39
-0.47512084 -0.89020729 0.81828749 38
-0.47788945 -0.89538902 0.68179291 37
-0.47936687 -0.89777988 0.55793959 35
-0.48087567 -0.90022749 0.44416183 29
-0.47199467 -0.88323081 0.33225045 14
-0.46690321 -0.87333667 0.23016369 29
-0.48290154 -0.90288222 0.13497925 33
-0.015211514 -0.027363136 1.9941976 75
-0.14988032 -0.27666184 2.0008237 96
-0.19582233 -0.36345351 2.0083039 95
-0.28858709 -0.53646183 1.9934158 84
-0.39003661 -0.72532421 1.999715 93
-0.46636552 -0.86761248 1.8716776 37
-0.46929613 -0.87305886 1.5284033 38
-0.4744845 -0.88270545 1.276049 38
-0.060594775 -0.10939054 1.9960728 88
-0.10720727 -0.19121753 1.9983203 91
-0.24201372 -0.44784132 1.9960775 93
-0.33907145 -0.6279285 1.9948403 91
-0.44337434 -0.82174933 1.9936218 93
-0.46768233 -0.86679465 1.6811975 38
-0.47069243 -0.87236792 1.3868674 39
-0.47545055 -0.88118076 1.1637428 40
-0.47376397 -0.88358253 1.0650294 38
-0.47604734 -0.88783556 0.89440322 38
-0.4793613 -0.89364153 0.74948037 37
-0.47605696 -0.88747609 0.61350799 36
-0.48046365 -0.89531589 0.49884507 33
-0.48349401 -0.90058553 0.39020103 19
-0.47167614 -0.87857294 0.28079402 11
-0.48295814 -0.89921069 0.18440439 22
-0.47759846 -0.88774991 0.9786796 39
-0.47439411 -0.8814249 0.81240118 38
-0.47896877 -0.88991916 0.67926049 37
-0.48034605 -0.89210498 0.55584157 35
-0.48177549 -0.89438576 0.44251916 29
-0.47276896 -0.87729907 0.33107814 13
-0.4675988 -0.86734247 0.22947389 28
-0.48367867 -0.8967939 0.13477771 31
-0.015306937 -0.027309872 1.9941976 75
-0.15047249 -0.27545521 1.9958843 97
-0.19708981 -0.36276773 2.0083039 95
-0.29045799 -0.53545123 1.9934158 84
-0.39256611 -0.72395831 1.999715 93
-0.46596614 -0.85966063 1.8585117 37
-0.46965876 -0.86646748 1.5201373 38
-0.47603509 -0.87822539 1.272212 39
-0.060976252 -0.10917836 1.9960728 88
-0.10787409 -0.19084215 1.9983203 91
-0.24357551 -0.44699383 1.9960775 95
-0.34126127 -0.62674105 1.9948403 91
-0.44624007 -0.82019669 1.9936218 93
-0.46821228 -0.86057502 1.6726656 38
-0.47085381 -0.86542463 1.3788885 40
-0.47528306 -0.87355995 1.1563925 40
-0.47345302 -0.87564933 1.0580202 38
-0.47544053 -0.87931973 0.88812768 38
-0.47849897 -0.8846072 0.74399745 37
-0.47704414 -0.88191229 0.61118996 35
-0.47917318 -0.88547885 0.49509901 33
-0.47978294 -0.88623607 0.38597345 21
-0.47240141 -0.87260127 0.27986142 12
-0.48372239 -0.89314044 0.18395817 22
-0.47713298 -0.87951243 0.97202992 39
-0.4755398 -0.87621093 0.80945796 38
-0.47795931 -0.88066351 0.67419565 37
-0.48129159 -0.88643432 0.55374354 35
-0.48038641 -0.88439906 0.43923378 29
-0.47118688 -0.86710185 0.3287335 13
-0.46825832 -0.86135411 0.22878408 29
-0.4844192 -0.89071119 0.13457619 31
-0.015402174 -0.027256273 1.9941976 75
-0.1514331 -0.2749283 1.9958843 97
-0.1983549 -0.36207756 2.0083039 95
-0.29232529 -0.53443402 1.9934158 86
-0.39509079 -0.72258365 1.999715 93
-0.46666604 -0.85382438 1.8497344 37
-0.46998116 -0.85988426 1.5118713 38
-0.4760226 -0.87093216 1.2645382 38
-0.06135698 -0.10896485 1.9960728 88
-0.1085396 -0.19046442 1.9983203 93
-0.24513432 -0.44614083 1.9960775 93
-0.34344694 -0.62554604 1.9948403 93
-0.44910038 -0.81863403 1.9936218 95
-0.46870452 -0.85436237 1.6641337 38
-0.47242218 -0.8611334 1.3748989 39
-0.47669885 -0.86892337 1.1527174 40
-0.47309241 -0.86772907 1.0510112 39
-0.47664353 -0.87423694 0.88498992 38
-0.47757939 -0.87558967 0.73851454 37
-0.47799835 -0.87635243 0.60887194 35
-0.48004058 -0.87973142 0.49322596 33
-0.47827628 -0.8761344 0.38315508 22
-0.47073704 -0.86232364 0.27799615 13
-0.48206314 -0.88270503 0.18306577 23
-0.47840795 -0.87456536 0.96870506 39
-0.47665507 -0.87099993 0.8065148 38
-0.47896075 -0.87520778 0.67166322 37
-0.48220339 -0.88076794 0.55164546 35
-0.48120204 -0.87857491 0.43759111 28
-0.47187507 -0.86118913 0.32756117 13
-0.4688817 -0.85537177 0.22809425 29
-0.48512319 -0.88463438 0.13437465 33
-0.015497222 -0.027202345 1.9941976 71
-0.15276924 -0.27507716 2.0008237 97
-0.19961761 -0.36138299 2.0083039 95
-0.29418898 -0.53341037 1.9934158 86
-0.39761066 -0.72120005 1.999715 95
-0.46617451 -0.84589559 1.8365685 37
-0.47026333 -0.85330945 1.5036055 39
-0.47596502 -0.86364979 1.2568643 39
-0.061593588 -0.10849845 1.9910811 88
-0.10947034 -0.19054703 2.0032918 91
-0.24729976 -0.44638267 2.0009167 93
-0.34562841 -0.6243434 1.9948403 91
-0.4519552 -0.81706142 1.9936218 95
-0.46915916 -0.84815681 1.6556019 39
-0.47250736 -0.85420436 1.3669199 39
-0.47644705 -0.86132103 1.145367 40
-0.47440046 -0.86294734 1.0475066 39
-0.47594151 -0.86574513 0.87871432 38
-0.4766027 -0.86658961 0.73303157 37
-0.47678456 -0.86691487 0.60423589 35
-0.47863892 -0.86992693 0.4894799 32
-0.47901833 -0.87025696 0.38174587 22
-0.4713755 -0.85637188 0.27706355 13
-0.48273918 -0.87665451 0.18261954 22
-0.47785059 -0.86635023 0.96205539 39
-0.47773966 -0.8657918 0.80357164 38
-0.47993004 -0.86975592 0.6691308 37
-0.4808881 -0.87113267 0.54744929 35
-0.48198292 -0.87275589 0.4359484 27
-0.47252777 -0.85528225 0.32638884 17
-0.46946907 -0.84939563 0.22740445 29
-0.48579064 -0.87856346 0.13417313 32
-0.015614338 -0.027185613 1.9991974 73
-0.15334874 -0.27386439 1.9958843 97
-0.20087783 -0.36068398 2.0083039 95
-0.29604918 -0.53238022 1.9934158 88
-0.40012568 -0.71980774 1.999715 95
-0.46563333 -0.83798057 1.8234024 37
-0.47050542 -0.84674317 1.4953396 39
-0.47586247 -0.85637838 1.2491904 38
-0.061971944 -0.10828277 1.9910811 88
-0.11013481 -0.19016373 2.0032918 91
-0.24885643 -0.44551671 2.0009167 95
-0.34780568 -0.62313312 1.9948403 93
-0.45480451 -0.81547886 1.9936218 95
-0.46957618 -0.84195858 1.6470701 38
-0.47255006 -0.84728533 1.3589408 38
-0.47614804 -0.85373116 1.1380167 40
-0.47395188 -0.85504782 1.0404975 38
-0.47707334 -0.86067373 0.87557656 38
-0.47759694 -0.86126381 0.73029011 37
-0.47765926 -0.86137086 0.60191786 35
-0.47942364 -0.86419696 0.48760688 32
-0.47739723 -0.86019033 0.37892747 20
-0.47197816 -0.85042614 0.27613091 15
-0.48579633 -0.87496406 0.18261954 21
-0.47724181 -0.85814977 0.95540571 39
-0.47682863 -0.85705465 0.79768533 38
-0.48086706 -0.86430794 0.66659838 37
-0.48171872 -0.86548316 0.54535127 35
-0.48043165 -0.86281621 0.43266305 26
-0.4707796 -0.84513509 0.32404423 17
-0.47002044 -0.84342593 0.22671464 28
-0.483989 -0.86813515 0.13377005 32
-0.015709138 -0.027130943 1.9991974 75
-0.15430377 -0.27332744 1.9958843 97
-0.20213564 -0.35998058 2.0083039 95
-0.29790574 -0.53134358 1.9934158 88
-0.40263587 -0.71840668 1.999715 95
-0.46621361 -0.83217001 1.814625 37
-0.47070739 -0.84018564 1.4870737 38
-0.47571495 -0.84911841 1.2415166 37
-0.062349543 -0.1080658 1.9910811 88
-0.11079793 -0.18977815 2.0032918 91
-0.25041005 -0.44464535 2.0009167 96
-0.34997869 -0.62191522 1.9948403 93
-0.45658094 -0.81198812 1.9891212 95
-0.46995568 -0.83576775 1.6385381 38
-0.47402748 -0.84300357 1.3549514 36
-0.47746354 -0.84910882 1.1343416 38
-0.47519386 -0.85027522 1.036993 39
-0.47627637 -0.85220689 0.86930102 38
-0.47651926 -0.85229212 0.7248072 37
-0.47633907 -0.85196459 0.59728175 36
-0.47791117 -0.85442626 0.48386082 32
-0.47805437 -0.85433221 0.3775183 21
-0.47494388 -0.84877342 0.27613091 16
-0.48641497 -0.86891752 0.18217334 22
-0.47840804 -0.85322136 0.95208085 39
-0.47783995 -0.85185975 0.79474217 38
-0.48177192 -0.85886401 0.66406596 37
-0.48251581 -0.85983843 0.54325324 35
-0.48112872 -0.85701609 0.43102038 26
-0.47134665 -0.83924866 0.32287189 16
-0.47053593 -0.83746278 0.22602481 29
-0.48456839 -0.86208534 0.13356853 31
-0.015803747 -0.027075943 1.9991974 73
-0.15525693 -0.27278715 1.9958843 97
-0.20339097 -0.35927278 2.0083039 95
-0.29975861 -0.5303005 1.9934158 86
-0.4061023 -0.71869779 2.0043178 96
-0.46558082 -0.82427967 1.8014591 37
-0.4694854 -0.83118695 1.4746748 35
-0.47552258 -0.84186983 1.2338426 34
-0.062726386 -0.1078475 1.9910811 88
-0.1114597 -0.18939023 2.0032918 91
-0.25196061 -0.4437685 2.0009167 96
-0.35214746 -0.62068981 1.9948403 93
-0.45941254 -0.81038946 1.9891212 95
-0.47029775 -0.82958466 1.6300063 38
-0.4739944 -0.83609998 1.3469725 33
-0.4770807 -0.84153867 1.1269913 36
-0.47640821 -0.84550422 1.0334884 37
-0.47733721 -0.8471477 0.86616325 38
-0.47743806 -0.84698099 0.72206575 37
-0.47713459 -0.84643739 0.59496373 36
-0.48089081 -0.8527528 0.48386082 32
-0.47631922 -0.84430176 0.37469989 20
-0.47790372 -0.84711039 0.27613091 15
-0.48699737 -0.86287731 0.18172713 20
-0.47770789 -0.84504455 0.94543117 38
-0.47683105 -0.84314996 0.78885585 38
-0.48052236 -0.84967172 0.65900111 37
-0.48327944 -0.85419881 0.54115516 34
-0.48179114 -0.85122162 0.42937768 26
-0.46948338 -0.82913888 0.32052726 18
-0.47101554 -0.83150631 0.225335 28
-0.48511156 -0.85604209 0.133367 31
-0.015898162 -0.027020615 1.9991974 73
-0.15620819 -0.27224353 1.9958843 96
-0.20464383 -0.35856062 2.0083039 95
-0.30160791 -0.52925086 1.9934158 86
-0.40860856 -0.7172758 2.0043178 95
-0.46608415 -0.8184858 1.7926818 37
-0.46959886 -0.82465249 1.466409 33
-0.473699 -0.83184725 1.2223318 29
-0.063102461 -0.10762788 1.9910811 88
-0.11212012 -0.189 2.0032918 89
-0.25350812 -0.44288629 2.0009167 95
-0.35431194 -0.61945683 1.9948403 93
-0.46223855 -0.80878085 1.9891212 83
-0.47060236 -0.82340938 1.6214744 38
-0.47541448 -0.83182359 1.3429829 27
-0.47833306 -0.83692485 1.123316 32
-0.47583365 -0.83763444 1.0264792 35
-0.4764457 -0.83870661 0.85988772 37
-0.47625965 -0.8380385 0.71658283 37
-0.47789738 -0.84091508 0.5926457 36
-0.48157322 -0.84703892 0.48198777 32
-0.47689164 -0.8384639 0.37329069 20
-0.48085776 -0.84543705 0.27613091 12
-0.48754352 -0.85684377 0.18128091 20
-0.47880569 -0.84012747 0.94210631 35
-0.47776929 -0.83796895 0.78591269 37
-0.48135 -0.84424394 0.65646869 37
-0.48400953 -0.84856433 0.53905714 34
-0.48241904 -0.84543306 0.427735 25
-0.47237477 -0.82749504 0.32052726 18
-0.47145933 -0.82555676 0.2246452 27
-0.48809674 -0.85434347 0.133367 30
-0.015992386 -0.026964955 1.9991974 73
-0.15715754 -0.27169663 1.9958843 95
-0.20589419 -0.35784411 2.0083039 95
-0.30345351 -0.52819484 1.9934158 88
-0.41110983 -0.71584511 2.0043178 95
-0.46655273 -0.8126983 1.7839044 37
-0.46827137 -0.81568688 1.4540101 31
-0.47340745 -0.824628 1.2146579 17
-0.063477762 -0.10740696 1.9910811 88
-0.11277916 -0.18860747 2.0032918 88
-0.25505254 -0.44199872 2.0009167 95
-0.35647205 -0.61821622 1.9948403 91
-0.46397164 -0.80527544 1.9846202 64
-0.47086969 -0.81724221 1.6129426 38
-0.4753058 -0.82493609 1.335004 17
-0.4778665 -0.82937527 1.1159657 23
-0.47698233 -0.8328737 1.0229747 32
-0.47743577 -0.83366024 0.85674983 34
-0.47710335 -0.83274281 0.71384132 34
-0.47862744 -0.83539772 0.59032768 35
-0.48452699 -0.84535271 0.48198777 32
-0.47504288 -0.82847077 0.37047231 19
-0.48380595 -0.8437534 0.27613091 11
-0.48309758 -0.84217727 0.17994229 19
-0.47987497 -0.83521307 0.9387815 32
-0.47666287 -0.82928741 0.78002638 32
-0.47999707 -0.83508307 0.65140384 32
-0.48018146 -0.83506632 0.53276294 34
-0.48536721 -0.84374392 0.427735 24
-0.47041151 -0.81741548 0.31818265 19
-0.47186729 -0.81961423 0.22395536 27
-0.48858252 -0.84830528 0.13316546 28
-0.016086414 -0.026908964 1.9991974 73
-0.15810497 -0.27114636 1.9958843 95
-0.20714204 -0.35712323 2.0083039 95
-0.30529541 -0.52713239 1.9934158 89
-0.41360608 -0.71440572 2.0043178 95
-0.46698666 -0.80691779 1.7751272 38
-0.4697063 -0.81161177 1.4498771 31
-0.47307134 -0.81742108 1.206984 12
-0.063852295 -0.10718473 1.9910811 88
-0.11343685 -0.18821265 2.0032918 88
-0.25659385 -0.44110569 2.0009167 95
-0.35862786 -0.61696815 1.9948403 93
-0.46677974 -0.80365098 1.9846202 40
-0.47109967 -0.81108314 1.6044106 38
-0.47515488 -0.81805962 1.3270249 17
-0.47905588 -0.82477057 1.1122906 15
-0.47632045 -0.82502675 1.0159657 27
-0.47645003 -0.82524604 0.8504743 27
-0.47582459 -0.8238306 0.70835841 28
-0.47932482 -0.8298856 0.58800966 27
-0.48283622 -0.83562827 0.47824171 27
-0.47793192 -0.82680744 0.37047231 18
-0.47937322 -0.82930082 0.27333307 15
-0.48852742 -0.84479702 0.18038851 18
-0.48091576 -0.83030146 0.93545663 24
-0.47752824 -0.82412124 0.77708322 21
-0.47858623 -0.82594198 0.64633894 23
-0.49219787 -0.84909117 0.54115516 15
-0.47646403 -0.82161832 0.41952157 11
-0.47082281 -0.81156421 0.31701031 19
-0.4747254 -0.81796211 0.22395536 25
-0.49154067 -0.84659469 0.13316546 26
-0.016180245 -0.026852649 1.9991974 71
-0.15905051 -0.27059284 1.9958843 95
-0.20838737 -0.35639796 2.0083039 91
-0.30788663 -0.52735335 1.9981875 88
-0.4151125 -0.71127027 1.999715 96
-0.46738589 -0.80114412 1.7663498 37
-0.46970034 -0.80510604 1.4416113 35
-0.47430626 -0.81299573 1.2031471 12
-0.064226054 -0.10696118 1.9910811 88
-0.11409313 -0.18781553 2.0032918 89
-0.25813201 -0.44020733 2.0009167 95
-0.36077932 -0.61571252 1.9948403 91
-0.46738148 -0.79825819 1.9756186 39
-0.47129241 -0.80493253 1.5958788 38
-0.47648466 -0.81379509 1.3230355 23
-0.48021898 -0.82016778 1.1086154 14
-0.47740352 -0.8202768 1.0124611 16
-0.47736961 -0.82021332 0.84733653 14
-0.47448939 -0.81493759 0.70287549 16
-0.47776043 -0.82055038 0.58337361 14
-0.47408336 -0.81390828 0.46887657 8
-0.47598451 -0.81684434 0.36765391 9
-0.47484556 -0.81488979 0.2705352 15
-0.4889653 -0.83878416 0.17994229 15
-0.48192814 -0.82539284 0.93213177 15
-0.47836334 -0.81895912 0.77414006 6
-0.47711733 -0.81682086 0.64127403 12
-0.49515879 -0.84736788 0.54115516 15
-0.47932914 -0.81995016 0.41952157 5
nan nan nan 0
-0.48007852 -0.82057446 0.2246452 20
-0.49196929 -0.84056199 0.13296393 24
-0.016273879 -0.026796006 1.9991974 71
-0.15999408 -0.27003598 1.9958843 96
-0.20963019 -0.35566843 2.0083039 89
-0.30972561 -0.52627534 1.9981875 86
-0.41759276 -0.70981693 1.999715 93
-0.46896508 -0.79744267 1.7619612 37
-0.47108132 -0.801036 1.4374783 38
-0.47714126 -0.81133509 1.2031471 12
-0.06459903 -0.10673634 1.9910811 88
-0.11474805 -0.18741614 2.0032918 91
-0.2596671 -0.43930364 2.0009167 96
-0.36292636 -0.61444944 1.9948403 91
-0.46905819 -0.79474652 1.9711179 40
-0.471448 -0.79879051 1.587347 38
-0.47779045 -0.80953127 1.3190459 28
-0.48135582 -0.81556696 1.1049403 14
-0.47845924 -0.81552941 1.0089566 15
-0.4762899 -0.81182677 0.841061 9
-0.4730981 -0.80606401 0.69739258 8
-0.47837934 -0.81505704 0.58105558 4
-0.47926888 -0.81624621 0.47074959 8
nan nan nan 0
nan nan nan 0
-0.49441326 -0.84136581 0.18038851 7
-0.48101804 -0.81726897 0.92548209 15
-0.47711739 -0.81031823 0.76825374 6
-0.47777823 -0.8114354 0.63874161 6
nan nan nan 0
nan nan nan 0
nan nan nan 0
nan nan nan 0
-0.49997765 -0.84744531 0.133367 12
-0.016367316 -0.026739037 1.9991974 73
-0.1609357 -0.26947585 1.9958843 95
-0.2108704 -0.35493448 2.0083039 85
-0.31156075 -0.52519101 1.9981875 86
-0.42006794 -0.70835501 1.999715 95
-0.46930245 -0.79167914 1.7531838 37
-0.47243962 -0.79696608 1.4333454 39
-0.47997046 -0.80966461 1.2031471 14
-0.064971216 -0.10651021 1.9910811 88
-0.11540154 -0.18701445 2.0032918 91
-0.26184282 -0.43947503 2.0057559 96
-0.36506894 -0.61317885 1.9948403 93
-0.46960256 -0.78936118 1.9621161 40
-0.4715665 -0.79265726 1.5788151 39
-0.48061329 -0.80785853 1.3190459 29
-0.48246637 -0.81096816 1.1012651 15
-0.48130307 -0.81385428 1.0089566 15
-0.4771392 -0.80680853 0.83792323 9
-0.47377971 -0.80080897 0.69465107 5
-0.47896561 -0.80956936 0.57873756 3
nan nan nan 0
nan nan nan 0
nan nan nan 0
nan nan nan 0
-0.48196247 -0.81237328 0.92215723 15
-0.47994304 -0.80864781 0.76825374 7
-0.47840729 -0.80605525 0.63620919 5
nan nan nan 0
nan nan nan 0
nan nan nan 0
nan nan nan 0
-0.50293273 -0.8456949 0.133367 5
-0.016437128 -0.02664493 1.9941976 73
-0.16187537 -0.26891246 1.9958843 95
-0.21210806 -0.35419625 2.0083039 87
-0.31339213 -0.52410018 1.9981875 88
-0.42253801 -0.70688432 1.999715 96
-0.46960527 -0.785923 1.7444066 37
-0.47521862 -0.79531205 1.4333454 40
-0.48279375 -0.80798429 1.2031471 14
-0.065494679 -0.10652918 1.9960728 88
-0.11605364 -0.18661049 2.0032918 91
-0.26337525 -0.43855834 2.0057559 95
-0.36720711 -0.61190075 1.9948403 91
-0.4701151 -0.7839818 1.9531145 39
-0.47164795 -0.786533 1.5702833 39
-0.48498034 -0.80876076 1.3230355 29
-0.48529419 -0.80927914 1.1012651 16
-0.48231497 -0.80910605 1.005452 16
-0.47795925 -0.80179429 0.83478546 15
-0.47443047 -0.79555893 0.69190961 5
-0.47725043 -0.80028254 0.57410151 3
nan nan nan 0
nan nan nan 0
nan nan nan 0
nan nan nan 0
-0.4828786 -0.80748093 0.91883242 18
-0.48276281 -0.80696756 0.76825374 11
-0.47900468 -0.8006807 0.63367677 5
-0.48069793 -0.80319279 0.52017468 4
nan nan nan 0
nan nan nan 0
nan nan nan 0
-0.49303865 -0.82250905 0.13235934 5
-0.01655359 -0.026624121 1.9991974 73
-0.16321625 -0.26900995 2.0008237 96
-0.21334316 -0.35345373 2.0083039 83
-0.31521964 -0.5230031 1.9981875 86
-0.42500287 -0.70540506 1.999715 95
-0.46987367 -0.78017443 1.7356292 37
-0.47799188 -0.79364842 1.4333454 40
-0.48726526 -0.80904037 1.206984 14
-0.065866135 -0.10629991 1.9960728 88
-0.11670433 -0.18620424 2.0032918 93
-0.26490453 -0.43763635 2.0057559 95
-0.36934081 -0.61061525 1.9948403 91
-0.46946937 -0.77674484 1.9396119 39
-0.47169244 -0.7804178 1.5617512 39
-0.48780054 -0.80706298 1.3230355 28
-0.48986986 -0.81048155 1.1049403 16
-0.48513633 -0.80741751 1.005452 16
-0.48075512 -0.80012101 0.83478546 17
-0.47720459 -0.79389805 0.69190961 9
-0.480041 -0.7986117 0.57410151 5
nan nan nan 0
nan nan nan 0
nan nan nan 0
nan nan nan 0
-0.48569429 -0.80579048 0.91883242 18
-0.48557669 -0.80527753 0.76825374 14
-0.47957039 -0.79531181 0.63114434 8
-0.48818728 -0.8092823 0.52437073 5
nan nan nan 0
nan nan nan 0
nan nan nan 0
nan nan nan 0
-0.016646424 -0.026566174 1.9991974 73
-0.16415428 -0.26843858 2.0008237 96
-0.21457565 -0.35270685 2.0083039 83
-0.31704336 -0.52189958 1.9981875 88
-0.42746261 -0.70391726 1.999715 95
-0.47010773 -0.77443355 1.7268519 37
-0.48075935 -0.79197508 1.4333454 39
-0.49008641 -0.80733454 1.206984 14
-0.066236787 -0.10606934 1.9960728 89
-0.1173536 -0.18579574 2.0032918 91
-0.26643053 -0.43670899 2.0057559 95
-0.37147 -0.60932225 1.9948403 95
-0.46991184 -0.77138174 1.9306103 40
-0.47169998 -0.77431202 1.5532194 39
-0.49061474 -0.80535531 1.3230355 27
-0.49269596 -0.80876666 1.1049403 16
-0.48979917 -0.80876958 1.0089566 16
-0.48354515 -0.79843795 0.83478546 19
-0.47997293 -0.79222739 0.69190961 9
-0.48053011 -0.79314214 0.57178348 10
-0.48340994 -0.79758132 0.46513048 7
nan nan nan 0
nan nan nan 0
nan nan nan 0
-0.48850405 -0.8040902 0.91883242 18
-0.49048403 -0.80703175 0.7711969 15
-0.48234367 -0.79363298 0.63114434 9
-0.48629352 -0.79981732 0.52017468 8
-0.48129573 -0.79128623 0.41130814 6
-0.47508252 -0.7807644 0.31114873 3
nan nan nan 0
nan nan nan 0
-0.016739056 -0.026507907 1.9991974 71
-0.16509029 -0.26786393 2.0008237 96
-0.21580549 -0.35195568 2.0083039 85
-0.31886321 -0.52078974 1.9981875 86
-0.42991716 -0.70242089 1.999715 96
-0.47030741 -0.76870066 1.7180746 37
-0.48352093 -0.79029208 1.4333454 39
-0.4929015 -0.80561888 1.206984 14
-0.066606633 -0.10583748 1.9960728 89
-0.11800142 -0.18538497 2.0032918 91
-0.26795331 -0.43577629 2.0057559 96
-0.3735947 -0.60802191 1.9948403 93
-0.4703227 -0.76602513 1.9216086 40
-0.47303537 -0.77043825 1.5489535 39
-0.495 -0.80620629 1.3270249 27
-0.49551612 -0.80704194 1.1049403 16
-0.49261934 -0.80705494 1.0089566 15
-0.48632926 -0.7967453 0.83478546 18
-0.4849146 -0.79411584 0.69465107 9
-0.48329583 -0.79145998 0.57178348 10
-0.48377436 -0.79193282 0.46325746 7
-0.4754757 -0.77804297 0.35778955 6
-0.46875343 -0.76704305 0.26214162 3
nan nan nan 0
-0.49130788 -0.80238014 0.91883242 17
-0.49329811 -0.80531466 0.7711969 15
-0.48736301 -0.7956208 0.63367677 9
-0.49856794 -0.81359392 0.52856684 8
-0.48158666 -0.78557527 0.40966547 6
-0.47526383 -0.77495778 0.3099764 9
nan nan nan 0
-0.49639806 -0.80878508 0.13195628 5
-0.016831484 -0.026449315 1.9991974 71
-0.1660243 -0.26728603 2.0008237 96
-0.21649741 -0.35033411 2.0034087 85
-0.31989476 -0.51840246 1.9934158 84
-0.43236649 -0.70091587 1.999715 96
-0.47047284 -0.76297587 1.7092972 37
-0.4862766 -0.78859949 1.4333454 39
-0.49571061 -0.80389345 1.206984 14
-0.066975676 -0.10560435 1.9960728 88
-0.11864782 -0.18497193 2.0032918 89
-0.26947284 -0.43483832 2.0057559 95
-0.37571478 -0.60671413 1.9948403 93
-0.47070181 -0.76067507 1.912607 39
-0.47297704 -0.7643469 1.5404216 39
-0.49781117 -0.80447352 1.3270249 27
-0.50011414 -0.80819011 1.1086154 16
-0.49730214 -0.80836791 1.0124611 15
-0.49114728 -0.79835838 0.83792323 17
-0.48987523 -0.79597938 0.69739258 12
-0.4883776 -0.79354107 0.57410151 8
-0.48896632 -0.79418707 0.46513048 9
-0.48573628 -0.78863245 0.36201712 10
-0.47915649 -0.77794975 0.26493949 9
-0.49102557 -0.7969085 0.17681882 9
-0.49410573 -0.80066019 0.91883242 17
-0.49822947 -0.80702722 0.77414006 15
-0.49240202 -0.79758316 0.63620919 9
-0.49901998 -0.80798715 0.52646881 8
-0.48680818 -0.78790694 0.41130814 8
-0.50096619 -0.81050533 0.32052726 12
-0.49477473 -0.80017608 0.22326556 12
-0.50184643 -0.81129622 0.1321578 9
-0.016923707 -0.026390402 1.9991974 73
-0.16695631 -0.26670489 2.0008237 96
-0.21771899 -0.34957626 2.0034087 85
-0.32170236 -0.51728272 1.9934158 88
-0.43481043 -0.69940239 1.999715 95
-0.47060409 -0.75725943 1.7005199 37
-0.48902634 -0.78689724 1.4333454 39
-0.4985137 -0.80215818 1.206984 15
-0.067343891 -0.10536991 1.9960728 88
-0.11929277 -0.18455663 2.0032918 89
-0.27098906 -0.43389502 2.0057559 95
-0.37783033 -0.60539895 1.9948403 93
-0.4710494 -0.75533175 1.9036052 39
-0.472882 -0.75826538 1.5318898 39
-0.50061631 -0.80273092 1.3270249 28
-0.50293219 -0.80643952 1.1086154 17
-0.50012088 -0.80662709 1.0124611 16
-0.49393111 -0.79663914 0.83792323 17
-0.49485475 -0.79781789 0.70013404 12
-0.49347973 -0.79559624 0.57641953 8
-0.48929122 -0.78853625 0.46325746 9
-0.49354634 -0.79508388 0.36483553 10
-0.50000423 -0.80548722 0.27146783 12
-0.49905875 -0.80365103 0.17771125 12
-0.49886981 -0.80210161 0.92215723 21
-0.5010435 -0.80528313 0.77414006 17
-0.49746072 -0.79952008 0.63874161 10
-0.50423563 -0.81009346 0.52856684 9
-0.49954036 -0.80223799 0.41787887 9
-0.52435219 -0.84175682 0.32990581 15
-0.50542223 -0.81105286 0.225335 13
-0.50467533 -0.8095395 0.1321578 14
-0.017015724 -0.026331166 1.9991974 73
-0.16747154 -0.26546341 1.9958843 95
-0.21893792 -0.34881416 2.0034087 83
-0.32350606 -0.51615661 1.9934158 88
-0.43724918 -0.69788033 1.999715 95
-0.47070116 -0.75155127 1.6917425 37
-0.49177018 -0.78518546 1.4333454 39
-0.50131077 -0.80041319 1.206984 16
-0.067711294 -0.10513419 1.9960728 88
-0.11993626 -0.18413912 2.0032918 88
-0.27250198 -0.43294644 2.0057559 96
-0.38086012 -0.60553718 1.9995331 95
-0.47136542 -0.74999529 1.8946036 39
-0.47275028 -0.75219381 1.5233579 39
-0.50341529 -0.80097854 1.3270249 26
-0.5057441 -0.80467904 1.1086154 18
-0.50293344 -0.80487645 1.0124611 17
-0.49670884 -0.79491013 0.83792323 21
-0.49985307 -0.79963142 0.70287549 15
-0.49625388 -0.79386884 0.57641953 13
-0.49941486 -0.79861534 0.46887657 12
-0.50904024 -0.81369126 0.37188148 15
-0.50281286 -0.80373693 0.27146783 59
-0.51242888 -0.81878996 0.17949608 59
-0.50364989 -0.80351955 0.92548209 24
-0.50385141 -0.80352926 0.77414006 23
-0.50253886 -0.80143124 0.64127403 15
-0.50706035 -0.80832845 0.52856684 15
-0.50233763 -0.80048943 0.41787887 18
-0.51436538 -0.81933814 0.32404423 28
-0.49771509 -0.79250872 0.22257572 91
-0.50749809 -0.80777287 0.1321578 153
-0.017107531 -0.026271608 1.9991974 73
-0.16839716 -0.26487723 1.9958843 95
-0.22069855 -0.34890831 2.0083039 85
-0.32530582 -0.51502419 1.9934158 88
-0.4396826 -0.6963498 1.999715 95
-0.47076422 -0.74585176 1.6829653 38
-0.49450803 -0.78346401 1.4333454 39
-0.50410169 -0.79865837 1.206984 16
-0.06807787 -0.1048972 1.9960728 86
-0.1205783 -0.18371934 2.0032918 89
-0.27401158 -0.43199262 2.0057559 96
-0.38297153 -0.604204 1.9995331 93
-0.47164997 -0.74466592 1.885602 39
-0.47397754 -0.74833584 1.519092 39
-0.50782084 -0.80176258 1.3310144 25
-0.50854993 -0.80290872 1.1086154 17
-0.50573993 -0.80311596 1.0124611 20
-0.50155497 -0.79646552 0.841061 24
-0.50264126 -0.79788166 0.70287549 20
-0.50138336 -0.79588014 0.57873756 18
-0.50219953 -0.79686719 0.46887657 19
-0.50676048 -0.80379319 0.36906311 67
-0.50561535 -0.80197686 0.27146783 92
-0.50997049 -0.80857188 0.17860366 134
-0.50645167 -0.8017565 0.92548209 28
-0.50665319 -0.80176556 0.77414006 29
-0.50763643 -0.80331665 0.64380646 24
-0.50987887 -0.80655348 0.52856684 27
-0.507653 -0.80272233 0.41952157 31
-0.51722229 -0.81753767 0.32404423 84
-0.50842369 -0.80332011 0.2246452 105
-0.51298714 -0.8102175 0.13235934 174
-0.017199133 -0.026211731 1.9991974 73
-0.16932073 -0.26428777 1.9958843 95
-0.22191513 -0.34813574 2.0083039 89
-0.32790366 -0.51514554 1.9981875 86
-0.44211063 -0.69481075 1.999715 95
-0.47079316 -0.74016106 1.6741879 37
-0.49723977 -0.78173316 1.4333454 38
-0.50688642 -0.79689389 1.206984 14
-0.068443611 -0.10465892 1.9960728 88
-0.12121888 -0.18329732 2.0032918 91
-0.27551782 -0.43103352 2.0057559 95
-0.38507822 -0.60286349 1.9995331 93
-0.47190303 -0.73934358 1.8766001 39
-0.47378039 -0.74228007 1.5105602 38
-0.51223803 -0.80252564 1.335004 20
-0.50952542 -0.79827112 1.1049403 16
-0.50854027 -0.80134571 1.0124611 19
-0.50433213 -0.79470992 0.841061 28
-0.50542337 -0.79612231 0.70287549 29
-0.50653291 -0.79786521 0.58105558 30
-0.50746346 -0.79902273 0.47074959 34
-0.5121358 -0.80606848 0.37047231 80
-0.50841171 -0.80020702 0.27146783 124
-0.51546115 -0.81098974 0.17904988 171
-0.51125258 -0.80313408 0.92880696 26
-0.50944877 -0.79999214 0.77414006 31
-0.51043743 -0.80153978 0.64380646 31
-0.51025265 -0.80094099 0.52646881 34
-0.51299 -0.80492783 0.42116427 39
-0.51745987 -0.81162876 0.32287189 89
-0.50589871 -0.79319 0.22326556 121
-0.51581222 -0.80842185 0.13235934 196
-0.017290525 -0.026151536 1.9991974 73
-0.17066382 -0.26434779 2.0008237 96
-0.22312899 -0.34735903 2.0083039 87
-0.32969984 -0.51399773 1.9981875 86
-0.44453326 -0.69326329 1.999715 93
-0.47078821 -0.73447931 1.6654106 37
-0.49844688 -0.77762359 1.4292125 37
-0.50966501 -0.7951197 1.206984 10
-0.068808518 -0.10441937 1.9960728 88
-0.12185795 -0.18287307 2.0032918 93
-0.27633959 -0.42901176 2.0009167 95
-0.3871803 -0.60151565 1.9995331 95
-0.47212479 -0.73402882 1.8675985 40
-0.4749577 -0.73842829 1.5062943 38
-0.51666677 -0.80326754 1.3389934 18
-0.51230884 -0.79648769 1.1049403 12
-0.509413 -0.7965613 1.0089566 16
-0.50920045 -0.79622412 0.84419876 26
-0.50819927 -0.79435313 0.70287549 30
-0.50931495 -0.79609227 0.58105558 34
-0.5102495 -0.79724652 0.47074959 38
-0.51235956 -0.80023575 0.36906311 87
-0.50855303 -0.79429048 0.2705352 133
-0.51560295 -0.8049919 0.17860366 186
-0.51405293 -0.80134451 0.92880696 20
-0.5122382 -0.79820895 0.77414006 27
-0.51323223 -0.79975319 0.64380646 29
-0.51304531 -0.799155 0.52646881 36
-0.51324469 -0.79915869 0.41952157 59
-0.51766247 -0.8057282 0.32169959 96
-0.50866437 -0.79141927 0.22326556 132
-0.52133298 -0.81081867 0.13256088 210
-0.017381705 -0.026091022 1.9991974 73
-0.17158553 -0.26375046 2.0008237 96
-0.22434014 -0.34657803 2.0083039 87
-0.33149204 -0.51284373 1.9981875 86
-0.44695047 -0.69170737 1.999715 93
-0.47074932 -0.72880661 1.6566333 37
-0.5011583 -0.77587897 1.4292125 36
-0.51417685 -0.79602873 1.2108209 8
-0.069172591 -0.10417856 1.9960728 88
-0.12249555 -0.1824466 2.0032918 93
-0.27783543 -0.4280445 2.0009167 95
-0.38927758 -0.60016048 1.9995331 91
-0.47231519 -0.72872138 1.8585969 39
-0.47469538 -0.73238885 1.4977623 38
-0.52274615 -0.80651736 1.3469725 18
-0.515086 -0.79469448 1.1049403 11
-0.5121904 -0.79477823 1.0089566 12
-0.51197666 -0.79444188 0.84419876 18
-0.51096898 -0.79257435 0.70287549 20
-0.51209068 -0.79430956 0.58105558 27
-0.51302934 -0.79546058 0.47074959 36
-0.51775068 -0.80247355 0.37047231 87
-0.51132262 -0.79251051 0.2705352 137
-0.52111036 -0.80737144 0.17904988 200
-0.51887435 -0.80268139 0.93213177 16
-0.51502132 -0.79641604 0.77414006 16
-0.51367962 -0.79433662 0.64127403 15
-0.51583177 -0.79735929 0.52646881 21
-0.51603115 -0.79736233 0.41952157 32
-0.51783019 -0.7998361 0.32052726 88
-0.51142383 -0.78963882 0.22326556 130
-0.52416003 -0.808994 0.13256088 218
-0.017472673 -0.02603019 1.9991974 73
-0.17250514 -0.26314992 2.0008237 97
-0.22554855 -0.34579283 2.0083039 89
-0.33328015 -0.51168352 1.9981875 86
-0.45042837 -0.69178021 2.0043178 96
-0.47198355 -0.725151 1.6522447 37
-0.50232846 -0.77176636 1.4250795 35
-0.51870126 -0.79691589 1.2146579 8
-0.069535822 -0.10393646 1.9960728 88
-0.12283195 -0.18157603 1.9983203 95
-0.27932787 -0.42707208 2.0009167 95
-0.39042598 -0.59735352 1.9948403 91
-0.47247431 -0.72342181 1.8495952 39
-0.47439665 -0.72636032 1.4892305 38
-0.53050256 -0.81225801 1.3589408 17
-0.51971066 -0.79573005 1.1086154 10
-0.51496154 -0.79298556 1.0089566 9
-0.51686686 -0.79591477 0.84733653 16
-0.51373249 -0.79078597 0.70287549 11
-0.51486027 -0.79251719 0.58105558 9
-0.51327658 -0.78977776 0.46887657 9
-0.51008904 -0.78457344 0.36483553 23
-0.51140827 -0.78660244 0.2696026 92
-0.52121019 -0.80137277 0.17860366 176
-0.52371132 -0.80399436 0.93545663 15
-0.51779824 -0.79461348 0.77414006 14
-0.51409549 -0.7889266 0.63874161 8
-0.51613343 -0.79175186 0.52437073 7
-0.51881129 -0.79555613 0.41952157 5
-0.51796317 -0.79395282 0.31935495 15
-0.51147056 -0.78370172 0.22257572 50
-0.52698082 -0.80715936 0.13256088 189
-0.017563429 -0.02596904 1.9991974 73
-0.17342263 -0.26254612 2.0008237 97
-0.22675422 -0.34500343 2.0083039 95
-0.33424467 -0.5092684 1.9934158 86
-0.45284036 -0.69020367 2.0043178 96
-0.47188407 -0.71949244 1.6434673 37
-0.50501937 -0.77000827 1.4250795 34
-0.52323812 -0.79778117 1.2184948 8
-0.06989821 -0.1036931 1.9960728 89
-0.12346502 -0.18114616 1.9983203 93
-0.28150916 -0.42714465 2.0057559 95
-0.39250877 -0.59598696 1.9948403 93
-0.47260222 -0.71812987 1.8405936 39
-0.47406167 -0.72034281 1.4806986 37
-0.53499162 -0.8129189 1.3629304 17
-0.52248508 -0.79391104 1.1086154 10
-0.51967925 -0.79416728 1.0124611 8
-0.519642 -0.79410571 0.84733653 15
-0.51648968 -0.78898787 0.70287549 10
-0.51762348 -0.79071516 0.58105558 9
-0.51603031 -0.78798127 0.46887657 6
-0.52334034 -0.79883945 0.37047231 8
-0.51415092 -0.78481257 0.2696026 14
-0.52673411 -0.80371368 0.17904988 46
-0.52856374 -0.80528325 0.9387815 14
-0.52278733 -0.79617995 0.77708322 13
-0.51684624 -0.78712732 0.63874161 8
-0.51889402 -0.78994536 0.52437073 7
-0.51899171 -0.78979367 0.41787887 5
-0.51272142 -0.77995515 0.31583801 18
-0.51420301 -0.78191149 0.22257572 38
-0.52979505 -0.80531496 0.13256088 49
-0.017653972 -0.025907572 1.9991974 71
-0.17433804 -0.2619392 2.0008237 96
-0.22795713 -0.34420979 2.0083039 91
-0.33602032 -0.50809854 1.9934158 88
-0.4552469 -0.68861884 2.0043178 96
-0.47175089 -0.71384346 1.63469 38
-0.50925565 -0.7705884 1.4292125 34
-0.5295549 -0.80129915 1.2261688 9
-0.070259735 -0.10344847 1.9960728 88
-0.12409658 -0.18071409 1.9983203 93
-0.28299847 -0.42615941 2.0057559 96
-0.3945868 -0.59461325 1.9948403 91
-0.47269905 -0.71284598 1.8315918 39
-0.4736906 -0.71433657 1.4721668 35
-0.54115736 -0.81607014 1.3709093 17
-0.52900046 -0.79773313 1.1159657 9
-0.52244824 -0.79234838 1.0124611 8
-0.52455372 -0.79553688 0.8504743 14
-0.51924062 -0.78718013 0.70287549 10
-0.52038044 -0.78890353 0.58105558 9
-0.52133101 -0.79004461 0.47074959 6
nan nan nan 0
-0.51688725 -0.78301305 0.2696026 14
-0.52679211 -0.79771447 0.17860366 46
-0.53343147 -0.80654806 0.94210631 14
-0.52779365 -0.79772109 0.78002638 13
-0.51959062 -0.78531837 0.63874161 9
-0.52415317 -0.79191393 0.52646881 8
-0.52435261 -0.79191482 0.41952157 4
-0.51275665 -0.77410835 0.31466568 15
-0.51692927 -0.78011191 0.22257572 38
-0.53260291 -0.80346072 0.13256088 49
-0.017744299 -0.025845792 1.9991974 71
-0.17481843 -0.26068383 1.9958843 96
-0.22859201 -0.34256503 2.0034087 85
-0.33779186 -0.50692254 1.9934158 88
-0.45764786 -0.68702549 2.0043178 96
-0.47158399 -0.70820427 1.6259127 37
-0.51194239 -0.7688061 1.4292125 34
-0.53412569 -0.80211419 1.2300057 9
-0.07062041 -0.1032026 1.9960728 88
-0.12472663 -0.18027981 1.9983203 93
-0.28448433 -0.42516896 2.0057559 96
-0.39665997 -0.59323221 1.9948403 93
-0.47276467 -0.70757014 1.8225902 39
-0.47328332 -0.70834172 1.4636348 34
-0.54567719 -0.81668228 1.3748989 17
-0.53178185 -0.79588175 1.1159657 8
-0.52718443 -0.79349029 1.0159657 7
-0.52948177 -0.79694343 0.85361207 13
-0.52429986 -0.78884524 0.70561695 10
-0.52558345 -0.79077178 0.58337361 9
-0.52408564 -0.78821999 0.47074959 9
nan nan nan 0
-0.53049952 -0.79756439 0.27333307 7
-0.53233218 -0.80001688 0.17904988 45
-0.53831452 -0.80778867 0.94543117 14
-0.53281713 -0.79923707 0.78296953 13
-0.52472019 -0.78708702 0.64127403 11
-0.52691436 -0.79007941 0.52646881 8
-0.52711374 -0.79007965 0.41952157 4
nan nan nan 0
nan nan nan 0
-0.53540426 -0.8015967 0.13256088 36
-0.01783441 -0.025783695 1.9991974 73
-0.17572732 -0.26007202 1.9958843 95
-0.22978638 -0.34176505 2.0034087 81
-0.33955929 -0.50574034 1.9934158 88
-0.46004322 -0.68542379 2.0043178 95
-0.47271845 -0.70456433 1.6215241 37
-0.51619083 -0.76935112 1.4333454 35
-0.5404948 -0.80556929 1.2376796 12
-0.070980228 -0.10295545 1.9960728 88
-0.12566103 -0.18028097 2.0032918 89
-0.28596669 -0.42417333 2.0057559 96
-0.39872828 -0.59184408 1.9948403 91
-0.47401547 -0.70410913 1.8180894 39
-0.47283995 -0.70235848 1.4551029 34
-0.55020773 -0.81727266 1.3788885 17
-0.54402322 -0.80808169 1.1343416 7
-0.53391874 -0.7975722 1.0229747 6
-0.53226036 -0.79509038 0.85361207 13
-0.52937692 -0.79048467 0.70835841 10
-0.53080559 -0.79261339 0.58569163 9
-0.52941412 -0.79023725 0.47262263 26
nan nan nan 0
nan nan nan 0
nan nan nan 0
-0.54321271 -0.80900496 0.94875604 14
-0.53785753 -0.80072767 0.78591269 13
-0.52986842 -0.78882945 0.64380646 11
-0.53220034 -0.79200244 0.52856684 9
-0.53513765 -0.79607338 0.42280695 4
nan nan nan 0
nan nan nan 0
nan nan nan 0
-0.017924301 -0.025721284 1.9991974 73
-0.17663404 -0.25945702 1.9958843 93
-0.23097798 -0.34096083 2.0034087 81
-0.3413226 -0.50455195 1.9934158 86
-0.46243298 -0.68381381 2.0043178 96
-0.47249135 -0.6989404 1.6127467 38
-0.51887321 -0.76754457 1.4333454 35
-0.54330349 -0.80367768 1.2376796 11
-0.071339175 -0.10270705 1.9960728 88
-0.12628956 -0.17984122 2.0032918 89
-0.28673878 -0.4221321 2.0009167 95
-0.40079179 -0.59044862 1.9948403 91
-0.4740254 -0.69884574 1.8090878 39
-0.47382474 -0.69854534 1.450837 35
-0.55474919 -0.81784129 1.3828779 17
-0.54493755 -0.8033722 1.1306664 7
-0.53869373 -0.79866022 1.0264792 6
-0.53720933 -0.79645491 0.85674983 12
-0.53447187 -0.7920981 0.71109986 10
-0.5360471 -0.79442811 0.58800966 10
-0.53216934 -0.78838444 0.47262263 34
nan nan nan 0
nan nan nan 0
nan nan nan 0
-0.55021846 -0.81328988 0.95540571 14
-0.54291487 -0.80219269 0.78885585 13
-0.53503519 -0.79054552 0.64633894 11
-0.54005069 -0.79765618 0.53276294 9
-0.5405615 -0.79811054 0.42444962 4
nan nan nan 0
nan nan nan 0
nan nan nan 0
-0.018013978 -0.025658561 1.9991974 75
-0.17753866 -0.25883889 1.9958843 96
-0.23274083 -0.34099346 2.0083039 85
-0.34392297 -0.50459158 1.9981875 88
-0.46371698 -0.68058085 1.999715 96
-0.47223082 -0.69332665 1.6039693 37
-0.5231334 -0.76805454 1.4374783 34
