# .PCD v0.7 - Point Cloud Data file format
VERSION 0.7
FIELDS x y z intensity
SIZE 4 4 4 4
TYPE F F F F
COUNT 1 1 1 1
WIDTH 1372
HEIGHT 1
VIEWPOINT 0 0 0 1 0 0 0
POINTS 1372
DATA ascii
-6.5784669 1.03251 2.0460057 21
-9.8658218 1.5484716 1.9874889 53
-9.878521 1.5522313 0.98892075 75
-2.1466081 0.3388319 2.0160325 75
-2.6296127 0.41554347 2.0220401 69
-3.276484 0.51776892 2.0341086 64
-4.2462826 0.67178249 2.0748315 59
-5.3038816 0.84004933 1.9570745 6
-8.0556364 1.2773256 2.0579019 17
-9.8649149 1.5659758 1.483559 59
-9.8727169 1.5689807 0.49692875 90
-0.030920923 0.0054313056 2.0041974 40
-0.31048372 0.051046338 2.0008237 92
-0.40853816 0.066205427 2.0131991 91
-0.48784414 0.078727916 1.6259931 38
-0.81304419 0.1310837 1.999715 74
-1.0434382 0.16805269 2.0033376 81
-1.3647579 0.21980998 2.1028829 27
-1.5971014 0.25723597 2.0127425 73
-0.1237703 0.021543181 2.0060561 39
-0.21735395 0.038982674 2.0132346 108
-0.48997921 0.08003287 1.9476855 38
-0.49994862 0.081490502 1.4317083 48
-0.9280659 0.15096317 2.0071244 92
-1.1677765 0.18996215 2.0054085 85
-1.4394907 0.23416753 2.0052397 82
-1.7612395 0.28651258 2.0127058 83
-1.9407877 0.31050846 2.0112567 73
-2.3670559 0.37871179 2.0145898 66
-3.0450866 0.48773837 2.1065061 14
-3.6978316 0.5922938 2.0460486 55
-4.7659302 0.76422846 2.0384781 43
-6.0774732 0.97562641 1.8980402 3
-9.8700581 1.5844575 1.9893541 41
-9.868125 1.5859141 0.98847455 67
-2.1454124 0.34632289 2.0160325 75
-2.6281462 0.42471999 2.0220401 69
-3.2746568 0.52920276 2.0341086 64
-4.2125497 0.68152684 2.0601451 40
-5.1377573 0.8321321 1.8995805 4
-8.0607252 1.3069932 2.0602465 6
-9.8544989 1.5996076 1.4828691 57
-9.8770428 1.6050363 0.49733183 86
-0.030901775 0.0055392063 2.0041974 40
-0.31030369 0.05212982 2.0008237 92
-0.40830457 0.067631081 2.0131991 91
-0.48756635 0.080430336 1.6259931 38
-0.81065404 0.13360323 1.9951125 75
-1.0428451 0.17169395 2.0033376 79
-1.3639822 0.22457254 2.1028829 26
-1.5961938 0.26280934 2.0127425 76
-0.12369435 0.021975089 2.0060561 38
-0.21721655 0.039741144 2.0132346 108
-0.48969683 0.081742726 1.9476855 38
-0.49966115 0.083235152 1.4317083 48
-0.92538494 0.15384459 2.0026236 92
-1.1671063 0.19403729 2.0054085 85
-1.4386644 0.23919086 2.0052397 80
-1.7602285 0.29265872 2.0127058 83
-1.939692 0.31728116 2.0112567 73
-2.3657193 0.38697204 2.0145898 64
-3.0433655 0.49836475 2.1065061 14
-3.6957417 0.60519803 2.0460486 55
-4.7632332 0.78086013 2.0384781 43
-4.8621316 0.79794443 1.5372862 3
-9.8935499 1.623674 1.9949498 25
-9.8821869 1.6235802 0.99025941 55
-2.1441903 0.35380965 2.0160325 75
-2.6266477 0.43389133 2.0220401 69
-3.2770429 0.5413329 2.0366411 64
-4.1967125 0.69400573 2.0538511 13
-4.9717541 0.82306564 1.8420866 4
-8.0992689 1.3422744 2.0707972 4
-9.9074812 1.6437229 1.491147 52
-9.8418083 1.6345924 0.49612263 33
-0.030882252 0.00564704 2.0041974 40
-0.31011981 0.053212661 2.0008237 92
-0.408066 0.069055922 2.0131991 91
-0.48728263 0.082131773 1.6259931 38
-0.81018275 0.13643213 1.9951125 79
-1.0422395 0.17533311 2.0033376 79
-1.3631899 0.22933234 2.1028829 26
-1.5952667 0.26837948 2.0127425 74
-0.12361688 0.022406729 2.0060561 37
-0.2170765 0.040499128 2.0132346 108
-0.49064842 0.083663084 1.9525248 38
-0.49936756 0.084978797 1.4317083 46
-0.9248423 0.15707387 2.0026236 92
-1.1664218 0.19811006 2.0054085 85
-1.4378208 0.24421127 2.0052397 80
-1.7591963 0.29880127 2.0127058 83
-1.9385726 0.32405004 2.0112567 67
-2.3643541 0.39522761 2.0145898 66
-3.0416071 0.50898504 2.1065061 14
-3.6936066 0.6180948 2.0460486 53
-4.7559066 0.79671615 2.0366051 43
-6.4490132 1.0815059 2.0107758 4
-10.004093 1.6776978 2.0173328 20
-10.043444 1.6860992 1.0054306 47
-2.1429422 0.36129215 2.0160325 73
-2.6251171 0.44305739 2.0220401 69
-3.2751331 0.55276859 2.0366411 66
-4.1674137 0.70411414 2.0412626 13
-4.8803806 0.82545161 1.8108755 5
-8.0609884 1.3648583 2.0625911 7
-10.121397 1.7155372 1.5221887 27
-9.8261919 1.6672654 0.49571958 27
-0.030819576 0.00574621 1.9991974 39
-0.3099322 0.054294858 2.0008237 92
-0.40782249 0.070479922 2.0131991 91
-0.48846483 0.084085651 1.6307648 38
-0.80970162 0.13925935 1.9951125 81
-1.0416212 0.17897013 2.0033376 79
-1.3623811 0.23408936 2.1028829 27
-1.5943202 0.27394637 2.0127425 74
-0.12382256 0.022891212 2.0110476 37
-0.21693382 0.041256621 2.0132346 108
-0.49035341 0.085375257 1.9525248 38
-0.4990679 0.086721398 1.4317083 46
-0.92428845 0.16030121 2.0026236 92
-1.1657232 0.20218043 2.0054085 85
-1.4369596 0.24922872 2.0052397 76
-1.7581426 0.30494019 2.0127058 85
-1.9374297 0.33081496 2.0112567 67
-2.3629601 0.40347835 2.0145898 66
-3.0398118 0.51959914 2.1065061 14
-3.6914265 0.63098419 2.0460486 53
-4.7530966 0.81331253 2.0366051 48
-4.9226408 0.84320807 1.5570149 3
-10.133743 1.7358302 2.0434461 22
-10.116032 1.7346135 1.0125699 33
-2.1416681 0.36877018 2.0160325 73
-2.6235545 0.45221809 2.0220401 69
-3.2731838 0.5641976 2.0366411 66
-4.1694031 0.7194286 2.0433607 28
nan nan nan 0
-8.0513859 1.3921598 2.0614188 10
-10.134868 1.7542355 1.524948 22
-9.7563181 1.6904668 0.49309966 39
-0.030799329 0.0058537559 1.9991974 39
-0.30974078 0.055376388 2.0008237 93
-0.40757397 0.071903065 2.0131991 91
-0.48816839 0.085790187 1.6307648 38
-0.80921054 0.1420849 1.9951125 81
-1.0409901 0.18260497 2.0033376 79
-1.3615558 0.23884353 2.1028829 27
-1.5933543 0.27950993 2.0127425 76
-0.12374189 0.023323294 2.0110476 37
-0.21678849 0.042013608 2.0132346 108
-0.49129081 0.087306544 1.957364 38
-0.49876216 0.088462934 1.4317083 46
-0.92586768 0.16390628 2.0071244 92
-1.1675785 0.20670301 2.0096743 85
-1.4390486 0.25476855 2.0092292 70
-1.7570674 0.31107539 2.0127058 85
-1.9362631 0.33757579 2.0112567 73
-2.3615375 0.41172412 2.0145898 62
-3.0379798 0.53020692 2.1065061 13
-3.6892014 0.64386582 2.0460486 54
-4.7502284 0.82989901 2.0366051 50
-6.5830731 1.1512953 2.0530517 25
-10.122784 1.7703468 2.0425136 21
-10.10501 1.7690557 1.0121237 16
-2.1403677 0.37624377 2.0160325 77
-2.6219602 0.46137327 2.0220401 67
-3.2711945 0.5756197 2.0366411 64
-4.1668663 0.73397815 2.0433607 58
-5.2977142 0.93412691 1.9603598 7
-8.0369043 1.4185662 2.0590742 12
-10.143312 1.7921871 1.5270175 20
-9.7356005 1.7219021 0.49249509 16
-0.030778706 0.00596123 1.9991974 39
-0.30954561 0.056457251 2.0008237 93
-0.4073205 0.073325314 2.0131991 87
-0.48786592 0.087493695 1.6307648 38
-0.80870968 0.1449087 1.9951125 81
-1.0403463 0.18623759 2.0033376 79
-1.3607138 0.24359478 2.1028829 27
-1.592369 0.28507006 2.0127425 74
-0.12365973 0.023755092 2.0110476 37
-0.21664052 0.042770084 2.0132346 106
-0.49098304 0.08902093 1.957364 38
-0.50014836 0.090510771 1.4364011 50
-0.92528987 0.16713715 2.0071244 92
-1.1668497 0.21077736 2.0096743 85
-1.4381504 0.25979018 2.0092292 67
-1.755971 0.3172068 2.0127058 85
-1.9350729 0.34433255 2.0112567 73
-2.3600857 0.41996491 2.0145898 64
-3.0361104 0.5408082 2.1065061 13
-3.68257 0.65596277 2.0437305 56
-4.7427382 0.84566146 2.0347321 32
-6.5790148 1.1742674 2.0530517 25
-10.135887 1.8091236 2.0462441 20
-10.084064 1.8016903 1.0107851 6
-2.1390414 0.38371274 2.0160325 75
-2.6203337 0.47052279 2.0220401 67
-3.2734087 0.58779675 2.0391736 64
-4.164279 0.74851876 2.0433607 59
-5.3037171 0.95428628 1.9636453 7
-8.0271196 1.4457499 2.0579019 20
-10.136993 1.827583 1.5270175 19
-9.7344475 1.7567626 0.49269664 7
-0.030757712 0.0060686311 1.9991974 40
-0.30934662 0.057537422 2.0008237 95
-0.40706205 0.074746683 2.0131991 87
-0.48755756 0.089196138 1.6307648 38
-0.8062771 0.14737941 1.99051 84
-1.0396899 0.18986794 2.0033376 81
-1.3598552 0.2483431 2.1028829 27
-1.5945177 0.29120269 2.0165794 76
-0.12357606 0.0241866 2.0110476 36
-0.21648988 0.043526042 2.0132346 105
-0.49066931 0.090734236 1.957364 38
-0.49982941 0.092256062 1.4364011 50
-0.9247008 0.17036599 2.0071244 92
-1.1661069 0.21484914 2.0096743 85
-1.4372349 0.26480871 2.0092292 61
-1.7548529 0.32333437 2.0127058 83
-1.9338591 0.35108513 2.0112567 73
-2.3586054 0.4282006 2.0145898 64
-3.0383182 0.55215055 2.1092477 12
-3.6802576 0.66881335 2.0437305 55
-4.7397575 0.86221153 2.0347321 32
-6.5748754 1.1972253 2.0530517 15
-10.148841 1.8480134 2.0499744 69
nan nan nan 0
-2.1376891 0.39117706 2.0160325 75
-2.6186752 0.47966659 2.0220401 67
-3.2713368 0.5992195 2.0391736 65
-4.1616406 0.76305026 2.0433607 57
-5.4396996 0.99836862 2.0129259 11
-8.0315857 1.4755177 2.0602465 20
-10.140292 1.8647478 1.528397 70
-10.091846 1.8576595 0.5076099 17
-0.030778995 0.0061851498 2.0041974 40
-0.3091439 0.058616892 2.0008237 93
-0.40679866 0.076167144 2.0131991 91
-0.48724324 0.090897486 1.6307648 37
-0.80575764 0.15019295 1.99051 84
-1.0390208 0.19349597 2.0033376 81
-1.3589799 0.25308836 2.1028829 28
-1.5934914 0.29676682 2.0165794 76
-0.12349088 0.024617815 2.0110476 35
-0.21633665 0.044281472 2.0132346 105
-0.49158567 0.092679545 1.9622031 38
-0.49950433 0.094000228 1.4364011 50
-0.92410046 0.17359278 2.0071244 90
-1.1653498 0.21891831 2.0096743 85
-1.4392639 0.27038047 2.0132186 57
-1.7570456 0.33008397 2.016381 85
-1.932622 0.35783342 2.0112567 73
-2.3570962 0.43643105 2.0145898 64
-3.0363722 0.5627529 2.1092477 12
-3.6735446 0.6808483 2.0414124 51
-4.7412777 0.87959689 2.0366051 34
-6.3348231 1.1763743 1.9825919 4
-10.142327 1.8834282 2.0499744 55
-9.7334051 1.8092486 0.97999662 2
-2.1363106 0.39863661 2.0160325 73
-2.6209581 0.48954669 2.0249834 69
-3.2692254 0.61063492 2.0391736 65
-4.1589518 0.77757245 2.0433607 57
-5.4872417 1.0269064 2.0309954 20
-8.0311632 1.504439 2.0614188 16
-10.138589 1.9010453 1.5290868 75
-10.09512 1.8947184 0.50801295 9
-0.030757217 0.0062925508 2.0041974 39
-0.3089374 0.05969565 2.0008237 93
-0.40653032 0.077586673 2.0131991 91
-0.48692295 0.09259773 1.6307648 37
-0.80330926 0.1526399 1.9859076 88
-1.0383391 0.19712166 2.0033376 79
-1.3580883 0.25783053 2.1028829 28
-1.592446 0.30232731 2.0165794 78
-0.1234042 0.025048729 2.0110476 34
-0.21618074 0.045036353 2.0132346 106
-0.49125916 0.094394937 1.9622031 39
-0.49917313 0.095743254 1.4364011 50
-0.92348891 0.17681742 2.0071244 92
-1.1645787 0.22298479 2.0096743 85
-1.4383115 0.27540278 2.0132186 51
-1.7558827 0.33621517 2.016381 83
-1.9313611 0.36457735 2.0112567 73
-2.3555586 0.44465619 2.0145898 64
-3.0343895 0.5733484 2.1092477 12
-3.6711454 0.69366729 2.0414124 33
-4.7290678 0.89441854 2.0328591 36
-6.3825274 1.2082956 1.998093 3
-10.140518 1.9197338 2.0509071 56
-9.6829929 1.8348687 0.9759807 7
-2.1349061 0.4060913 2.0160325 75
-2.6192334 0.49869254 2.0249834 69
-3.2670739 0.62204295 2.0391736 66
-4.1562123 0.79208511 2.0433607 57
-5.4047642 1.0310107 2.0030696 7
-8.0306377 1.5333755 2.0625911 5
-10.136756 1.9373537 1.5297767 67
-10.083538 1.9290068 0.50781149 13
-0.030735064 0.006399875 2.0041974 40
-0.30872715 0.060773682 2.0008237 93
-0.40625703 0.079005249 2.0131991 91
-0.48659673 0.094296843 1.6307648 38
-0.80277151 0.15544306 1.9859076 86
-1.0376446 0.20074494 2.0033376 79
-1.35718 0.26256958 2.1028829 28
-1.591381 0.30788416 2.0165794 80
-0.123316 0.025479335 2.0110476 33
-0.21602222 0.045790691 2.0132346 107
-0.49216104 0.096350901 1.9670423 38
-0.49883592 0.09748511 1.4364011 50
-0.92286605 0.18003991 2.0071244 92
-1.1637932 0.22704858 2.0096743 85
-1.4373413 0.28042176 2.0132186 46
-1.7546985 0.34234229 2.016381 83
-1.9300766 0.37131685 2.0112567 73
-2.3539922 0.45287594 2.0145898 64
-3.0323699 0.58393687 2.1092477 12
-3.6687021 0.70647764 2.0414124 15
-4.6894999 0.90390122 2.0178747 16
-6.5572677 1.2651016 2.0516424 15
-10.143402 1.9569802 2.0527723 48
-9.9356842 1.9187036 0.9996298 19
-2.1334753 0.41354105 2.0160325 75
-2.6174765 0.50783235 2.0249834 69
-3.2648826 0.63344336 2.0391736 66
-4.1534219 0.80658823 2.0433607 57
-4.997828 0.97147626 1.8601562 3
-8.0300074 1.5623263 2.0637634 3
-10.139653 1.9746188 1.5311563 68
-10.047321 1.9584581 0.50660223 21
-0.030712537 0.006507121 2.0041974 40
-0.30851313 0.061850965 2.0008237 93
-0.40597877 0.080422871 2.0131991 93
-0.48626465 0.095994808 1.6307648 38
-0.80030739 0.15786617 1.9813049 88
-1.0369376 0.20436579 2.0033376 81
-1.3590161 0.26784962 2.1070161 28
-1.5902964 0.31343725 2.0165794 80
-0.12294305 0.025849581 2.0060561 31
-0.21586107 0.04654447 2.0132346 105
-0.49182171 0.098068275 1.9670423 39
-0.49849257 0.099225774 1.4364011 54
-0.92223203 0.18326023 2.0071244 92
-1.1629936 0.23110959 2.0096743 85
-1.4363537 0.28543732 2.0132186 40
-1.7534928 0.34846523 2.016381 85
-1.9287688 0.37805182 2.0112567 73
-2.352397 0.46109015 2.0145898 66
-3.0303128 0.5945183 2.1092477 12
-3.6618659 0.71842664 2.0390942 15
-4.6635709 0.9157986 2.0085096 10
-6.5528116 1.2879829 2.0516424 16
-10.14615 1.9942703 2.0546377 21
-10.070632 1.9812524 1.0125699 39
-2.132019 0.42098573 2.0160325 75
-2.6117227 0.5161823 2.0220401 67
-3.2626517 0.64483613 2.0391736 65
-4.1505809 0.82108146 2.0433607 58
-4.475564 0.88618255 1.6761755 3
-8.0245037 1.5903468 2.0637634 12
-10.137556 2.0109646 1.5318462 69
-10.045323 1.9944909 0.50680381 22
-0.030689636 0.0066142883 2.0041974 40
-0.30829537 0.062927499 2.0008237 95
-0.40569556 0.081839517 2.0131991 91
-0.4859266 0.097691603 1.6307648 38
-0.79783595 0.16027397 1.9767023 89
-1.0362179 0.2079841 2.0033376 81
-1.3580729 0.2725918 2.1070161 29
-1.5891926 0.31898648 2.0165794 76
-0.12285207 0.026278574 2.0060561 30
-0.21569729 0.047297679 2.0132346 104
-0.49147639 0.099784456 1.9670423 39
-0.4981432 0.10096524 1.4364011 52
-0.92158669 0.1864783 2.0071244 92
-1.1621797 0.23516779 2.0096743 87
-1.4353485 0.29044938 2.0132186 40
-1.7522656 0.35458395 2.016381 85
-1.9309347 0.38548031 2.0147614 73
-2.3507731 0.46929872 2.0145898 64
-3.0282192 0.60509241 2.1092477 12
-3.6593361 0.73120457 2.0390942 30
-4.6285248 0.9257077 1.9953983 10
-6.5670919 1.3146154 2.0572793 15
-10.143943 2.0306389 2.0555701 14
-10.127132 2.0291121 1.0183706 56
-2.1305366 0.42842531 2.0160325 75
-2.609905 0.52529573 2.0220401 67
-3.260381 0.65622097 2.0391736 66
-4.1432405 0.8346684 2.0412626 58
-4.2409787 0.85512835 1.5940412 4
-8.0236683 1.6193094 2.0649357 19
-10.140182 2.0482998 1.5332257 57
-10.067681 2.0354836 0.50801295 41
-0.030708848 0.006731309 2.009197 40
-0.30807382 0.064003274 2.0008237 93
-0.40540743 0.083255149 2.0131991 89
-0.48704582 0.099686757 1.6355366 38
-0.7953577 0.16266648 1.9720999 88
-1.0354856 0.21159992 2.0033376 79
-1.3571131 0.2773307 2.1070161 29
-1.5880696 0.32453185 2.0165794 76
-0.1227596 0.026707249 2.0060561 27
-0.21553087 0.048050322 2.0132346 104
-0.49112508 0.10149942 1.9670423 39
-0.49778771 0.10270346 1.4364011 52
-0.92093015 0.18969411 2.0071244 92
-1.1639062 0.23974933 2.0139403 87
-1.4372779 0.29606602 2.0172081 39
-1.7510173 0.36069837 2.016381 83
-1.9295774 0.39221823 2.0147614 73
-2.3491204 0.4775016 2.0145898 64
-3.021991 0.61482555 2.1065061 12
-3.6567614 0.74397361 2.0390942 59
-4.6207223 0.94093341 1.9935253 11
-6.5483608 1.3346566 2.0530517 8
-10.141606 2.0670166 2.0565028 11
-9.87113 2.0136838 0.99561387 21
-2.1290278 0.43585968 2.0160325 75
-2.6080556 0.53440279 2.0220401 67
-3.2580702 0.66759777 2.0391736 66
-4.1403017 0.84912592 2.0412626 57
-4.2842278 0.87942278 1.610468 4
-8.0179672 1.6473075 2.0649357 12
-10.137822 2.0846808 1.5339155 21
-10.016474 2.0615497 0.50619918 24
-0.030685164 0.0068384614 2.009197 40
-0.30784851 0.065078259 2.0008237 95
-0.40511432 0.084669784 2.0131991 93
-0.48669487 0.10138626 1.6355366 38
-0.78713441 0.16384909 1.9536898 88
-1.0347407 0.21521316 2.0033376 81
-1.3561368 0.28206623 2.1070161 28
-1.5869271 0.3300733 2.0165794 76
-0.12294824 0.027198613 2.0110476 26
-0.21536183 0.048802368 2.0132346 103
-0.49199864 0.10347209 1.9718815 39
-0.49742618 0.10444044 1.4364011 52
-0.9202624 0.19290759 2.0071244 92
-1.1630621 0.24381065 2.0139403 87
-1.4362358 0.30108127 2.0172081 38
-1.7497476 0.36680833 2.016381 83
-1.9281963 0.39895132 2.0147614 73
-2.3474395 0.48569867 2.0145898 64
-3.0198267 0.6253705 2.1065061 12
-3.6541421 0.75673348 2.0390942 60
-4.5357003 0.94012094 1.9598107 10
-6.5530567 1.3594555 2.0558703 7
-10.143949 2.1044004 2.058368 39
-9.8396616 2.043066 0.99338287 14
-2.1274934 0.44328868 2.0160325 73
-2.606174 0.54350334 2.0220401 69
-3.2557199 0.67896652 2.0391736 65
-4.1328692 0.86264569 2.0391645 55
-4.0869803 0.85381174 1.5414752 5
-8.0169258 1.6762803 2.066108 6
-10.140179 2.1220846 1.5352951 14
nan nan nan 0
-0.030661106 0.0069455309 2.009197 40
-0.30761948 0.066152453 2.0008237 95
-0.4048163 0.086083382 2.0131991 93
-0.48779908 0.10339428 1.6403083 38
-0.77126765 0.16335687 1.9168695 91
-1.0339832 0.21882376 2.0033376 81
-1.3551439 0.2867983 2.1070161 28
-1.5857652 0.33561069 2.0165794 78
-0.12285255 0.027627617 2.0110476 23
-0.21519017 0.049553826 2.0132346 101
-0.49163446 0.10518885 1.9718815 39
-0.49705857 0.10617615 1.4364011 50
-0.91958344 0.19611873 2.0071244 92
-1.162204 0.24786901 2.0139403 87
-1.435176 0.30609283 2.0172081 38
-1.7484566 0.37291387 2.016381 85
-1.926792 0.40567955 2.0147614 71
-2.3457298 0.49388981 2.0145898 66
-3.0135338 0.63504565 2.1037648 12
-3.6514783 0.76948428 2.0390942 59
-4.5233183 0.95403427 1.9560646 10
-6.5482717 1.3823217 2.0558703 10
-10.141348 2.1408112 2.0593007 42
-9.6814222 2.0454874 0.97955036 20
-2.1259332 0.45071232 2.0160325 73
-2.6042612 0.55259728 2.0220401 67
-3.2533302 0.69032693 2.0391736 65
-4.1253934 0.87612402 2.0370667 29
-4.0239248 0.85530865 1.5201203 5
-8.0110264 1.7042543 2.066108 5
-10.137552 2.1584988 1.535985 58
nan nan nan 0
-0.030636676 0.0070525166 2.009197 40
-0.3073867 0.067225844 2.0008237 93
-0.40451336 0.08749593 2.0131991 91
-0.48743519 0.10509639 1.6403083 38
-0.75923383 0.16357896 1.8892545 93
-1.0355551 0.22293594 2.0077264 77
-1.3541344 0.29152691 2.1070161 30
-1.584584 0.341144 2.0165794 73
-0.12303755 0.028121274 2.0160391 21
-0.21501589 0.050304677 2.0132346 101
-0.4924933 0.10717186 1.9767207 39
-0.49668494 0.10791056 1.4364011 54
-0.91889322 0.19932748 2.0071244 92
-1.1613318 0.25192434 2.0139403 87
-1.4340988 0.31110063 2.0172081 38
-1.7471441 0.37901485 2.016381 85
-1.9253643 0.41240284 2.0147614 73
-2.3439913 0.5020749 2.0145898 66
-3.0112987 0.64556098 2.1037648 12
-3.6487701 0.78222567 2.0390942 59
-4.615149 0.99024171 1.9953983 17
-6.5480967 1.406178 2.0572793 13
-10.143419 2.1782608 2.061166 30
-9.6742239 2.0792694 0.97955036 14
-2.1279976 0.4589178 2.0193572 75
-2.6062672 0.56253725 2.0249834 67
-3.2509007 0.70167899 2.0391736 56
-4.1178741 0.8895607 2.0349686 29
-3.9239833 0.84839225 1.4856241 9
-8.0145302 1.7342637 2.0684528 11
-10.139636 2.1959689 1.5373646 63
-10.03828 2.1758521 0.50801295 46
-0.030570773 0.0071435538 2.0041974 40
-0.30716208 0.068244807 2.0008237 92
-0.404221 0.088836864 2.0131991 91
-0.48854288 0.1070319 1.64508 38
-0.731969 0.16024582 1.8248191 96
-1.0348101 0.22636874 2.0077264 81
-1.3531604 0.29601577 2.1070161 30
-1.583444 0.34639677 2.0165794 73
-0.12323055 0.028573545 2.0210309 19
-0.21485679 0.050979916 2.0132346 101
-0.49215418 0.10871854 1.9767207 39
-0.49634346 0.1094704 1.4364011 54
-0.91822714 0.20237353 2.0071244 92
-1.1604899 0.25577408 2.0139403 89
-1.4330592 0.31585458 2.0172081 38
-1.7459447 0.38450179 2.016381 85
-1.9239861 0.4187853 2.0147614 73
-2.3423135 0.50984508 2.0145898 64
-3.0050554 0.65465313 2.1010232 12
-3.6461561 0.79432106 2.0390942 60
-4.6573114 1.0146037 2.0141287 17
-6.5483336 1.4277644 2.0586886 10
-10.14094 2.2129328 2.0620987 24
-9.6721401 2.1124012 0.97999662 10
-2.1264641 0.46597198 2.0193572 75
-2.6043873 0.57117689 2.0249834 67
-3.2486801 0.71188855 2.0391736 32
-4.0973268 0.89860398 2.0265765 38
-3.9259109 0.86172801 1.4872667 12
-8.0137901 1.7604765 2.0696251 9
-10.142361 2.229939 1.5387442 69
-10.060671 2.2138193 0.50922215 45
-0.030544387 0.0072555533 2.0041974 39
-0.30690986 0.069370151 2.0008237 93
-0.40389267 0.090317808 2.0131991 91
-0.48814732 0.10882177 1.64508 39
-0.70086628 0.15613002 1.7511787 97
-1.0339735 0.23015998 2.0077264 81
-1.3520663 0.30097336 2.1070161 30
-1.5821638 0.35219806 2.0165794 78
-0.12340166 0.029113462 2.0260224 17
-0.21465945 0.051804531 2.0132346 101
-0.49296027 0.11088356 1.9815599 39
-0.49591947 0.11137541 1.4364011 54
-0.91747934 0.20573767 2.0071244 92
-1.1595447 0.26002577 2.0139403 87
-1.4318919 0.32110488 2.0172081 38
-1.7444556 0.39120287 2.016381 85
-1.9224383 0.42583424 2.0147614 73
-2.3404293 0.51842666 2.0145898 64
-2.9985538 0.66475791 2.0982819 12
-3.6432202 0.80767953 2.0390942 61
-4.7031655 1.043525 2.0347321 23
-6.5428033 1.4528977 2.0586886 9
-10.142351 2.2522163 2.0639637 20
-9.6643333 2.1478374 0.97999662 28
-2.124742 0.47376269 2.0193572 75
-2.6022766 0.58071858 2.0249834 69
-3.2501309 0.72529632 2.0417061 24
-4.0849872 0.91235125 2.0223801 55
-3.7566595 0.83970988 1.42813 4
-8.011713 1.7922951 2.0707972 5
-10.143389 2.2710307 1.5401238 57
-10.02772 2.2469711 0.50821447 13
-0.030518873 0.0073621292 2.0041974 39
-0.30666587 0.070441037 2.0008237 93
-0.40357494 0.091727108 2.0131991 93
-0.48776448 0.11052507 1.64508 39
-0.66792512 0.15124007 1.6729357 98
-1.0331638 0.23376782 2.0077264 81
-1.3510073 0.30569112 2.1070161 31
-1.5809247 0.35771871 2.0165794 76
-0.12358075 0.029611977 2.031014 16
-0.21447732 0.052553516 2.0132346 101
-0.49257019 0.11260364 1.9815599 40
-0.49552765 0.11310582 1.4364011 54
-0.9167555 0.208939 2.0071244 92
-1.1586299 0.26407176 2.0139403 87
-1.4307624 0.32610115 2.0172081 38
-1.7430794 0.39728978 2.016381 85
-1.9209402 0.43254223 2.0147614 69
-2.3386054 0.52659315 2.0145898 66
-2.9921358 0.67430139 2.0955403 13
-3.6403787 0.82039183 2.0390942 61
-4.6633162 1.0517759 2.0197477 20
-6.5423717 1.4767839 2.0600977 7
-10.144011 2.2897692 2.065829 36
-9.6567774 2.1815593 0.97999662 53
-2.1230755 0.48117653 2.0193572 73
-2.6002336 0.58979869 2.0249834 69
-3.2475793 0.73663706 2.0417061 24
-4.0463705 0.91856718 2.0055959 19
-3.7260745 0.84654039 1.4182738 4
-8.010148 1.8213278 2.0719695 4
-10.145057 2.3086212 1.5415035 24
-10.044171 2.2875078 0.50922215 5
-0.030492989 0.0074686147 2.0041974 40
-0.30641809 0.071511082 2.0008237 92
-0.40424433 0.093364507 2.0180943 91
-0.48883116 0.11256222 1.6498517 39
-0.64454639 0.14831287 1.6177055 97
-1.0323415 0.23737282 2.0077264 81
-1.3499322 0.31040516 2.1070161 30
-1.5765423 0.36251655 2.0127425 76
-0.12347664 0.030043174 2.031014 16
-0.21377459 0.053172331 2.0082631 100
-0.49217412 0.11432235 1.9815599 40
-0.49512985 0.11483485 1.4364011 58
-0.91602063 0.2121378 2.0071244 92
-1.1577011 0.26811451 2.0139403 85
-1.4296154 0.33109349 2.0172081 38
-1.7416819 0.40337184 2.016381 85
-1.9194186 0.4392449 2.0147614 69
-2.3367529 0.53475314 2.0145898 66
-2.985688 0.68380833 2.0927989 14
-3.6374927 0.83309412 2.0390942 61
-4.664135 1.0690833 2.021621 21
-6.5371766 1.499612 2.0600977 6
-10.145532 2.3273611 2.0676944 31
-9.6491032 2.2152543 0.97999662 54
-2.1213827 0.48858452 2.0193572 75
-2.5981588 0.59887159 2.0249834 67
-3.2449884 0.74796873 2.0417061 39
-4.0519848 0.93472648 2.0097921 19
-3.7138941 0.85741717 1.4149885 4
-8.0037413 1.8492775 2.0719695 9
-10.146586 2.3462515 1.5428832 17
-10.050728 2.3259337 0.50982672 14
-0.030466732 0.0075750099 2.0041974 40
-0.30616662 0.072580241 2.0008237 92
-0.403916 0.094775014 2.0180943 87
-0.48843527 0.11426787 1.6498517 39
-0.62690365 0.14655875 1.5762829 96
-1.0315067 0.24097493 2.0077264 83
-1.3488405 0.31511542 2.1070161 30
-1.5752672 0.36801752 2.0127425 74
-0.12365201 0.030543912 2.0360055 15
-0.21358767 0.053918224 2.0082631 100
-0.49177209 0.11603966 1.9815599 40
-0.49472597 0.11656248 1.4364011 58
-0.9152745 0.21533403 2.0071244 93
-1.1542194 0.27155671 2.0096743 85
-1.4255171 0.33539146 2.0132186 38
-1.7402633 0.40944901 2.016381 83
-1.9178736 0.44594228 2.0147614 73
-2.3348722 0.54290676 2.0145898 67
-2.9751377 0.69233072 2.087316 15
-3.6302481 0.84478229 2.0367765 60
-4.6739197 1.0885122 2.02724 22
-6.5319023 1.5224218 2.0600977 14
-10.146914 2.3649914 2.0695596 25
-9.6364622 2.2477911 0.97955036 33
-2.1196644 0.49598658 2.0193572 75
-2.5960529 0.60793722 2.0249834 67
-3.2423575 0.75929123 2.0417061 66
-4.0575337 0.95093596 2.013988 22
-3.6143272 0.84772992 1.3804922 9
-8.0019693 1.8783153 2.0731418 10
-10.147978 2.3839204 1.5442629 61
-10.027958 2.357573 0.50922215 47
-0.030440107 0.007681312 2.0041974 40
-0.30591142 0.07364852 2.0008237 95
-0.40358269 0.096184365 2.0180943 87
-0.48948649 0.1163175 1.6546235 39
-0.61878508 0.14694041 1.5578727 96
-1.0306591 0.24457408 2.0077264 83
-1.3477322 0.31982183 2.1070161 30
-1.5739729 0.373514 2.0127425 74
-0.12354464 0.030975349 2.0360055 15
-0.21339816 0.054663457 2.0082631 99
-0.49136403 0.11775555 1.9815599 39
-0.4943161 0.11828867 1.4364011 62
-0.91451728 0.21852762 2.0071244 95
-1.1532644 0.27558401 2.0096743 87
-1.4243376 0.34036538 2.0132186 38
-1.7388234 0.41552114 2.016381 83
-1.9163053 0.45263419 2.0147614 73
-2.3329628 0.55105364 2.0145898 66
-2.9564257 0.69886392 2.07635 17
-3.6186543 0.8554107 2.0321403 60
-4.6926494 1.110157 2.0366051 21
-6.5265479 1.5452132 2.0600977 10
-10.148157 2.4026597 2.0714247 20
-9.6382475 2.2837112 0.98044276 7
-2.1179202 0.50338256 2.0193572 75
-2.5939147 0.61699545 2.0249834 67
-3.2396877 0.77060461 2.0417061 68
-4.0674357 0.96824676 2.020282 27
-5.4351206 1.2948254 2.0326381 2
-7.9953642 1.9062359 2.0731418 10
-10.149227 2.4216275 1.5456424 49
-9.9224815 2.3693559 0.50519156 22
-0.030413108 0.007787521 2.0041974 39
-0.30565247 0.074715897 2.0008237 93
-0.40225488 0.097352952 2.0131991 87
-0.48907748 0.11802542 1.6546235 39
-0.60687321 0.14635111 1.5302576 91
-1.0297991 0.24817027 2.0077264 79
-1.3466076 0.32452434 2.1070161 30
-1.5726595 0.37900591 2.0127425 76
-0.12343577 0.031406414 2.0360055 15
-0.21320607 0.055408023 2.0082631 99
-0.49094999 0.11947002 1.9815599 39
-0.49390018 0.12001344 1.4364011 62
-0.91374886 0.22171855 2.0071244 92
-1.1522956 0.27960798 2.0096743 85
-1.4231409 0.34533519 2.0132186 38
-1.740657 0.42238766 2.0200562 85
-1.9147136 0.45932055 2.0147614 73
-2.3310251 0.55919385 2.0145898 66
-2.9417703 0.70625108 2.0681257 27
-3.6113381 0.86700261 2.0298221 55
-3.588881 0.86227369 1.5795851 3
-6.5211143 1.5679855 2.0600977 9
-10.144485 2.4392171 2.0723574 15
-9.6447439 2.3208363 0.98178142 4
-2.1161499 0.51077241 2.0193572 75
-2.5917454 0.62604618 2.0249834 67
-3.2369778 0.78190851 2.0417061 66
-4.0772648 0.98563808 2.0265765 21
-5.4443378 1.3171208 2.0375662 2
-7.9933858 1.9352771 2.0743141 8
-10.150338 2.4593725 1.547022 41
-9.7684927 2.3686585 0.49914563 8
-0.030385738 0.007893635 2.0041974 39
-0.30538979 0.075782374 2.0008237 93
-0.4019126 0.098756492 2.0131991 91
-0.48866251 0.1197319 1.6546235 38
-0.60066593 0.14707455 1.5164499 86
-1.0289266 0.2517634 2.0077264 79
-1.3454667 0.32922289 2.1070161 30
-1.571327 0.38449317 2.0127425 76
-0.12332539 0.031837095 2.0360055 16
-0.21301134 0.056151912 2.0082631 99
-0.49052995 0.12118303 1.9815599 39
-0.49347824 0.12173674 1.4364011 64
-0.91296935 0.22490677 2.0071244 92
-1.1538448 0.28425241 2.0139403 85
-1.4219267 0.35030076 2.0132186 39
-1.7391719 0.42846116 2.0200562 85
-1.9130987 0.46600136 2.0147614 73
-2.3290589 0.56732726 2.0145898 66
-2.9189749 0.71156389 2.0544183 29
-3.5910733 0.87540638 2.0205503 34
-3.6128724 0.88138843 1.5908233 2
-6.5202622 1.5918769 2.061507 11
-10.131136 2.4734483 2.0714247 24
nan nan nan 0
-2.1143544 0.51815605 2.0193572 75
-2.5895443 0.63508916 2.0249834 67
-3.2342286 0.79320288 2.0417061 66
-4.0826154 1.002028 2.0307724 21
-5.4488792 1.33837 2.0408514 2
-7.9865818 1.9631674 2.0743141 7
-10.151309 2.497155 1.5484017 26
-9.7650156 2.4039369 0.49934715 5
-0.030357998 0.007999653 2.0041974 40
-0.30512342 0.076847918 2.0008237 93
-0.40156543 0.10015883 2.0131991 91
-0.48824158 0.12143692 1.6546235 38
-0.59446102 0.14775646 1.5026424 78
-1.0280415 0.25535351 2.0077264 79
-1.3443093 0.33391747 2.1070161 30
-1.5730865 0.39074868 2.0165794 78
-0.1232135 0.032267384 2.0360055 16
-0.21281403 0.056895118 2.0082631 99
-0.49010396 0.12289456 1.9815599 38
-0.49305031 0.12345856 1.4364011 62
-0.91217875 0.22809225 2.0071244 92
-1.1528455 0.28827837 2.0139403 87
-1.4206953 0.3552621 2.0132186 39
-1.7376658 0.43452936 2.0200562 86
-1.9114603 0.47267649 2.0147614 73
-2.3270645 0.57545376 2.0145898 66
-2.8961785 0.71672618 2.0407109 29
-3.605197 0.89219314 2.0298221 34
-3.4882748 0.86390394 1.5402514 2
-6.5193219 1.6157812 2.062916 14
-10.122441 2.5087974 2.0714247 24
-10.039162 2.4900169 1.0197092 31
-2.1125326 0.52553332 2.0193572 75
-2.5873115 0.64412451 2.0249834 67
-3.2314403 0.80448759 2.0417061 68
-4.0879006 1.0184673 2.0349686 22
-5.4716678 1.364237 2.0507076 3
-7.9843969 1.9922106 2.0754867 9
-10.152141 2.5349739 1.5497813 20
nan nan nan 0
-0.030329891 0.0081055732 2.0041974 40
-0.30485329 0.077912539 2.0008237 93
-0.40121338 0.10155994 2.0131991 87
-0.48926282 0.12350608 1.6593952 39
-0.58825868 0.14839683 1.4888349 69
-1.0271438 0.25894049 2.0077264 81
-1.3431355 0.33860794 2.1070161 30
-1.571713 0.39623737 2.0165794 76
-0.12282038 0.032622483 2.031014 17
-0.21261415 0.057637628 2.0082631 98
-0.48967198 0.1246046 1.9815599 38
-0.49261636 0.12517889 1.4364011 62
-0.91137701 0.23127496 2.0071244 90
-1.1518322 0.29230076 2.0139403 87
-1.4194466 0.36021906 2.0132186 39
-1.7361382 0.44059229 2.0200562 86
-1.9097987 0.47934586 2.0147614 73
-2.3288171 0.58452088 2.0177276 66
-2.8733816 0.7217381 2.0270035 26
-3.6063581 0.9058516 2.0321403 37
-3.3773327 0.84895104 1.4952986 3
-6.5136418 1.6385279 2.062916 15
-10.094567 2.5393226 2.0676944 16
-10.102849 2.5432811 1.0264024 23
-2.114306 0.53381836 2.022682 75
-2.5850475 0.65315199 2.0249834 67
-3.2286122 0.81576252 2.0417061 66
-4.1019206 1.0371808 2.0433607 27
-5.5218101 1.3972296 2.0704198 2
-7.9821062 2.0212626 2.076659 9
-10.15763 2.5740452 1.5518507 31
-10.174148 2.5801208 0.51708186 35
-0.030301411 0.0082113948 2.0041974 40
-0.30457947 0.078976192 2.0008237 92
-0.40085641 0.10295981 2.0131991 87
-0.48882872 0.12521316 1.6593952 38
-0.58205932 0.14899576 1.4750273 64
-1.0262338 0.26252431 2.0077264 79
-1.3419453 0.34329426 2.1070161 30
-1.5703202 0.40172124 2.0165794 78
-0.12242629 0.032975234 2.0260224 19
-0.21241166 0.058379438 2.0082631 97
-0.49045193 0.12662761 1.9863992 38
-0.49217638 0.12689768 1.4364011 64
-0.91056412 0.23445487 2.0071244 92
-1.1508049 0.29631963 2.0139403 87
-1.4181805 0.36517167 2.0132186 40
-1.7345897 0.44664988 2.0200562 85
-1.908114 0.48600939 2.0147614 73
-2.3267624 0.59264636 2.0177276 67
-2.8748968 0.73279649 2.0297451 22
-3.6160526 0.92171735 2.0390942 61
nan nan nan 0
-6.5125313 1.6624414 2.0643253 12
-10.09516 2.5769739 2.0695596 11
-10.180762 2.6007178 1.0344342 11
-2.1124294 0.54119539 2.022682 75
-2.5827518 0.66217148 2.0249834 67
-3.2257452 0.8270275 2.0417061 66
-4.0718985 1.0447253 2.0307724 20
-5.5443439 1.4235425 2.080276 2
-7.9797101 2.0503228 2.0778313 10
-10.162972 2.6131861 1.5539203 36
-10.189271 2.6218443 0.51808953 74
-0.030272564 0.0083171166 2.0041974 40
-0.30430195 0.080038898 2.0008237 93
-0.40049458 0.10435845 2.0131991 91
-0.48983419 0.12729447 1.6641669 39
-0.5796448 0.15053548 1.4704248 55
-1.025311 0.26610494 2.0077264 79
-1.3407388 0.34797642 2.1070161 30
-1.5689085 0.40720025 2.0165794 78
-0.12203122 0.033325635 2.0210309 22
-0.21220657 0.059120543 2.0082631 97
-0.49000689 0.12833883 1.9863992 37
-0.49339992 0.12905166 1.4410939 66
-0.90974021 0.2376319 2.0071244 93
-1.1497636 0.3003349 2.0139403 87
-1.4168972 0.37011984 2.0132186 40
-1.7330202 0.45270202 2.0200562 85
-1.9064057 0.49266696 2.0147614 73
-2.3246794 0.60076463 2.0177276 67
-2.8723214 0.74282724 2.0297451 22
-3.6128132 0.93433404 2.0390942 54
-4.6952987 1.2151581 2.0478432 19
-6.5066886 1.6851642 2.0643253 12
-10.124146 2.6220493 2.0770206 14
-10.181263 2.6387386 1.0353266 6
-2.1105275 0.54856592 2.022682 75
-2.5804245 0.67118299 2.0249834 67
-3.2228384 0.83828247 2.0417061 66
-4.0638347 1.0577892 2.0286746 20
-5.5073509 1.4345545 2.0687771 2
-7.9772077 2.0793903 2.0790036 8
-10.177747 2.6548953 1.5573692 29
-10.184892 2.6586573 0.51829106 74
-0.030243348 0.0084227379 2.0041974 40
-0.3040207 0.081100613 2.0008237 93
-0.40012786 0.1057558 2.0131991 91
-0.48938686 0.12900351 1.6641669 38
-0.57533735 0.15156242 1.4612198 51
-1.024376 0.26968232 2.0077264 83
-1.3395159 0.35265437 2.1070161 30
-1.5674775 0.41267425 2.0165794 78
-0.12163522 0.033673674 2.0160391 25
-0.21199891 0.059860922 2.0082631 96
-0.49077159 0.1303715 1.9912384 37
-0.49294642 0.13077314 1.4410939 66
-0.90890521 0.24080603 2.0071244 92
-1.1487081 0.30434647 2.0139403 87
-1.4155966 0.37506345 2.0132186 39
-1.7314292 0.45874861 2.0200562 85
-1.9046745 0.49931854 2.0147614 73
-2.3225682 0.60887563 2.0177276 66
-2.8737552 0.75391006 2.0324864 24
-3.5752482 0.93794584 2.0205503 20
-4.6775765 1.2280087 2.0422242 15
-6.5007668 1.7078665 2.0643253 14
-10.143437 2.6648624 2.0826163 33
-10.147909 2.6679304 1.0330956 13
-2.1085999 0.5559296 2.022682 75
-2.5780659 0.68018621 2.0249834 67
-3.219893 0.84952712 2.0417061 66
-4.0425649 1.0673339 2.020282 16
-5.5205731 1.4585952 2.0753479 2
-7.9745994 2.1084659 2.0801759 8
-10.168417 2.6904058 1.5573692 24
-10.204527 2.7018657 0.51950026 40
-0.030213762 0.0085282549 2.0041974 40
-0.30373576 0.082161352 2.0008237 93
-0.39975625 0.10715185 2.0131991 91
-0.49037638 0.13109681 1.6689386 39
-0.57291734 0.15306546 1.4566172 51
-1.0234283 0.27325642 2.0077264 81
-1.3355581 0.35660204 2.1028829 29
-1.5660274 0.41814324 2.0165794 78
-0.12151693 0.034098055 2.0160391 27
-0.21178867 0.060600568 2.0082631 95
-0.49031353 0.13208383 1.9912384 37
-0.49248695 0.13249306 1.4410939 67
-0.90805906 0.24397725 2.0071244 92
-1.1476388 0.30835441 2.0139403 87
-1.4142787 0.38000253 2.0132186 38
-1.7298174 0.46478966 2.0200562 83
-1.9029199 0.5059641 2.0147614 73
-2.3204288 0.61697924 2.0177276 66
-2.8711064 0.7639367 2.0324864 31
-3.5377026 0.94130683 2.0020061 21
-4.6643014 1.2419435 2.0384781 11
-6.4947653 1.7305481 2.0643253 13
-10.1673 2.7091069 2.0891445 27
-10.177029 2.7136011 1.0366652 31
-2.1066465 0.56328666 2.022682 75
-2.575676 0.68918121 2.0249834 67
-3.2169077 0.86076146 2.0417061 66
-4.0431986 1.0826125 2.0223801 16
-5.5154481 1.4778568 2.0753479 2
-7.9718847 2.137548 2.0813482 9
-10.1494 2.7233174 1.5559896 29
-10.185384 2.7348785 0.51909721 23
-0.030183807 0.0086336685 2.0041974 40
-0.3034471 0.083221085 2.0008237 93
-0.39937982 0.10854661 2.0131991 91
-0.48991576 0.13280775 1.6689386 39
-0.57049394 0.15455347 1.4520147 47
-1.0201558 0.27620107 2.0033376 79
-1.334305 0.36126184 2.1028829 29
-1.5645584 0.4236072 2.0165794 78
-0.12139717 0.034522023 2.0160391 29
-0.21157585 0.061339483 2.0082631 95
-0.49106285 0.13412601 1.9960775 37
-0.49202147 0.13421135 1.4410939 66
-0.90720195 0.24714546 2.0071244 95
-1.1465554 0.3123585 2.0139403 87
-1.4158516 0.38572922 2.0172081 37
-1.7281846 0.47082499 2.0200562 83
-1.9011421 0.5126034 2.0147614 73
-2.3182609 0.62507522 2.0177276 66
-2.8684223 0.77395415 2.0324864 38
-3.5429499 0.95595819 2.0066421 29
-4.668889 1.2606342 2.0422242 11
-6.4933167 1.7544599 2.0657346 12
-10.167268 2.7471435 2.0910099 24
-10.153073 2.7452099 1.0353266 23
-2.1046674 0.57063681 2.022682 75
-2.5732546 0.6981678 2.0249834 67
-3.2138836 0.87198532 2.0417061 66
-4.0393949 1.0967194 2.0223801 14
-5.5148134 1.4983385 2.0769906 3
-7.9690657 2.1666377 2.0825205 9
-10.149387 2.7613289 1.5573692 50
-10.190236 2.7743526 0.51970178 14
-0.030153487 0.0087389778 2.0041974 40
-0.30315477 0.084279813 2.0008237 93
-0.39899844 0.10994004 2.0131991 91
-0.48944923 0.13451706 1.6689386 39
-0.56995094 0.15654394 1.4520147 44
-1.0191855 0.27976036 2.0033376 77
-1.3303224 0.36517233 2.0987501 29
-1.5630701 0.42906591 2.0165794 74
-0.12127592 0.034945566 2.0160391 31
-0.21136044 0.062077641 2.0082631 95
-0.49059165 0.13583933 1.9960775 37
-0.49154997 0.135928 1.4410939 62
-0.90633368 0.25031069 2.0071244 95
-1.1454581 0.31635883 2.0139403 87
-1.4174018 0.39147151 2.0211978 35
-1.7265304 0.47685459 2.0200562 85
-1.9027811 0.52017695 2.018266 73
-2.3198202 0.63419026 2.0208654 66
-2.8657031 0.78396207 2.0324864 45
-3.5481372 0.97065759 2.0112782 32
-4.6644607 1.2769239 2.0422242 12
-6.4871526 1.7771151 2.0657346 12
-10.14814 2.7800214 2.0891445 23
-10.153033 2.7832668 1.036219 16
-2.1026626 0.57797998 2.022682 75
-2.5746989 0.70821792 2.0279264 69
-3.2066629 0.88205516 2.0391736 54
-4.0136633 1.1047904 2.0118899 12
-5.514102 1.5188336 2.0786333 3
-7.9661403 2.1957333 2.0836928 9
-10.091948 2.7835727 1.5504711 23
-10.18049 2.809906 0.51970178 19
-0.0301228 0.00884418 2.0041974 40
-0.30285871 0.085337505 2.0008237 95
-0.39861226 0.11133215 2.0131991 91
-0.48897669 0.13622473 1.6689386 38
-0.56751895 0.1580084 1.447412 40
-1.0182027 0.28331628 2.0033376 77
-1.3263284 0.36905938 2.0946171 29
-1.5615629 0.43451947 2.0165794 74
-0.12115321 0.035368685 2.0160391 32
-0.21114247 0.062815048 2.0082631 95
-0.49132547 0.13789092 2.0009167 37
-0.49107251 0.13764299 1.4410939 62
-0.9054544 0.25347286 2.0071244 92
-1.1443468 0.3203553 2.0139403 87
-1.4189289 0.39722931 2.025187 33
-1.7248554 0.48287845 2.0200562 85
-1.9009538 0.52681571 2.018266 73
-2.3175921 0.64228404 2.0208654 66
-2.8669784 0.79507786 2.035228 58
-3.5532663 0.98540491 2.0159142 34
-4.6644425 1.294438 2.0440972 9
-6.4855323 1.8010324 2.0671437 10
-10.048444 2.7904544 2.0714247 14
-10.143256 2.8186905 1.036219 12
-2.1006324 0.58531612 2.022682 75
-2.5722113 0.71720099 2.0279264 66
-3.1994119 0.89208513 2.0366411 44
nan nan nan 0
-5.5178642 1.540612 2.0819185 2
-7.9677906 2.2261429 2.0860374 7
-10.08694 2.8201165 1.5511609 16
-9.8049688 2.7431278 0.50438541 24
-0.030050099 0.0089362552 1.9991974 40
-0.30255899 0.086394154 2.0008237 93
-0.39822122 0.11272289 2.0131991 91
-0.48993555 0.13833667 1.6737103 39
-0.56696391 0.15998845 1.447412 40
-1.0172076 0.28686878 2.0033376 79
-1.3223238 0.37292311 2.0904844 29
-1.5600367 0.43996769 2.0165794 78
-0.121029 0.035791375 2.0160391 34
-0.21092191 0.063551694 2.0082631 95
-0.49084115 0.13960512 2.0009167 37
-0.49058908 0.13935634 1.4410939 62
-0.90456408 0.25663194 2.0071244 92
-1.1432216 0.32434785 2.0139403 87
-1.4204333 0.40300256 2.0291767 30
-1.7231593 0.48889637 2.0200562 85
-1.8991034 0.5334481 2.018266 73
-2.3153362 0.65037006 2.0208654 66
-2.8641856 0.80508071 2.035228 61
-3.5540698 0.99900103 2.0182323 34
-4.6643581 1.3119674 2.0459704 9
-6.4930596 1.8275594 2.0713713 4
-10.015 2.8188586 2.0667617 9
-10.027897 2.8243775 1.0264024 9
-2.0985765 0.59264517 2.022682 75
-2.5696921 0.72617525 2.0279264 52
-3.1962783 0.90324771 2.0366411 41
-3.0494223 0.86232173 1.5524164 3
-5.5169964 1.5611496 2.0835612 2
-7.9646473 2.2552662 2.0872097 6
-9.9674482 2.8242581 1.5352951 13
-9.804945 2.7800624 0.50478846 20
-0.030018725 0.0090410952 1.9991974 40
-0.30225557 0.087449759 2.0008237 93
-0.39782533 0.11411224 2.0131991 91
-0.48944965 0.14004602 1.6737103 38
-0.5645237 0.16142936 1.4428096 39
-1.0162001 0.29041773 2.0033376 79
-1.3156027 0.37599 2.0822184 28
-1.5584913 0.44541052 2.0165794 78
-0.12062608 0.036130078 2.0110476 36
-0.21069878 0.064287558 2.0082631 95
-0.49035087 0.14131764 2.0009167 37
-0.49009964 0.14106795 1.4410939 62
-0.9036628 0.25978789 2.0071244 92
-1.1420825 0.32833648 2.0139403 87
-1.4219145 0.4087911 2.0331662 28
-1.7214423 0.49490833 2.0200562 83
-1.8972296 0.54007393 2.018266 67
-2.3130517 0.65844816 2.0208654 67
-2.8613579 0.81507367 2.035228 61
-3.5548213 1.0126146 2.0205503 35
-4.6642084 1.3295119 2.0478432 9
-6.4866409 1.8502133 2.0713713 4
-9.9011755 2.8241575 2.0462441 40
-9.9174128 2.8306611 1.017032 12
-2.0964952 0.59996688 2.022682 73
-2.5671415 0.73514074 2.0279264 36
-3.1889615 0.91321242 2.0341086 62
-3.0027642 0.86045879 1.531436 2
-5.5205927 1.5830013 2.0868468 2
-7.9660711 2.2857354 2.0895545 7
-9.9004097 2.842634 1.5270175 33
-9.8095875 2.8184097 0.50539309 13
-0.029986981 0.0091458242 1.9991974 40
-0.30194849 0.0885043 2.0008237 93
-0.39742458 0.11550022 2.0131991 91
-0.48895782 0.14175367 1.6737103 38
-0.5639568 0.16339894 1.4428096 39
-1.0174813 0.29462957 2.0077264 81
-1.3115791 0.37979728 2.0780854 27
-1.556927 0.45084795 2.0165794 78
-0.12049922 0.03655092 2.0110476 37
-0.21047311 0.065022647 2.0082631 95
-0.49106199 0.14338101 2.0057559 37
-0.48960423 0.14277786 1.4410939 62
-0.90275043 0.2629407 2.0071244 92
-1.1409295 0.33232108 2.0139403 87
-1.4233725 0.41459492 2.0371556 26
-1.7197042 0.50091428 2.0200562 85
-1.8953329 0.54669321 2.018266 67
-2.3107393 0.66651815 2.0208654 67
-2.8584955 0.82505667 2.035228 61
-3.5555215 1.0262455 2.0228682 34
-4.6639924 1.3470712 2.0497162 8
-6.5077949 1.8808364 2.0798266 11
-9.8959751 2.8600652 2.0471766 33
-9.8883343 2.8597276 1.0152471 29
-2.094388 0.60728139 2.022682 73
-2.5684419 0.74522358 2.0308697 31
-3.1857543 0.92433834 2.0341086 52
-2.9648745 0.86081159 1.5146515 2
-5.5286379 1.6062148 2.0917747 3
-7.9627104 2.3148851 2.0907266 5
-9.8904266 2.8771756 1.5270175 34
-9.7996893 2.8526344 0.50539309 5
-0.029954873 0.0092504425 1.9991974 42
-0.30163771 0.089557752 2.0008237 93
-0.39701897 0.11688679 2.0131991 93
-0.48989305 0.14388052 1.6784821 39
-0.56338292 0.16536652 1.4428096 39
-1.0164467 0.29817942 2.0077264 79
-1.3021449 0.38199681 2.0656867 27
-1.5553437 0.45627993 2.0165794 78
-0.1203709 0.036971319 2.0110476 38
-0.21024483 0.065756932 2.0082631 95
-0.49055845 0.14509428 2.0057559 39
-0.48744789 0.14399707 1.4364011 62
-0.9018271 0.26609027 2.0071244 93
-1.1397624 0.33630165 2.0139403 87
-1.4248075 0.42041391 2.0411453 25
-1.7179452 0.50691414 2.0200562 83
-1.8934131 0.5533058 2.018266 71
-2.3083987 0.67458004 2.0208654 64
-2.855598 0.83502972 2.035228 63
-3.5519176 1.0386505 2.0228682 34
-4.6637115 1.3646452 2.0515895 8
-6.4781699 1.8968012 2.0727806 13
-9.904789 2.9001131 2.0509071 29
-9.8926306 2.8984277 1.0165858 26
-2.0922554 0.6145885 2.022682 75
-2.565825 0.7541846 2.0308697 31
-3.1825085 0.93545312 2.0341086 52
-2.8878322 0.84938461 1.4789846 3
-5.5365882 1.6295035 2.0967026 3
-7.9545813 2.3426661 2.0907266 5
-9.9040756 2.9186814 1.5304664 26
-3.2103486 0.94668084 0.22869113 2
-0.029922402 0.009354949 1.9991974 40
-0.30132324 0.090610124 2.0008237 95
-0.39660856 0.11827193 2.0131991 85
-0.48938781 0.14558968 1.6784821 39
-0.56467485 0.16788891 1.447412 39
-1.0153997 0.30172566 2.0077264 79
-1.2954086 0.3849366 2.0574207 27
-1.5537417 0.46170628 2.0165794 78
-0.12024112 0.037391268 2.0110476 39
-0.21001405 0.066490427 2.0082631 93
-0.490049 0.14680575 2.0057559 39
-0.48694229 0.14569771 1.4364011 62
-0.90089273 0.26923659 2.0071244 93
-1.1385816 0.34027812 2.0139403 87
-1.4262189 0.42624786 2.0451348 23
-1.7161653 0.51290774 2.0200562 85
-1.8914701 0.55991173 2.018266 73
-2.3060298 0.68263382 2.0208654 62
-2.8526657 0.84499252 2.035228 63
-3.5482702 1.0510426 2.0228682 38
-4.667809 1.3835512 2.0553353 7
-6.4669099 1.9180385 2.0713713 15
-9.8946056 2.9346693 2.0509071 27
-9.887228 2.9343588 1.017032 25
-2.0900974 0.62188804 2.022682 73
-2.5631764 0.76313639 2.0308697 39
-3.1874874 0.94901693 2.0391736 60
-2.9457433 0.87760156 1.5083573 8
-5.5399179 1.6515181 2.0999882 3
-7.9510136 2.3718081 2.0918989 6
-9.8938265 2.9532354 1.5304664 22
-2.8719363 0.85779613 0.21458396 8
-0.029889563 0.00945934 1.9991974 42
-0.3010051 0.091661379 2.0008237 95
-0.3961933 0.11965564 2.0131991 85
-0.49030665 0.14772801 1.6832538 39
-0.56408542 0.16985895 1.447412 39
-1.0143403 0.30526826 2.0077264 79
-1.2886677 0.38783413 2.0491548 27
-1.5521204 0.46712708 2.0165794 78
-0.11983382 0.037723348 2.0060561 40
-0.20978066 0.067223102 2.0082631 93
-0.49073717 0.14888068 2.0105951 40
-0.48643076 0.14739655 1.4364011 60
-0.89994752 0.2723797 2.0071244 93
-1.1373869 0.34425044 2.0139403 87
-1.4276071 0.4320969 2.0491242 22
-1.7143644 0.51889521 2.0200562 83
-1.889504 0.56651074 2.018266 73
-2.303633 0.69067919 2.0208654 66
-2.8496985 0.854945 2.035228 56
-3.5488231 1.0646951 2.0251863 38
-4.6718316 1.4025023 2.0590816 7
-6.4509864 1.9378402 2.068553 14
-9.8984146 2.9734299 2.053705 40
-9.8960018 2.9745877 1.0188168 26
-2.0879138 0.62918007 2.022682 73
-2.5604973 0.77207893 2.0308697 64
-3.138751 0.94644648 2.0113168 46
-4.0680289 1.2274326 2.051753 31
-5.5748076 1.6831305 2.1147723 2
-7.9426866 2.3995478 2.0918989 7
-9.8976793 2.9920523 1.5325359 32
nan nan nan 0
-0.029856361 0.0095636165 1.9991974 40
-0.30068332 0.092711523 2.0008237 95
-0.3957732 0.12103786 2.0131991 93
-0.489788 0.1494386 1.6832538 38
-0.56348896 0.17182696 1.447412 39
-1.0132684 0.30880708 2.0077264 77
-1.2792307 0.38986886 2.0367558 27
-1.5504804 0.47254214 2.0165794 78
-0.11970141 0.038141415 2.0060561 42
-0.20954473 0.067954972 2.0082631 93
-0.49021453 0.15059276 2.0105951 51
-0.48591328 0.14909361 1.4364011 56
-0.89899117 0.2755194 2.0071244 92
-1.1361783 0.34821853 2.0139403 85
-1.4289718 0.43796071 2.0531137 21
-1.7125428 0.52487624 2.0200562 85
-1.8875152 0.57310289 2.018266 73
-2.301208 0.69871616 2.0208654 67
-2.8466971 0.86488712 2.035228 56
-3.5450852 1.0770763 2.0251863 37
-4.6757784 1.4214985 2.0628276 8
-6.4441824 1.9603465 2.068553 13
-9.8973742 3.010823 2.0555701 47
-9.8950863 3.0120134 1.0197092 24
-2.0857046 0.63646442 2.022682 73
-2.5577865 0.78101206 2.0308697 69
-3.0859485 0.94228852 1.9809276 17
-4.042017 1.2349942 2.0412626 23
-5.5418019 1.6942956 2.1049161 2
-7.9342613 2.427258 2.0918989 7
-9.8919096 3.0280325 1.5332257 51
-9.7827892 2.9964972 0.5064007 8
-0.029822797 0.0096677765 1.9991974 44
-0.30035791 0.093760543 2.0008237 93
-0.39534828 0.12241863 2.0131991 93
-0.49069032 0.15158826 1.6880255 38
-0.56288576 0.17379285 1.447412 39
-1.0121843 0.31234217 2.0077264 79
-1.2724842 0.39267227 2.0284901 27
-1.5488214 0.47795141 2.0165794 78
-0.11956754 0.038559023 2.0060561 44
-0.20879914 0.068518884 2.0032918 93
-0.48968586 0.15230301 2.0105951 58
-0.48538989 0.15078887 1.4364011 52
-0.89802396 0.27865583 2.0071244 92
-1.1349559 0.35218245 2.0139403 87
-1.4303128 0.4438394 2.0571032 20
-1.7107002 0.53085095 2.0200562 83
-1.888912 0.58073616 2.0217705 73
-2.2987549 0.70674461 2.0208654 66
-2.8396642 0.87358916 2.0324864 63
-3.5413039 1.0894444 2.0251863 33
-4.6752186 1.4391752 2.0647006 7
-6.4327159 1.9814168 2.0671437 13
-9.9008884 3.049691 2.058368 43
-9.8940296 3.0494692 1.0206017 37
-2.0834703 0.64374101 2.022682 75
-2.5550447 0.78993565 2.0308697 69
-3.0908782 0.95560151 1.9859924 17
-4.0376816 1.249096 2.0412626 23
-5.5403652 1.7150263 2.1065588 2
-7.9257412 2.4549389 2.0918989 7
-9.8907394 3.0654755 1.5346054 43
-9.7722692 3.0306273 0.5064007 39
-0.02978887 0.0097718183 1.9991974 44
-0.30002877 0.094808422 2.0008237 93
-0.39491856 0.12379792 2.0131991 91
-0.49015817 0.15330018 1.6880255 39
-0.56227571 0.17575663 1.447412 39
-1.0110879 0.31587347 2.0077264 81
-1.2684199 0.39627251 2.0243571 26
-1.5471437 0.48335493 2.0165794 78
-0.11943221 0.038976155 2.0060561 45
-0.20855871 0.069247313 2.0032918 93
-0.48915124 0.15401141 2.0105951 64
-0.48650673 0.15300006 1.4410939 46
-0.89704585 0.28178877 2.0071244 92
-1.1337196 0.35614201 2.0139403 87
-1.4316301 0.44973263 2.0610926 20
-1.7088367 0.53681916 2.0200562 83
-1.8868734 0.58732611 2.0217705 73
-2.2962739 0.71476448 2.0208654 66
-2.8365977 0.88349611 2.0324864 55
-3.5374794 1.1017991 2.0251863 33
-4.679019 1.4582449 2.0684466 7
-6.4257603 2.0038593 2.0671437 13
-9.8995619 3.087158 2.0602334 37
-9.8975868 3.0884376 1.0219404 28
-2.0812106 0.6510098 2.022682 73
-2.5522718 0.79884958 2.0308697 69
-3.0546086 0.95608246 1.9657331 20
-4.0419593 1.2658955 2.045459 30
-5.5343447 1.7343552 2.1065588 2
-7.9217615 2.4840446 2.0930712 7
-9.8941536 3.10443 1.5366749 43
-9.761631 3.0647204 0.5064007 30
-0.029754575 0.0098757409 1.9991974 42
-0.299696 0.095855139 2.0008237 92
-0.39448401 0.1251757 2.0131991 93
-0.48962009 0.15501021 1.6880255 38
-0.55979627 0.17712885 1.4428096 39
-1.0099791 0.31940091 2.0077264 79
-1.2616628 0.39900067 2.0160913 26
-1.545447 0.48875251 2.0165794 78
-0.11902063 0.039301556 2.0010643 47
-0.2083157 0.069974899 2.0032918 93
-0.48861066 0.15571791 2.0105951 73
-0.48596969 0.15469734 1.4410939 44
-0.89605677 0.28491837 2.0071244 92
-1.1324695 0.36009726 2.0139403 87
-1.4329239 0.45564061 2.0650823 19
-1.7069526 0.54278088 2.0200562 83
-1.8848116 0.59390891 2.0217705 73
