# .PCD v0.7 - Point Cloud Data file format
VERSION 0.7
FIELDS x y z intensity
SIZE 4 4 4 4
TYPE F F F F
COUNT 1 1 1 1
WIDTH 1423
HEIGHT 1
VIEWPOINT 0 0 0 1 0 0 0
POINTS 1423
DATA ascii
0.9868136 0.65739226 2.0096743 93
1.2187669 0.81190741 2.0132186 84
1.5301892 1.0193616 2.0715086 61
1.6832565 1.1277026 2.0708342 62
1.9850656 1.3298957 2.0083144 67
2.4407701 1.6345769 2.0105548 64
3.0601094 2.0493419 2.0135961 62
3.9609251 2.6516118 2.0141287 28
5.4823413 3.6687262 2.0276861 28
5.8297768 3.9012263 1.4232538 68
5.819694 3.8930085 0.7203024 70
1.9065169 1.2734191 2.1224275 18
2.2006412 1.4693172 2.0102675 69
2.7228894 1.8180057 2.0087843 64
3.5267396 2.3538256 2.0475569 8
4.6124182 3.0772679 2.017854 43
5.6088953 3.7406723 1.7167574 87
5.8138785 3.8759129 1.0655307 75
4.8389478 3.224741 0.3282474 5
0.026404565 0.016982388 2.0041974 42
0.27444798 0.18077961 2.0897303 88
0.35019305 0.23183097 2.0425706 30
0.50896567 0.33741611 1.9981875 88
0.68796253 0.45623803 2.0043178 93
0.87870604 0.58294261 1.9989488 85
1.1003245 0.72995961 2.0119584 85
1.3560386 0.89959538 2.0242534 40
0.1050713 0.067808852 1.9960728 89
0.18570188 0.1184976 2.0082631 103
0.42691681 0.28185457 2.0057559 88
0.59685552 0.39432618 1.9995331 89
0.78070253 0.51616669 1.9981228 95
0.98910224 0.65394354 2.0096743 93
1.2215936 0.80764812 2.0132186 91
1.533738 1.0140141 2.0715086 61
1.6842129 1.1198455 2.0673294 64
1.9896957 1.3229586 2.0083144 67
2.4464612 1.6260469 2.0105548 64
3.0672443 2.0386477 2.0135961 62
3.9701567 2.6377697 2.0141287 34
5.4951143 3.6495669 2.0276861 27
5.8310833 3.8726997 1.4204558 68
5.8208013 3.8644073 0.7189638 68
1.9109502 1.2667564 2.1224275 18
2.2057564 1.4616265 2.0102675 71
2.7292187 1.8084899 2.0087843 64
3.5273671 2.3364885 2.0433607 10
4.6191945 3.0585413 2.0162113 42
5.613812 3.7157054 1.7144127 78
5.8191123 3.8501303 1.064151 75
4.8376737 3.1995625 0.3276428 4
0.026463684 0.016890114 2.0041974 40
0.27507734 0.17982052 2.0897303 88
0.34929809 0.2294891 2.0327799 34
0.51014036 0.33563745 1.9981875 86
0.68955088 0.45383385 2.0043178 93
0.88073552 0.57987177 1.9989488 85
1.1028658 0.72611427 2.0119584 85
1.3591704 0.89485639 2.0242534 37
0.10530736 0.067441672 1.9960728 91
0.18611437 0.11784866 2.0082631 103
0.42789805 0.28036267 2.0057559 89
0.59822834 0.39224043 1.9995331 89
0.78249955 0.5134384 1.9981228 95
0.9913789 0.65048701 2.0096743 93
1.2244053 0.80337906 2.0132186 91
1.5401026 1.010514 2.0751836 64
1.6881117 1.1139598 2.0673294 62
1.9943016 1.3160052 2.0083144 67
2.4521222 1.6174974 2.0105548 61
3.0743418 2.0279286 2.0135961 62
3.9754701 2.6213431 2.0122557 37
5.5118251 3.6330032 2.0290954 27
5.8281598 3.8415082 1.4167253 69
5.8259377 3.8385849 0.71807134 70
1.9153606 1.2600783 2.1224275 18
2.2108452 1.4539181 2.0102675 69
2.7355149 1.7989521 2.0087843 65
3.5279167 2.319175 2.0391645 10
4.6298428 3.0423987 2.0162113 42
5.6186223 3.6907492 1.7120681 61
5.8200974 3.82164 1.0620816 78
4.8571658 3.188139 0.32804585 7
0.02652248 0.016797636 2.0041974 40
0.27635527 0.17928194 2.0946693 88
0.34924406 0.22771236 2.0278847 37
0.51130885 0.33385465 1.9981875 86
0.69113088 0.45142409 2.0043178 93
0.88275427 0.57679397 1.9989488 85
1.1053936 0.72226018 2.0119584 85
1.3622857 0.89010656 2.0242534 32
0.10554213 0.067073666 1.9960728 89
0.18652461 0.11719829 2.0082631 103
0.42887414 0.2788673 2.0057559 89
0.59959388 0.3901498 1.9995331 87
0.78428698 0.51070386 1.9981228 95
0.99364352 0.64702249 2.0096743 95
1.2272022 0.79910016 2.0132186 89
1.5436206 1.0051318 2.0751836 71
1.6919898 1.1080602 2.0673294 62
1.9988831 1.3090357 2.0083144 69
2.4577532 1.6089278 2.0105548 61
3.0814016 2.0171845 2.0135961 61
3.9845955 2.6074502 2.0122557 39
5.5284886 3.6163676 2.0305047 29
5.8292017 3.8130739 1.4139274 70
5.826797 3.8100493 0.71673274 73
1.9166201 1.251343 2.1191025 19
2.2159071 1.4461919 2.0102675 69
2.7417779 1.7893924 2.0087843 64
3.5245872 2.2994068 2.0328705 10
4.6404338 3.0262189 2.0162113 44
5.619256 3.6631508 1.7085512 30
5.8209553 3.7931895 1.0600121 79
nan nan nan 0
0.026580956 0.016704954 2.0041974 39
0.27697942 0.17831619 2.0946693 88
0.34832701 0.22538577 2.0180943 39
0.51247114 0.33206785 1.9981875 86
0.69270241 0.44900882 2.0043178 93
0.88476229 0.57370901 1.9989488 85
1.1079082 0.71839726 2.0119584 85
1.3653846 0.88534594 2.0242534 29
0.10577562 0.066704839 1.9960728 89
0.18693258 0.11654648 2.0082631 103
0.42984492 0.27736852 2.0057559 93
0.60095215 0.38805446 1.9995331 89
0.78606492 0.50796306 1.9981228 95
0.99589598 0.64355004 2.0096743 93
1.229984 0.79481161 2.0132186 91
1.5471197 0.99973744 2.0751836 61
1.6958474 1.1021475 2.0673294 56
2.0034404 1.3020504 2.0083144 69
2.4633543 1.6003389 2.0105548 66
3.0884242 2.0064163 2.0135961 61
3.989785 2.5910006 2.0103827 43
5.5410781 3.5970476 2.0305047 32
5.8301153 3.7846789 1.4111297 70
5.8275285 3.7815537 0.71539414 73
1.9209765 1.2446452 2.1191025 21
2.2209415 1.4384481 2.0102675 71
2.7480073 1.7798108 2.0087843 64
3.5249727 2.2821565 2.0286746 10
4.6509695 3.0100026 2.0162113 42
5.6197658 3.6355937 1.7050341 30
5.8216853 3.7647798 1.0579426 79
5.5631933 3.5962408 0.3608954 6
0.026639104 0.016612068 2.0041974 39
0.27760017 0.17734827 2.0946693 85
0.3482548 0.22361842 2.0131991 48
0.51237082 0.3294692 1.9934158 84
0.69426554 0.4465881 2.0043178 93
0.88877428 0.57191366 2.0033376 89
1.1104091 0.71452558 2.0119584 85
1.3684667 0.88057446 2.0242534 29
0.10600781 0.066335216 1.9960728 89
0.18733826 0.11589325 2.0082631 102
0.43081051 0.27586642 2.0057559 95
0.60230297 0.38595435 1.9995331 89
0.78783321 0.50521612 1.9981228 95
0.9981364 0.64006978 2.0096743 93
1.232751 0.79051334 2.0132186 89
1.5506002 0.99433094 2.0751836 61
1.6996841 1.0962211 2.0673294 56
2.0079732 1.2950492 2.0083144 67
2.4654114 1.5894649 2.0078135 66
3.0954092 1.9956235 2.0135961 60
3.9949081 2.5745463 2.0085096 44
5.5576334 3.5802817 2.031914 35
5.8309021 3.7563241 1.4083319 70
5.8323193 3.7557964 0.71450168 73
1.9221686 1.2359126 2.1157777 23
2.225949 1.4306868 2.0102675 71
2.7542031 1.7702076 2.0087843 64
3.5252805 2.2649317 2.0244782 10
4.661448 2.9937491 2.0162113 42
5.620151 3.6080768 1.7015172 23
5.822288 3.7364116 1.0558733 77
5.5967379 3.5902879 0.36190304 5
0.026734347 0.016541418 2.009197 39
0.27821749 0.17637818 2.0946693 85
0.34817448 0.22185434 2.0083039 52
0.5135178 0.32767868 1.9934158 84
0.69582015 0.44416195 2.0043178 93
0.89076525 0.56880772 2.0033376 87
1.1128964 0.7106452 2.0119584 85
1.3742343 0.87751764 2.0280902 31
0.10623872 0.065964773 1.9960728 91
0.18774167 0.11523862 2.0082631 102
0.43177083 0.2743609 2.0057559 95
0.60364652 0.38384959 1.9995331 89
0.78959191 0.50246292 1.9981228 95
1.0003645 0.63658178 2.0096743 93
1.2355028 0.78620535 2.0132186 89
1.5540615 0.98891217 2.0751836 73
1.7004969 1.0883591 2.0638251 64
2.0124815 1.2880321 2.0083144 67
2.4709446 1.5808492 2.0078135 66
3.1023564 1.9848062 2.0135961 60
3.9999654 2.5580883 2.0066366 44
5.5741386 3.5634439 2.033323 38
5.831562 3.7280097 1.4055339 69
5.8328047 3.72737 0.71316308 76
1.926471 1.2291955 2.1157777 27
2.2309294 1.4229082 2.0102675 71
2.7603655 1.760583 2.0087843 64
3.5293384 2.2501726 2.0223801 10
4.6678867 2.9749215 2.0145686 42
5.6163135 3.5779905 1.696828 23
5.8227634 3.7080855 1.0538038 77
4.9897094 3.1763513 0.33227801 4
0.026794795 0.01644332 2.009197 39
0.27886212 0.17535728 2.0946693 92
0.34898528 0.22057673 2.0083039 56
0.51471531 0.32579434 1.9934158 84
0.69744343 0.44160867 2.0043178 93
0.89284402 0.56553912 2.0033376 87
1.1154935 0.70656145 2.0119584 82
1.3774413 0.87247497 2.0280902 33
0.10647979 0.065574944 1.9960728 91
0.18816277 0.11454973 2.0082631 103
0.43277353 0.27277654 2.0057559 95
0.60504937 0.38163453 1.9995331 91
0.79151547 0.49942747 1.9981228 95
1.0028014 0.63273603 2.0096743 93
1.2385126 0.78145564 2.0132186 91
1.5578471 0.98293781 2.0751836 66
1.7044744 1.0821192 2.0638251 52
2.0171888 1.2806474 2.0083144 67
2.4767222 1.5717822 2.0078135 66
3.1096103 1.9734222 2.0135961 60
4.0093145 2.5434105 2.0066366 43
5.587162 3.5429895 2.033323 46
5.8333869 3.6977007 1.4027361 70
5.8344536 3.6969497 0.71182448 80
1.9311765 1.2217892 2.1157777 30
2.2363768 1.4143317 2.0102675 71
2.7634616 1.7476666 2.0062518 63
3.534116 2.2341793 2.020282 10
4.6792755 2.9569759 2.0145686 40
5.6176825 3.5486114 1.693311 31
5.8279433 3.681427 1.0524241 78
4.8112259 3.0380099 0.32320911 2
0.026849175 0.016354375 2.009197 39
0.2794421 0.17443158 2.0946693 92
0.34885228 0.21887717 2.0034087 67
0.51579285 0.32408568 1.9934158 84
0.69890404 0.43929344 2.0043178 93
0.89471447 0.56257516 2.0033376 87
1.1178305 0.70285845 2.0119584 85
1.380327 0.8679024 2.0280902 34
0.10668527 0.065240107 1.9960728 89
0.18852171 0.11395804 2.0082631 103
0.43362832 0.27141562 2.0057559 95
0.60624534 0.37973183 1.9995331 89
0.79308051 0.49693841 1.9981228 95
1.0047842 0.62958246 2.0096743 95
1.2409614 0.77756089 2.0132186 93
1.5578843 0.97651076 2.0715086 66
1.7080536 1.076461 2.0638251 52
2.0214245 1.2739509 2.0083144 67
2.4819207 1.5635605 2.0078135 61
3.116137 1.9630995 2.0135961 58
4.0133624 2.5283313 2.0047636 43
5.5982652 3.5254195 2.033323 52
5.8325038 3.6715057 1.3999382 69
5.8376093 3.6732976 0.71093202 77
1.931843 1.2137294 2.112453 32
2.2408087 1.4072988 2.0102675 69
2.7686348 1.7394594 2.0062518 63
3.536886 2.2212694 2.0181842 11
4.6880283 2.9430792 2.0145686 40
5.6158357 3.5241771 1.6897941 28
5.8268933 3.6552074 1.0503547 78
4.4101806 2.7654326 0.3036606 3
0.026906099 0.016260553 2.009197 38
0.28004926 0.17345507 2.0946693 92
0.34961417 0.21765812 2.0034087 73
0.51692098 0.32228327 1.9934158 82
0.70043319 0.43685111 2.0043178 93
0.89667284 0.55944866 2.0033376 85
1.1178898 0.69746268 2.0078254 85
1.3833481 0.86307895 2.0280902 33
0.10692367 0.064848647 1.9960728 89
0.18893813 0.1132663 2.0082631 103
0.43462023 0.26982448 2.0057559 95
0.60763311 0.3775073 1.9995331 89
0.79481035 0.49416697 1.9981228 95
1.0069758 0.62607127 2.0096743 91
1.2436681 0.77322441 2.0132186 91
1.5614529 0.97079426 2.0715086 69
1.7118007 1.0704921 2.0638251 66
2.0258591 1.2668872 2.0083144 67
2.4873636 1.5548874 2.0078135 61
3.1229706 1.9522103 2.0135961 58
4.0226021 2.5136046 2.0047636 45
5.60708 3.502336 2.031914 64
5.8327842 3.643317 1.3971403 69
5.8377228 3.6449854 0.70959342 74
1.9360679 1.2069788 2.112453 33
2.2457078 1.3994684 2.0102675 69
2.7749915 1.7293004 2.0062518 63
3.5450037 2.2082911 2.0181842 15
4.6947751 2.9233809 2.0129259 40
5.6204615 3.4984331 1.6874495 28
5.8276372 3.6259778 1.0482852 79
4.3990755 2.7360573 0.30265298 3
0.026962696 0.016166536 2.009197 38
0.28065303 0.17247646 2.0946693 92
0.35037181 0.21643639 2.0034087 75
0.5180428 0.32047689 1.9934158 82
0.70195383 0.43440348 2.0043178 93
0.89862025 0.55631518 2.0033376 85
1.1203176 0.69355625 2.0078254 84
1.3836265 0.85655725 2.0242534 29
0.10714938 0.064475022 1.9960728 91
0.18933235 0.11260609 2.0082631 103
0.43555945 0.26830569 2.0057559 96
0.60894716 0.37538394 1.9995331 89
0.79653054 0.49138954 1.9981228 95
1.0091552 0.62255245 2.0096743 91
1.2463596 0.76887846 2.0132186 91
1.5648322 0.96533787 2.0715086 62
1.7155268 1.0645105 2.0638251 60
2.0302689 1.2598079 2.0083144 67
2.4927759 1.5461955 2.0078135 67
3.1297662 1.9412973 2.0135961 48
4.0313516 2.499548 2.0047636 44
5.607038 3.4751601 2.0276861 73
5.8329406 3.615171 1.3943424 69
5.8461771 3.6219628 0.70914716 74
1.9402694 1.2002132 2.112453 34
2.2505791 1.3916208 2.0102675 69
2.7846782 1.7218707 2.0087843 64
3.5526903 2.1959033 2.0181842 22
4.7049513 2.906975 2.0129259 40
5.616097 3.468576 1.6827601 23
5.8276167 3.5978088 1.0462158 79
4.4000964 2.7154374 0.30224991 3
0.027018964 0.01607232 2.009197 38
0.28058991 0.17109139 2.0897303 88
0.35112518 0.21521206 2.0034087 77
0.51915836 0.31866664 1.9934158 84
0.70346594 0.43195057 2.0043178 91
0.90055656 0.55317509 2.0033376 85
1.1227317 0.68964142 2.0078254 82
1.3866079 0.8517223 2.0242534 24
0.10737379 0.064100608 1.9960728 89
0.18972425 0.11194452 2.0082631 103
0.43649334 0.26678371 2.0057559 95
0.61025369 0.37325603 1.9995331 93
0.7982409 0.48860615 1.9981228 95
1.011322 0.61902606 2.0096743 93
1.249036 0.76452315 2.0132186 91
1.5681924 0.95986968 2.0715086 64
1.7161952 1.0566458 2.0603204 58
2.0346541 1.2527132 2.0083144 66
2.498158 1.5374845 2.0078135 66
3.1365232 1.9303603 2.0135961 48
4.0400524 2.4854605 2.0047636 44
5.6109619 3.4505408 2.0248678 82
5.8287873 3.5844953 1.390612 70
5.841815 3.5911021 0.70736235 74
1.9412646 1.1914798 2.109128 35
2.2554231 1.3837563 2.0102675 69
2.7906716 1.7121398 2.0087843 63
3.5603337 2.1834891 2.0181842 30
4.7150693 2.8905342 2.0129259 40
5.62817 3.448951 1.6827601 23
5.8274713 3.569684 1.0441463 78
4.379724 2.6817997 0.30083919 3
0.027037021 0.015956257 2.0041974 37
0.28118539 0.17011091 2.0897303 88
0.35187426 0.21398509 2.0034087 79
0.52026755 0.31685248 1.9934158 84
0.70496947 0.42949238 2.0043178 91
0.90248209 0.55002815 2.0033376 87
1.1251321 0.68571806 2.0078254 82
1.3895726 0.84687692 2.0242534 14
0.10759689 0.063725412 1.9960728 89
0.19011387 0.11128157 2.0082631 104
0.43742192 0.26525843 2.0057559 93
0.61155295 0.37112358 1.9995331 93
0.7999416 0.48581681 1.9981228 95
1.0112475 0.61413836 2.0054085 93
1.2516969 0.76015854 2.0132186 91
1.5715333 0.95438987 2.0715086 69
1.7137866 1.0469304 2.0533113 38
2.0390148 1.2456033 2.0083144 67
2.5035095 1.5287549 2.0078135 67
3.1432426 1.9194 2.0135961 58
4.0487037 2.4713428 2.0047636 42
5.6106868 3.4234376 2.0206404 87
5.8286839 3.5564516 1.3878142 69
5.8458109 3.5655022 0.70646989 75
1.9422221 1.1827538 2.1058033 34
2.2602394 1.375875 2.0102675 71
2.7966313 1.7023882 2.0087843 64
3.567934 2.1710479 2.0181842 37
4.725131 2.8740578 2.0129259 39
5.6235623 3.4191835 1.6780708 22
5.8272004 3.5416048 1.0420769 79
4.3506308 2.6431491 0.29902542 3
0.027092554 0.015861783 2.0041974 37
0.2817775 0.16912837 2.0897303 86
0.35261908 0.21275552 2.0034087 79
0.52137041 0.31503451 1.9934158 84
0.70646435 0.42702895 2.0043178 91
0.90439653 0.54687458 2.0033376 87
1.1275189 0.68178648 2.0078254 82
1.3925203 0.84202129 2.0242534 14
0.10781868 0.063349433 1.9960728 91
0.19050115 0.11061728 2.0082631 103
0.43834519 0.26372993 2.0057559 95
0.61284465 0.36898661 1.9995331 91
0.80163252 0.48302153 1.9981228 95
1.0133851 0.6106047 2.0054085 93
1.2543428 0.75578469 2.0132186 91
1.5748551 0.94889838 2.0715086 64
1.7143809 1.0390935 2.0498068 38
2.0433502 1.2384783 2.0083144 67
2.5088305 1.5200068 2.0078135 67
3.1499233 1.9084163 2.0135961 58
4.0573053 2.4571953 2.0047636 42
5.610291 3.3963788 2.0164127 91
5.8242536 3.5259082 1.3840836 68
5.8411789 3.5347614 0.70468509 78
1.9431428 1.174036 2.1024785 33
2.2650282 1.3679769 2.0102675 71
2.8025565 1.6926157 2.0087843 64
3.5716052 2.1562343 2.0160861 42
4.7351341 2.8575466 2.0129259 40
5.6354632 3.3995328 1.6780708 22
5.8225646 3.5110137 1.0393176 77
4.3298798 2.6098928 0.29761469 3
0.027147755 0.015767116 2.0041974 37
0.28236616 0.16814375 2.0897303 86
0.35335958 0.21152335 2.0034087 79
0.5224669 0.31321266 1.9934158 82
0.70795065 0.42456034 2.0043178 91
0.90630001 0.54371434 2.0033376 87
1.1298919 0.67784661 2.0078254 82
1.3954509 0.8371554 2.0242534 23
0.10803915 0.062972695 1.9960728 91
0.19088611 0.10995163 2.0082631 103
0.43818304 0.26155359 2.0009167 95
0.61412895 0.3668451 1.9995331 91
0.80331373 0.48022032 1.9981228 95
1.0155103 0.60706359 2.0054085 91
1.2569733 0.7514016 2.0132186 91
1.5781578 0.94339526 2.0715086 64
1.7118852 1.0294272 2.0427978 38
2.0476608 1.231338 2.0083144 67
2.5141213 1.5112402 2.0078135 67
3.1565657 1.8974096 2.0135961 58
4.0658579 2.4430177 2.0047636 44
5.6138878 3.3718345 2.0135944 94
5.8070488 3.4878516 1.3775553 68
nan nan nan 0
1.944026 1.165326 2.0991535 30
2.2697897 1.3600622 2.0102675 69
2.8084478 1.6828226 2.0087843 64
3.5791101 2.143754 2.0160861 48
4.74508 2.8410006 2.0129259 40
nan nan nan 0
5.8092866 3.4754133 1.0351788 15
4.2875099 2.5639932 0.29519632 3
0.027202627 0.015672255 2.0041974 37
0.28295138 0.16715708 2.0897303 86
0.35409579 0.21028861 2.0034087 79
0.52355701 0.311387 1.9934158 86
0.70942831 0.42208654 2.0043178 89
0.9081924 0.54054743 2.0033376 87
1.1322513 0.6738984 2.0078254 78
1.3983648 0.83227926 2.0242534 36
0.10825831 0.062595189 1.9960728 91
0.19126876 0.10928464 2.0082631 103
0.43909335 0.26002246 2.0009167 95
0.61540568 0.36469918 1.9995331 91
0.80498511 0.47741336 1.9981228 95
1.0176232 0.60351509 2.0054085 93
1.2595885 0.7470094 2.0132186 93
1.5785252 0.93615139 2.0678334 59
1.7124053 1.021618 2.0392931 38
2.0519464 1.2241828 2.0083144 67
2.519381 1.5024551 2.0078135 67
3.1631696 1.8863795 2.0135961 58
4.0743608 2.4288104 2.0047636 44
5.6132598 3.3448505 2.0093668 97
5.789649 3.4499581 1.371027 6
nan nan nan 0
1.9448724 1.1566243 2.0958288 27
2.2745233 1.3521309 2.0102675 69
2.8143046 1.673009 2.0087843 64
3.5826697 2.1289291 2.013988 36
4.7549677 2.8244197 2.0129259 39
nan nan nan 0
nan nan nan 0
4.2792468 2.538815 0.2943902 3
0.027257167 0.015577205 2.0041974 36
0.28353313 0.16616838 2.0897303 86
0.35482767 0.20905131 2.0034087 79
0.52592713 0.3103165 1.9981875 84
0.71089733 0.41960761 2.0043178 91
0.91007376 0.53737396 2.0033376 87
1.1345967 0.66994202 2.0078254 78
1.4012613 0.82739294 2.0242534 43
0.10847615 0.062216908 1.9960728 89
0.19164906 0.10861632 2.0082631 103
0.43999833 0.25848815 2.0009167 95
0.61667502 0.36254877 1.9995331 91
0.80664665 0.47460049 1.9981228 95
1.0197237 0.59995919 2.0054085 93
1.2621884 0.74260795 2.0132186 93
1.5817833 0.93063551 2.0678334 57
1.7128922 1.013818 2.0357888 37
2.0562072 1.2170129 2.0083144 69
2.5246103 1.4936516 2.0078135 67
3.169735 1.8753264 2.0135961 58
4.0788236 2.4122133 2.0028906 43
5.6125116 3.3179123 2.0051391 98
5.7593703 3.4047296 1.3617008 3
nan nan nan 0
1.9456813 1.1479307 2.0925038 24
2.2792294 1.3441828 2.0102675 69
2.8201275 1.6631751 2.0087843 64
3.5900793 2.1164103 2.013988 12
4.7647982 2.8078043 2.0129259 41
nan nan nan 0
nan nan nan 0
4.2880831 2.5238619 0.2943902 2
0.027311377 0.015481966 2.0041974 36
0.28411144 0.16517764 2.0897303 88
0.35555524 0.20781144 2.0034087 79
0.52700716 0.30847877 1.9981875 82
0.7123577 0.41712353 2.0043178 93
0.91194397 0.53419393 2.0033376 87
1.1369283 0.66597742 2.0078254 82
1.4041409 0.82249659 2.0242534 62
0.10869266 0.061837878 1.9960728 89
0.19202703 0.10794668 2.0082631 103
0.44089794 0.25695068 2.0009167 95
0.61793679 0.360394 1.9995331 91
0.80829847 0.47178191 1.9981228 95
1.0218117 0.59639609 2.0054085 95
1.264773 0.73819762 2.0132186 93
1.5820943 0.92339951 2.0641582 61
1.7164205 1.0078328 2.0357888 37
2.0604429 1.2098279 2.0083144 69
2.5298088 1.4848299 2.0078135 67
3.172441 1.862008 2.0112782 58
4.0872188 2.3979609 2.0028906 44
5.6157837 3.2934473 2.0023208 99
5.7500339 3.3721797 1.3570377 3
nan nan nan 0
1.9432307 1.1373591 2.0858543 22
2.2839077 1.3362188 2.0102675 69
2.8259161 1.6533209 2.0087843 64
3.597445 2.1038659 2.013988 12
4.7745705 2.7911553 2.0129259 40
nan nan nan 0
5.2766361 3.0821855 0.94343323 2
4.2709813 2.4937642 0.293181 2
0.027365252 0.015386537 2.0041974 36
0.2846863 0.16418491 2.0897303 88
0.35627845 0.20656906 2.0034087 79
0.52808076 0.30663729 1.9981875 80
0.71380937 0.41463441 2.0043178 93
0.91380304 0.53100741 2.0033376 89
1.139246 0.66200477 2.0078254 82
1.4042315 0.8159796 2.0204165 73
0.10890785 0.061458096 1.9960728 89
0.19240268 0.10727573 2.0082631 103
0.44179219 0.25541008 2.0009167 95
0.61919105 0.35823479 1.9995331 91
0.8099404 0.46895754 1.9981228 95
1.0238873 0.59282571 2.0054085 95
1.267342 0.7337783 2.0132186 93
1.585308 0.91787142 2.0641582 59
1.719928 1.0018351 2.0357888 37
2.0646534 1.2026283 2.0083144 69
2.5349762 1.4759902 2.0078135 66
3.1789212 1.8509228 2.0112782 57
4.0955648 2.3836792 2.0028906 45
5.6148057 3.266587 1.998093 100
5.7999835 3.3743198 1.3654313 72
5.8330989 3.3922234 0.69754571 79
1.9439598 1.1286943 2.0825293 22
2.288558 1.3282384 2.0102675 69
2.8316698 1.6434466 2.0087843 64
3.6047671 2.0912952 2.013988 21
4.7842836 2.774472 2.0129259 40
5.6056266 3.2494719 1.6534522 34
5.8358197 3.3815498 1.0317297 79
4.3401837 2.5138967 0.29600245 4
0.027418796 0.01529092 2.0041974 36
0.28525767 0.16319017 2.0897303 86
0.35611469 0.20481659 1.9985133 81
0.52914792 0.30479211 1.9981875 80
0.7152524 0.41214025 2.0043178 93
0.91357535 0.52661794 1.9989488 89
1.1415499 0.65802401 2.0078254 82
1.4070715 0.81107295 2.0204165 76
0.10886881 0.060936563 1.9910811 88
0.19277596 0.10660346 2.0082631 104
0.44268101 0.2538664 2.0009167 95
0.62043774 0.35607123 1.9995331 91
0.81157237 0.46612746 1.9981228 95
1.0259504 0.589248 2.0054085 93
1.2698957 0.72934997 2.0132186 93
1.5885022 0.91233206 2.0641582 59
1.7234147 0.99582541 2.0357888 38
2.0688386 1.1954139 2.0083144 69
2.5401132 1.4671326 2.0078135 67
3.1853628 1.8398149 2.0112782 57
4.1038604 2.3693683 2.0028906 44
5.6178637 3.242172 1.9952747 98
5.8074718 3.3515983 1.3644986 71
5.8449044 3.3718414 0.69754571 79
1.9446516 1.1200377 2.0792046 22
2.2931805 1.3202418 2.0102675 71
2.8373892 1.6335522 2.0087843 64
3.615979 2.0809636 2.0160861 41
4.7939396 2.7577546 2.0129259 40
5.6169353 3.2298849 1.6534522 34
5.8347077 3.353755 1.0296602 78
4.3879189 2.5211313 0.29781622 5
0.027510475 0.015215702 2.009197 36
0.28650138 0.16257675 2.0946693 88
0.35682744 0.20357227 1.9985133 81
0.53020859 0.30294314 1.9981875 80
0.71668673 0.40964106 2.0043178 95
0.91540807 0.52342576 1.9989488 87
1.14384 0.65403521 2.0078254 84
1.409894 0.8061564 2.0204165 76
0.10908085 0.060556166 1.9910811 88
0.1931469 0.1059299 2.0082631 104
0.4435645 0.2523196 2.0009167 95
0.62167686 0.35390335 1.9995331 91
0.81319451 0.46329173 1.9981228 95
1.028001 0.5856632 2.0054085 93
1.2724338 0.72491276 2.0132186 91
1.5916772 0.90678161 2.0641582 57
1.7268802 0.98980355 2.0357888 36
2.072999 1.1881851 2.0083144 67
2.5415907 1.4561782 2.0050719 67
3.1917655 1.8286847 2.0112782 58
4.1121058 2.3550289 2.0028906 44
5.6166568 3.2153921 1.9910471 97
5.8404512 3.3435085 1.3691617 71
5.8393493 3.3415246 0.69576085 80
1.9453073 1.1113905 2.0758798 23
2.2977748 1.312229 2.0102675 71
2.8430741 1.6236379 2.0087843 64
3.6232207 2.0683289 2.0160861 51
4.8035369 2.741004 2.0129259 42
5.6281748 3.2102585 1.6534522 65
5.8291712 3.3235559 1.026901 79
4.4097142 2.5132205 0.29842082 5
0.027563419 0.015119581 2.009197 36
0.28706715 0.16157568 2.0946693 86
0.35753587 0.20232548 1.9985133 81
0.53126281 0.30109054 1.9981875 82
0.71811217 0.40713683 2.0043178 91
0.91722959 0.52022719 1.9989488 85
1.1461159 0.65003854 2.0078254 85
1.4099107 0.7996484 2.0165794 76
0.10929157 0.060175035 1.9910811 88
0.19351549 0.10525504 2.0082631 104
0.44444254 0.25076973 2.0009167 95
0.62290841 0.35173112 1.9995331 87
0.81480676 0.46045029 1.9981228 95
1.0300391 0.58207124 2.0054085 95
1.2749565 0.72046667 2.0132186 91
1.5889298 0.89788437 2.0568078 47
1.7272246 0.98200697 2.032284 36
2.0771339 1.1809418 2.0083144 67
2.5466583 1.4472976 2.0050719 67
3.1981297 1.8175322 2.0112782 60
4.1203012 2.3406606 2.0028906 45
5.619503 3.1910288 1.9882287 97
5.839272 3.315824 1.3663639 70
5.837985 3.313746 0.69442225 80
1.9459256 1.1027521 2.0725548 23
2.3023415 1.3042003 2.0102675 69
2.8487244 1.6137038 2.0087843 63
3.6304183 2.0556686 2.0160861 54
4.8089657 2.7218938 2.0112832 42
5.6393466 3.1905928 1.6534522 63
5.8234944 3.293437 1.0241417 79
4.4054127 2.4904368 0.29781622 5
0.027616028 0.015023274 2.009197 36
0.2876294 0.16057265 2.0946693 86
0.35912788 0.2015745 2.0034087 81
0.5310086 0.29850242 1.9934158 84
0.71952903 0.40462768 2.0043178 91
0.91903985 0.51702231 1.9989488 87
1.1483779 0.64603388 2.0078254 84
1.4126933 0.79472208 2.0165794 76
0.10975532 0.059931513 1.9960728 89
0.19388172 0.10457891 2.0082631 103
0.44531521 0.24921682 2.0009167 95
0.62413245 0.3495546 1.9995331 89
0.81640905 0.45760328 1.9981228 95
1.0320646 0.5784722 2.0054085 95
1.2774636 0.71601188 2.0132186 91
1.589097 0.89067501 2.0531328 50
1.7306418 0.97597182 2.032284 37
2.0778525 1.1717718 2.0051763 64
2.5516949 1.4383993 2.0050719 67
3.2044544 1.8063576 2.0112782 57
4.1284466 2.3262637 2.0028906 44
5.6180677 3.1643307 1.9840012 97
5.8422508 3.2905998 1.3644986 71
5.8408375 3.2884612 0.69352984 80
1.9465079 1.0941231 2.0692301 25
2.3068798 1.2961556 2.0102675 69
2.8505812 1.6016382 2.0062518 64
3.6375718 2.0429835 2.0160861 53
4.8184376 2.7050908 2.0112832 42
5.6292553 3.1589947 1.6475906 65
5.830636 3.2706666 1.0234518 79
4.405364 2.4701571 0.29741317 6
0.027668301 0.014926786 2.009197 36
0.28818816 0.15956765 2.0946693 88
0.35982931 0.20031968 2.0034087 83
0.53204733 0.29664704 1.9934158 84
0.72093707 0.40211362 2.0043178 89
0.92293131 0.51497847 2.0033376 89
1.1506261 0.64202136 2.0078254 82
1.4154588 0.78978592 2.0165794 76
0.10996386 0.059548032 1.9960728 88
0.19424559 0.10390151 2.0082631 104
0.44618243 0.24766086 2.0009167 93
0.62534875 0.34737387 1.9995331 89
0.81800139 0.45475072 1.9981228 95
1.0340775 0.57486612 2.0054085 93
1.279955 0.71154839 2.0132186 91
1.5862701 0.88182819 2.0457823 50
1.7340381 0.96992481 2.032284 37
2.0819302 1.1645116 2.0051763 64
2.5567 1.4294833 2.0050719 67
3.2107399 1.795161 2.0112782 57
4.1365418 2.3118386 2.0028906 43
5.6207032 3.1400216 1.9811827 96
5.840836 3.2629993 1.3617008 72
5.8435845 3.2631967 0.69263744 79
1.9470533 1.0855033 2.0659051 26
2.3113902 1.2880952 2.0102675 69
2.8561544 1.591678 2.0062518 62
3.644681 2.0302737 2.0160861 53
4.8237247 2.6859574 2.0096405 42
5.6275067 3.1322339 1.6440736 76
5.8290348 3.2430708 1.0213825 79
4.4052272 2.4499078 0.29701009 6
0.027720237 0.014830113 2.009197 36
0.28874338 0.15856071 2.0946693 90
0.36052635 0.19906242 2.0034087 83
0.53307956 0.29478803 1.9934158 84
0.72233629 0.3995946 2.0043178 89
0.92472327 0.51175368 2.0033376 87
1.1528602 0.63800097 2.0078254 82
1.4182072 0.78484029 2.0165794 76
0.11017105 0.05916382 1.9960728 88
0.19460708 0.10322282 2.0082631 104
0.44704416 0.24610187 2.0009167 93
0.62655759 0.34518886 1.9995331 91
0.81958383 0.45189255 1.9981228 95
1.0360779 0.57125294 2.0054085 93
1.2824312 0.70707613 2.0132186 91
1.5834011 0.87301201 2.0384321 39
1.7374132 0.96386594 2.032284 38
2.0859823 1.1572372 2.0051763 66
2.5616744 1.4205502 2.0050719 59
3.2169867 1.7839425 2.0112782 58
4.1445861 2.2973852 2.0028906 43
5.6232376 3.1157327 1.9783643 96
5.8393002 3.2354488 1.3589029 71
5.8462272 3.2379529 0.69174498 80
1.9475627 1.0768933 2.0625803 27
2.3158724 1.2800192 2.0102675 71
2.8616931 1.5816985 2.0062518 62
3.6517456 2.0175393 2.0160861 55
4.8330712 2.6691029 2.0096405 40
5.6213846 3.1031752 1.6393844 79
5.8316483 3.2179189 1.0200028 78
4.3962536 2.4248643 0.29620397 6
0.027771836 0.014733261 2.009197 36
0.28929514 0.15755185 2.0946693 86
0.36121905 0.19780274 2.0034087 81
0.5341053 0.29292545 1.9934158 75
0.72372675 0.39707074 2.0043178 88
0.9265039 0.50852269 2.0033376 89
1.1550801 0.63397288 2.0078254 84
1.4209381 0.77988505 2.0165794 76
0.1103769 0.058778893 1.9960728 89
0.19496621 0.10254288 2.0082631 104
0.44790053 0.2445399 2.0009167 89
0.62775868 0.34299967 1.9995331 89
0.82115626 0.44902897 1.9981228 95
1.0380656 0.56763297 2.0054085 93
1.2848914 0.70259535 2.0132186 89
1.5804898 0.8642267 2.0310817 37
1.7407671 0.95779538 2.032284 37
2.090009 1.1499487 2.0051763 67
2.5666175 1.4115995 2.0050719 59
3.2231946 1.7727021 2.0112782 60
4.1525803 2.2829041 2.0028906 42
5.6214662 3.0891535 1.9741368 96
5.8419485 3.2103145 1.3570377 73
5.8487644 3.2127311 0.69085258 80
1.9447614 1.0664973 2.0559306 28
2.3203266 1.2719275 2.0102675 71
2.867197 1.5716997 2.0062518 62
3.6627462 2.0069606 2.0181842 57
4.8382168 2.6499476 2.0079978 40
5.6193924 3.0765314 1.6358675 82
5.8341575 3.1927881 1.0186231 79
4.4134574 2.414299 0.29660705 6
0.027823094 0.01463623 2.009197 36
0.28915957 0.15617199 2.0897303 86
0.3619073 0.19654064 2.0034087 83
0.5351246 0.29105929 1.9934158 75
0.72510839 0.39454204 2.0043178 91
0.92827338 0.5052855 2.0033376 87
1.157286 0.62993699 2.0078254 84
1.4236518 0.77492028 2.0165794 76
0.1105814 0.058393247 1.9960728 89
0.19532299 0.1018617 2.0082631 104
0.44875142 0.24297494 2.0009167 89
0.62895215 0.34080631 1.9995331 89
0.82271862 0.44615984 1.9981228 95
1.0400407 0.56400591 2.0054085 93
1.2873361 0.69810587 2.0132186 91
1.5805165 0.85708833 2.0274065 37
1.7441 0.95171314 2.032284 37
2.0940106 1.1426462 2.0051763 67
2.5678582 1.4006296 2.0023305 66
3.2293625 1.7614404 2.0112782 48
4.1605239 2.2683949 2.0028906 42
5.6195774 3.0626249 1.9699092 96
5.8401785 3.1828506 1.3542398 73
5.8468232 3.1851485 0.68951398 78
1.9451916 1.057918 2.0526056 28
2.3247521 1.2638202 2.0102675 69
2.8726659 1.5616819 2.0062518 62
3.6697295 1.994163 2.0181842 57
4.8474369 2.6330428 2.0079978 40
5.6172824 3.0499394 1.6323506 87
5.8322086 3.1653171 1.0165538 79
4.426249 2.4012606 0.29680857 7
0.027835052 0.01451938 2.0041974 36
0.28970298 0.15516169 2.0897303 88
0.36259115 0.19527616 2.0034087 83
0.53613734 0.28918955 1.9934158 84
0.72648114 0.39200851 2.0043178 91
0.93003154 0.50204211 2.0033376 87
1.1594778 0.62589353 2.0078254 82
1.426348 0.7699461 2.0165794 76
0.11104131 0.058140777 2.0010643 89
0.19567734 0.10117928 2.0082631 104
0.44959679 0.24140704 2.0009167 89
0.63013792 0.33860874 1.9995331 89
0.82427102 0.44328529 1.9981228 95
1.0420032 0.56037211 2.0054085 93
1.2871107 0.69218051 2.0092292 91
1.5805129 0.84996045 2.0237315 37
1.7474114 0.94561929 2.032284 37
2.0979865 1.1353297 2.0051763 67
2.5727317 1.3916575 2.0023305 66
3.2354915 1.750157 2.0112782 48
4.168417 2.2538583 2.0028906 42
5.6217933 3.0384283 1.9670908 96
5.8426108 3.157774 1.3523746 73
5.849143 3.1599855 0.68862152 78
1.9455857 1.0493488 2.0492809 30
2.3291495 1.2556976 2.0102675 69
2.8780994 1.5516447 2.0062518 63
3.6766679 1.9813411 2.0181842 57
4.8565989 2.6161063 2.0079978 41
5.615056 3.0234001 1.6288337 90
5.8345013 3.1402454 1.015174 79
4.4654012 2.4023645 0.29821929 13
0.027885564 0.01442213 2.0041974 35
0.29024282 0.15414949 2.0897303 88
0.36327058 0.19400929 2.0034087 83
0.53714353 0.28731635 1.9934158 84
0.72784507 0.38947025 2.0043178 91
0.93177837 0.49879271 2.0033376 87
1.1616557 0.62184238 2.0078254 84
1.4290271 0.76496255 2.0165794 76
0.11124359 0.057752818 2.0010643 89
0.19602934 0.10049562 2.0082631 104
0.45043674 0.23983617 2.0009167 95
0.63131607 0.33640712 1.9995331 91
0.82581335 0.44040537 1.9981228 95
1.0439529 0.55673146 2.0054085 93
1.2895191 0.68768346 2.0092292 89
1.5804789 0.84284294 2.0200562 38
1.7475593 0.93782765 2.0287795 37
2.1019366 1.1279995 2.0051763 67
2.5775738 1.3826685 2.0023305 66
3.2376773 1.7367584 2.0089602 58
4.176259 2.2392941 2.0028906 39
5.6239085 3.0142534 1.9642724 95
5.8406091 3.1303985 1.3495767 72
5.8469682 3.1324935 0.68728292 79
1.9459438 1.0407898 2.0459561 31
2.3335185 1.2475597 2.0102675 69
2.8873003 1.5436215 2.0087843 63
3.6835618 1.968495 2.0181842 57
4.8657012 2.5991375 2.0079978 39
5.6169996 2.9992025 1.6264889 91
5.8323207 3.112865 1.0131047 81
nan nan nan 0
0.027935736 0.014324704 2.0041974 35
0.29077914 0.15313542 2.0897303 90
0.3639456 0.19274005 2.0034087 85
0.53814316 0.28543961 1.9934158 84
0.72920018 0.38692722 2.0043178 90
0.93139756 0.49441379 1.9989488 87
1.1638192 0.61778367 2.0078254 82
1.4316885 0.75996965 2.0165794 76
0.1114445 0.057364151 2.0010643 89
0.19637893 0.099810742 2.0082631 104
0.45127118 0.23826241 2.0009167 95
0.63248646 0.33420137 1.9995331 91
0.82734555 0.43752003 1.9981228 95
1.0458899 0.55308396 2.0054085 93
1.2919116 0.68317801 2.0092292 89
1.5804144 0.83573622 2.016381 47
1.7508222 0.93172181 2.0287795 38
2.1058612 1.1206555 2.0051763 67
2.5860763 1.3756264 2.0050719 67
3.2437201 1.7254462 2.0089602 58
4.1840501 2.2247024 2.0028906 39
5.6216879 2.9878497 1.9600449 95
5.8428249 3.105381 1.3477114 70
5.8490715 3.1073916 0.68639046 77
1.9462659 1.0322412 2.0426311 32
2.3342881 1.2375135 2.0073245 67
2.8926711 1.5335337 2.0087843 63
3.6864007 1.9535 2.0160861 57
4.8747439 2.5821373 2.0079978 39
5.6145477 2.9727538 1.622972 93
5.8343964 3.0878541 1.0117249 80
5.2548733 2.779968 0.33348721 5
0.027988054 0.014222218 2.0041974 35
0.29133844 0.15206863 2.0897303 92
0.36464956 0.19140482 2.0034087 85
0.54050779 0.28416026 1.9981875 86
0.73061341 0.38425198 2.0043178 91
0.9332034 0.49099675 1.9989488 87
1.1660757 0.61351389 2.0078254 82
1.4344643 0.75471711 2.0165794 76
0.11139584 0.056824159 1.9960728 89
0.19674344 0.099090301 2.0082631 104
0.4521414 0.23660681 2.0009167 95
0.63370717 0.33188093 1.9995331 91
0.82901943 0.43434006 1.9981228 95
1.0456955 0.54785365 2.0011425 93
1.2945253 0.6782124 2.0092292 91
1.5836117 0.82966167 2.016381 61
1.7542254 0.92529845 2.0287795 37
2.1099544 1.1129297 2.0051763 66
2.5911007 1.3661388 2.0050719 67
3.2500222 1.7135459 2.0089602 57
4.1962776 2.2115138 2.0047636 43
5.6241117 2.9627533 1.9572264 95
5.8416667 3.0760572 1.3449136 71
5.8477387 3.0779514 0.68505186 77
1.9469095 1.0230236 2.0393064 32
2.3390224 1.2285414 2.0073245 62
2.8985379 1.5224153 2.0087843 63
3.6938741 1.9393309 2.0160861 57
4.8846231 2.5634005 2.0079978 41
5.617312 2.9466577 1.6206273 93
5.83252 3.0595458 1.0096556 79
5.265027 2.7606893 0.33348721 3
0.028037526 0.014124434 2.0041974 36
0.29186749 0.15105073 2.0897303 92
0.36531547 0.1901308 2.0034087 87
0.54149634 0.2822718 1.9981875 86
0.73195022 0.38169932 2.0043178 91
0.93491161 0.48773625 1.9989488 87
1.1682101 0.60943979 2.0078254 78
1.4370899 0.74970531 2.0165794 78
0.11159351 0.056434967 1.9960728 89
0.19708814 0.09840294 2.0082631 104
0.45296457 0.2350271 2.0009167 95
0.63486177 0.32966685 1.9995331 91
0.83045524 0.43158853 1.9981228 95
1.0475066 0.54438293 2.0011425 93
1.2967672 0.67391586 2.0092292 89
1.5863544 0.82440567 2.016381 74
1.7574446 0.91916943 2.0287795 37
2.1138265 1.1055577 2.0051763 66
2.5958538 1.3570857 2.0050719 67
3.2559841 1.7021906 2.0089602 57
4.2039714 2.1968524 2.0047636 44
5.6216631 2.9364402 1.9529988 95
5.8431263 3.05212 1.3430483 72
5.8490844 3.0539327 0.6841594 78
1.9469796 1.0148356 2.0359814 33
2.3430836 1.2207781 2.0073245 50
2.9035704 1.512795 2.0087843 63
3.700285 1.9270709 2.0160861 58
4.8930964 2.5471883 2.0079978 40
5.6184292 2.9235265 1.6182827 94
5.8343763 3.0346 1.008276 80
5.2524691 2.7307713 0.33247954 5
0.028086659 0.01402648 2.0041974 36
0.292393 0.150031 2.0897303 88
0.36597693 0.18885446 2.0034087 87
0.54247838 0.28037989 1.9981875 86
0.73327821 0.37914205 2.0043178 91
0.93660843 0.48446986 1.9989488 89
1.1703304 0.60535824 2.0078254 81
1.4396982 0.7446844 2.0165794 76
0.11178982 0.056045085 1.9960728 89
0.19743042 0.097714372 2.0082631 104
0.4537822 0.23344453 2.0009167 95
0.63600862 0.32744876 1.9995331 91
0.83195668 0.42868707 1.9981228 95
1.0517188 0.54191774 2.0054085 93
1.2991117 0.66938514 2.0092292 91
1.5892224 0.81886321 2.016381 83
1.7606424 0.91302919 2.0287795 37
2.1176727 1.0981724 2.0051763 66
2.600575 1.3480163 2.0050719 66
3.2619057 1.6908147 2.0089602 58
4.2116146 2.1821647 2.0047636 44
5.6233597 2.9123869 1.9501805 96
5.8406591 3.0249281 1.3402505 70
5.8464417 3.0266287 0.6828208 81
1.9505101 1.0080332 2.0359814 33
2.3509219 1.2144468 2.0102675 42
2.9088335 1.5026504 2.0087843 63
3.7069893 1.9141427 2.0160861 56
4.901958 2.530093 2.0079978 40
5.6199603 2.8994396 1.6159381 94
5.8317289 3.007406 1.0062065 82
5.2131214 2.6872406 0.33026272 2
0.028135449 0.013928352 2.0041974 36
0.2929149 0.14900945 2.0897303 88
0.36663392 0.1875758 2.0034087 81
0.54345381 0.27848461 1.9981875 86
0.73459715 0.37658009 2.0043178 91
0.93829381 0.48119754 1.9989488 85
1.1724364 0.60126942 2.0078254 87
1.4422889 0.73965436 2.0165794 73
0.11198478 0.055654526 1.9960728 89
0.19777031 0.097024612 2.0082631 104
0.45459431 0.2318591 2.0009167 93
0.63714778 0.32522669 1.9995331 91
0.83344805 0.42578039 1.9981228 95
1.0536042 0.53824323 2.0054085 95
1.3041245 0.66621751 2.0132186 93
1.5920711 0.81331086 2.016381 83
1.7638189 0.90687788 2.0287795 37
2.1214931 1.0907736 2.0051763 66
2.6052647 1.3389304 2.0050719 66
3.2677882 1.6794183 2.0089602 58
4.2192059 2.16745 2.0047636 42
5.6249557 2.8883569 1.9473621 96
5.842443 3.0000341 1.3383853 69
5.8481097 3.0016541 0.6819284 84
1.9506937 0.99951571 2.0326567 34
2.3551469 1.2062331 2.0102675 37
2.9140611 1.4924875 2.0087843 63
3.7096081 1.8991231 2.013988 57
4.9107599 2.5129664 2.0079978 40
5.6213932 2.8753781 1.6135935 94
5.8333726 2.9825227 1.0048269 80
5.2224703 2.6690269 0.33026272 2
0.028183896 0.013830057 2.0041974 35
0.29412708 0.1483358 2.0946693 92
0.36728644 0.18629488 2.0034087 81
0.54442257 0.27658591 1.9981875 86
0.7359072 0.37401357 2.0043178 93
0.93996781 0.47791931 1.9989488 85
1.174528 0.59717315 2.0078254 84
1.4448619 0.73461527 2.0165794 73
0.11217837 0.055263285 1.9960728 89
0.19810778 0.096333683 2.0082631 104
0.45540091 0.23027086 2.0009167 93
0.63827908 0.32300064 1.9995331 89
0.83492911 0.42286852 1.9981228 95
1.0554764 0.53456217 2.0054085 93
1.3064419 0.66166115 2.0132186 93
1.5949004 0.8077485 2.016381 83
1.7669735 0.90071547 2.0287795 37
2.1252878 1.0833616 2.0051763 66
2.6099224 1.329828 2.0050719 67
3.2736304 1.6680013 2.0089602 56
4.2267456 2.152709 2.0047636 38
5.6264544 2.864352 1.9445437 96
5.839747 2.9729362 1.3355874 69
5.8496747 2.9767051 0.68103594 73
1.9508411 0.99100906 2.0293317 35
2.3593428 1.1980048 2.0102675 35
2.9192529 1.4823065 2.0087843 61
3.7162149 1.8861625 2.013988 54
4.9195018 2.4958096 2.0079978 39
5.622725 2.8513412 1.6112487 94
5.8349137 2.957664 1.0034472 81
5.1649055 2.6169105 0.32723972 3
0.028232001 0.013731593 2.0041974 35
0.2946431 0.1473082 2.0946693 88
0.3679345 0.18501168 2.0034087 83
0.54538471 0.2746838 1.9981875 86
0.73720825 0.3714425 2.0043178 93
0.94163036 0.47463527 1.9989488 87
1.1766053 0.59306961 2.0078254 82
1.4474175 0.72956729 2.0165794 76
0.1123706 0.054871377 1.9960728 89
0.19844285 0.095641568 2.0082631 104
0.45620191 0.22867982 2.0009167 91
0.63940275 0.32077068 1.9995331 89
0.83640021 0.41995147 1.9981228 95
1.0573361 0.53087461 2.0054085 95
1.3087437 0.65709686 2.0132186 93
1.5977101 0.8021763 2.016381 85
1.770107 0.8945421 2.0287795 37
2.1290565 1.0759363 2.0051763 67
2.6145484 1.3207097 2.0050719 67
3.2794328 1.6565642 2.0089602 56
4.2342343 2.1379418 2.0047636 21
5.6278524 2.8403714 1.9417253 96
5.8413181 2.948107 1.3337222 71
5.8466916 2.9495387 0.67969733 73
1.9509535 0.98251367 2.0260069 35
2.3635101 1.189762 2.0102675 35
2.9244094 1.4721074 2.0087843 60
3.7227762 1.873179 2.013988 54
4.928184 2.4786222 2.0079978 39
5.6196156 2.8251474 1.6077318 94
5.8363528 2.9328313 1.0020676 82
5.0043621 2.5136535 0.31958157 5
0.028279763 0.013632961 2.0041974 36
0.29445925 0.14593394 2.0897303 88
0.36857808 0.18372622 2.0034087 83
0.54634017 0.27277839 1.9981875 86
0.73850036 0.36886689 2.0043178 93
0.94328141 0.47134551 1.9989488 87
1.1786684 0.58895886 2.0078254 84
1.4470876 0.72307754 2.0127425 78
0.11256144 0.054478794 1.9960728 89
0.19877549 0.094948284 2.0082631 104
0.45699739 0.22708598 2.0009167 93
0.64051855 0.31853682 1.9995331 91
0.837861 0.41702935 1.9981228 95
1.0591828 0.52718061 2.0054085 95
1.3083313 0.65118152 2.0092292 91
1.6005006 0.79659444 2.016381 85
1.77003 0.88676035 2.025275 35
2.1327991 1.068498 2.0051763 67
2.6191428 1.3115753 2.0050719 67
3.2851954 1.6451067 2.0089602 54
4.2416716 2.1231487 2.0047636 9
5.6291528 2.8164163 1.9389069 96
5.8427868 2.9233031 1.331857 72
5.8480425 2.9246566 0.67880487 80
1.9510299 0.97402948 2.022682 33
2.3676491 1.1815044 2.0102675 35
2.9256725 1.4599652 2.0062518 57
3.7292919 1.8601727 2.013988 55
4.9325795 2.4592972 2.006355 38
5.6207423 2.801178 1.6053872 95
5.8376894 2.9080245 1.000688 82
4.834218 2.4070964 0.31152034 13
0.028327178 0.013534163 2.0041974 36
0.29566431 0.14524762 2.0946693 86
0.36921716 0.18243852 2.0034087 81
0.54728901 0.27086967 1.9981875 88
0.73978347 0.36628678 2.0043178 91
0.94492096 0.46804997 1.9989488 87
1.180717 0.58484095 2.0078254 84
1.4496027 0.71802187 2.0127425 76
0.11275093 0.054085553 1.9960728 89
0.19910571 0.094253853 2.0082631 103
0.45778728 0.22548938 2.0009167 93
0.64162654 0.31629902 1.9995331 89
0.83931154 0.41410214 1.9981228 95
1.0610164 0.52348018 2.0054085 95
1.3105962 0.64661062 2.0092292 91
1.6032714 0.79100275 2.016381 85
1.7731148 0.88057643 2.025275 34
2.1365161 1.0610466 2.0051763 67
2.6237051 1.3024248 2.0050719 67
3.2909179 1.6336292 2.0089602 54
4.2449036 2.1062689 2.0028906 9
5.6260557 2.7903547 1.9346793 96
5.8441544 2.898525 1.3299917 72
5.8492928 2.8998015 0.67791247 78
1.9510713 0.96555698 2.0193572 31
2.3717589 1.1732326 2.0102675 36
2.9307508 1.4497439 2.0062518 54
3.7316942 1.845132 2.0118899 55
4.941134 2.4420643 2.006355 34
5.6217704 2.777235 1.6030426 95
5.8344836 2.8810515 0.99861848 82
4.815711 2.3769398 0.31031114 26
0.028374247 0.0134352 2.0041974 36
0.29616952 0.14421469 2.0946693 85
0.36985174 0.18114859 2.0034087 81
0.54823124 0.26895761 1.9981875 86
0.74105752 0.36370224 2.0043178 93
0.946549 0.46474871 1.9989488 87
1.1827514 0.58071595 2.0078254 84
1.4521003 0.71295738 2.0127425 76
0.11293903 0.053691648 1.9960728 89
0.19894984 0.093332119 2.0032918 103
0.45857158 0.22389004 2.0009167 91
0.64272672 0.31405741 1.9995331 87
0.84075195 0.41116989 1.9981228 95
1.0628374 0.5197733 2.0054085 93
1.3128453 0.64203185 2.0092292 93
1.606023 0.78540152 2.016381 85
1.7729781 0.87280661 2.0217705 34
2.1402066 1.0535823 2.0051763 66
2.6282356 1.2932583 2.0050719 66
3.2966003 1.6221318 2.0089602 56
4.2522302 2.0914383 2.0028906 34
5.6271515 2.7664661 1.9318609 96
5.841011 2.8716054 1.3271937 72
5.85044 2.8749733 0.67702007 79
1.9544299 0.95874059 2.0193572 31
2.3758397 1.1649464 2.0102675 37
2.9357936 1.4395047 2.0062518 50
3.7381122 1.8320948 2.0118899 56
4.9453878 2.422724 2.0047126 29
5.6226997 2.753319 1.6006979 95
5.835609 2.8563139 0.99723887 81
4.8374424 2.3667021 0.31091574 34
0.028381217 0.01331809 1.9991974 36
0.29667112 0.14317998 2.0946693 92
0.37048182 0.17985646 2.0034087 81
0.54916674 0.26704228 1.9981875 86
0.74232256 0.36111325 2.0043178 93
0.94816548 0.46144184 1.9989488 87
1.1847712 0.5765838 2.0078254 84
1.4545802 0.70788425 2.0127425 76
0.11312576 0.053297091 1.9960728 89
0.19927441 0.092637084 2.0032918 103
0.45935032 0.22228795 2.0009167 91
0.64381909 0.31181192 1.9995331 91
0.84218216 0.40823257 1.9981228 95
1.0622983 0.51492262 2.0011425 93
1.3150785 0.63744527 2.0092292 93
1.6057038 0.77831185 2.0127058 83
1.776014 0.86661249 2.0217705 35
2.1438713 1.0461051 2.0051763 66
2.6327338 1.2840762 2.0050719 66
3.3022425 1.6106147 2.0089602 56
4.2553377 2.0745511 2.0010173 40
5.6281486 2.7426038 1.9290425 96
5.8421679 2.8468955 1.3253286 72
5.8470082 2.8479917 0.67568141 80
1.9544059 0.95027947 2.0160325 32
2.3798916 1.1566461 2.0102675 39
2.9408004 1.4292481 2.0062518 40
3.7444847 1.8190353 2.0118899 55
4.9495659 2.4033837 2.0030696 26
5.6235309 2.7294309 1.5983533 96
5.8366327 2.8316031 0.99585921 81
4.8142066 2.3345423 0.30950502 56
0.028427534 0.013218941 1.9991974 36
0.29716909 0.14214353 2.0946693 92
0.37110737 0.17856215 2.0034087 85
0.55009556 0.2651237 1.9981875 86
0.74357861 0.35851988 2.0043178 91
0.94977045 0.45812932 1.9989488 87
1.184242 0.57122213 2.0036924 84
1.4570422 0.70280254 2.0127425 74
0.11331112 0.052901886 1.9960728 89
0.19959657 0.091940925 2.0032918 104
0.46012345 0.22068317 2.0009167 91
0.6449036 0.30956268 1.9995331 91
0.84360194 0.40529034 1.9981228 96
1.0640893 0.51121134 2.0011425 93
1.3172957 0.63285089 2.0092292 93
1.6084108 0.77270222 2.0127058 83
1.7758176 0.85885501 2.018266 35
2.1475098 1.0386153 2.0051763 66
2.6371999 1.2748784 2.0050719 59
3.3078444 1.5990777 2.0089602 54
4.2625537 2.0596843 2.0010173 40
5.6290479 2.7187684 1.9262241 97
5.8432226 2.8222122 1.3234633 72
5.8479443 2.8232341 0.67478901 79
1.9577111 0.94345152 2.0160325 33
2.3839145 1.1483316 2.0102675 48
2.9457715 1.4189742 2.0062518 36
3.7508113 1.8059535 2.0118899 59
4.95367 2.3840439 2.0014269 22
5.6242633 2.7055702 1.5960087 96
5.8375554 2.8069201 0.99447954 81
4.7953091 2.3047385 0.30829585 47
0.028473504 0.013119629 1.9991974 36
0.29766348 0.14110535 2.0946693 95
0.37172842 0.17726564 2.0034087 87
0.54966986 0.26255819 1.9934158 82
0.74482548 0.3559221 2.0043178 91
0.95136386 0.45481119 1.9989488 87
1.1862288 0.56708485 2.0036924 84
1.4594867 0.69771224 2.0127425 76
0.11349509 0.05250603 1.9960728 89
0.19991627 0.091243647 2.0032918 103
0.46089095 0.21907568 2.0009167 91
0.64598024 0.30730969 1.9995331 91
0.84501153 0.40234315 1.9981228 95
1.0658672 0.50749385 2.0011425 93
1.3194965 0.62824881 2.0092292 89
1.6110983 0.76708305 2.0127058 83
1.7788048 0.852651 2.018266 36
2.1511223 1.0311128 2.0051763 66
2.6378632 1.2638583 2.0023305 59
3.3094106 1.5856073 2.0066421 54
4.2697172 2.0447929 2.0010173 40
5.6298504 2.6949601 1.9234056 96
5.8441772 2.7975564 1.3215982 71
5.853272 2.8006544 0.67434281 78
1.9609925 0.93661213 2.0160325 33
2.3879085 1.1400033 2.0102675 62
2.950707 1.4086828 2.0062518 31
3.7570922 1.7928497 2.0118899 59
4.9619613 2.3667378 2.0014269 17
5.6248989 2.6817379 1.5936641 97
5.838377 2.7822654 0.99309999 81
4.7717524 2.2729468 0.30688512 26
0.028516855 0.013025136 1.9991974 36
0.29812974 0.14011748 2.0946693 96
0.37231418 0.17603199 2.0034087 87
0.55053753 0.26073399 1.9934158 80
0.74600172 0.35345021 2.0043178 91
0.95286679 0.45165384 1.9989488 87
1.1881027 0.56314802 2.0036924 82
1.4617923 0.69286853 2.0127425 76
0.11365948 0.052149218 1.9960728 89
0.20020194 0.090615138 2.0032918 103
0.46157691 0.21762669 2.0009167 91
0.6469425 0.30527875 1.9995331 91
0.84634107 0.39953879 1.9981228 95
1.0675442 0.5039565 2.0011425 93
1.3215727 0.62386972 2.0092292 89
1.6135001 0.76201785 2.0127058 83
1.7784016 0.84521687 2.0147614 36
2.1545296 1.0239737 2.0051763 67
2.6420398 1.2551039 2.0023305 66
3.3146505 1.5746242 2.0066421 48
4.2761197 2.0313692 2.0010173 40
5.629622 2.6731448 1.9205874 96
5.8445463 2.7739484 1.3197328 71
5.8535275 2.7769597 0.67345041 76
1.9640876 0.93010402 2.0160325 33
2.3880224 1.1303493 2.0073245 69
2.9551177 1.399406 2.0062518 28
3.7627065 1.7810376 2.0118899 58
4.9864478 2.3592165 2.0079978 14
5.628902 2.6619756 1.5924917 98
5.8381338 2.7596772 0.99172032 81
4.7562842 2.2472732 0.30587748 17
0.028562147 0.012925514 1.9991974 36
0.29861704 0.13907596 2.0946693 95
0.37292638 0.1747313 2.0034087 87
0.55144429 0.25881067 1.9934158 84
0.74723095 0.35084403 2.0043178 91
0.95443755 0.44832498 1.9989488 87
1.1900611 0.55899739 2.0036924 84
1.4642018 0.68776172 2.0127425 76
0.11384986 0.051732283 1.9960728 89
0.20053272 0.08988075 2.0032918 103
0.46237147 0.21593346 2.0009167 91
0.64805704 0.30290556 1.9995331 91
0.84773064 0.39658207 1.9981228 95
1.069297 0.50022703 2.0011425 93
1.3237424 0.6192528 2.0092292 89
1.6162823 0.75609899 2.0127058 83
1.7813411 0.83900386 2.0147614 35
2.1580911 1.0164467 2.0051763 66
2.6464047 1.2458739 2.0023305 66
3.3201268 1.5630443 2.0066421 48
4.2835364 2.0156827 2.0010173 40
5.6306992 2.6484096 1.917769 96
5.8453035 2.7493489 1.3178676 73
5.8541722 2.7522726 0.67255801 76
1.9673222 0.92324251 2.0160325 34
2.3919535 1.1220067 2.0073245 69
2.9602273 1.3885655 2.0062518 26
3.7692089 1.7672344 2.0118899 59
5.0164418 2.3509445 2.0162113 12
5.629817 2.637203 1.590147 97
5.8392401 2.734061 0.99034071 82
4.7554388 2.22559 0.3054744 17
0.028647149 0.012843028 2.0041974 36
0.29910067 0.13803276 2.0946693 95
0.37353405 0.17342848 2.0034087 89
0.55234438 0.25688419 1.9934158 80
0.74845099 0.34823355 2.0043178 91
0.95599669 0.44499066 1.9989488 89
1.1920052 0.55483991 2.0036924 84
1.4665937 0.68264657 2.0127425 76
0.11429399 0.051452983 2.0010643 89
0.20133349 0.089396268 2.0082631 103
0.4631224 0.21431817 2.0009167 93
0.64911044 0.30064157 1.9995331 91
0.84910977 0.39362052 1.9981228 95
1.0710365 0.49649146 2.0011425 93
1.3258959 0.61462831 2.0092292 93
1.6189117 0.75045252 2.0127058 83
1.784259 0.83278072 2.0147614 34
2.1616259 1.0089074 2.0051763 66
2.6507375 1.2366285 2.0023305 67
3.3255625 1.5514454 2.0066421 57
4.286345 1.998759 1.9991444 38
5.6312137 2.6246853 1.9149506 97
5.8459601 2.7247777 1.3160024 75
5.8547153 2.7276146 0.67166555 77
1.970533 0.91636962 2.0160325 36
2.3958554 1.1136503 2.0073245 71
2.9650562 1.378224 2.0062518 26
3.7753546 1.7540669 2.0118899 60
