# .PCD v0.7 - Point Cloud Data file format
VERSION 0.7
FIELDS x y z intensity
SIZE 4 4 4 4
TYPE F F F F
COUNT 1 1 1 1
WIDTH 1416
HEIGHT 1
VIEWPOINT 0 0 0 1 0 0 0
POINTS 1416
DATA ascii
0.11061919 1.6396044 2.0434382 78
0.010040196 0.12522934 2.0060561 89
0.018731223 0.21949035 2.0082631 91
0.035917807 0.5153473 2.0251129 96
0.049864668 0.71880227 2.0136113 93
0.065355502 0.94672161 2.0251279 92
0.08256571 1.1959276 2.0310042 85
0.10211462 1.4790034 2.0371556 87
0.12501338 1.8105927 2.0457823 74
0.13261494 1.9967334 2.0463023 37
0.16892552 2.5433776 2.1369631 9
0.20880356 3.1354957 2.1448867 7
0.25002024 3.7543712 2.0553207 10
0.32651153 4.890101 2.0684466 6
0.45697048 6.8260202 2.0995553 27
0.18144731 2.7104018 0.60721111 38
0.65200675 9.7139301 0.96527165 67
0.1538703 2.2688007 2.1058033 15
0.19157283 2.8174181 2.1397665 9
0.2384899 3.5073602 2.1506002 7
0.29209238 4.2846107 2.0727334 60
0.3932234 5.7532582 2.0950599 39
nan nan nan 0
0.67270106 9.7920275 1.4594154 5
0.24199156 3.5135541 0.23574471 27
0.0026579462 0.03119402 1.9941976 75
0.023356486 0.31456313 2.0057628 96
0.029698646 0.41280091 2.0131991 95
0.043743081 0.6135751 2.0125027 86
0.059126411 0.83121145 2.0227277 93
0.075833358 1.0685716 2.0296695 83
0.09467341 1.3339661 2.0367558 79
0.1163418 1.6392083 2.0434382 76
0.010455417 0.12519537 2.0060561 89
0.019458978 0.21942702 2.0082631 93
0.037626557 0.51522535 2.0251129 96
0.052373216 0.72035408 2.0183041 93
0.068659775 0.94648767 2.0251279 92
0.086739771 1.1956321 2.0310042 85
0.10727668 1.4786378 2.0371556 85
0.13101684 1.810168 2.0457823 61
0.13983281 1.9998161 2.0498068 27
0.17780253 2.5427725 2.1369631 9
0.21945478 3.1305761 2.1421452 7
0.26312393 3.7534757 2.0553207 10
0.34240171 4.884366 2.0665736 7
0.47960386 6.8244677 2.0995553 27
0.18918113 2.6852517 0.60254794 75
0.68555981 9.7066269 0.96482545 67
0.16497734 2.3129487 2.1457014 10
0.2014063 2.8167322 2.1397665 9
0.25011942 3.5065501 2.1506002 9
0.30597541 4.2790918 2.0706356 60
0.41229972 5.7519221 2.0950599 39
nan nan nan 0
nan nan nan 0
0.24896413 3.4479535 0.23312479 20
0.0027613747 0.031185031 1.9941976 75
0.024399487 0.31448394 2.0057628 96
0.031067377 0.41270015 2.0131991 95
0.045777526 0.61342674 2.0125027 86
0.061882481 0.83101088 2.0227277 95
0.079554014 1.0707035 2.0340583 85
0.099096484 1.333645 2.0367558 79
0.12177698 1.6388135 2.0434382 76
0.010870522 0.12516001 2.0060561 89
0.020186516 0.21936129 2.0082631 93
0.039334904 0.51509774 2.0251129 96
0.054761704 0.7201764 2.0183041 91
0.071798064 0.94625473 2.0251279 93
0.09070415 1.1953379 2.0310042 85
0.11217943 1.478274 2.0371556 84
0.13701883 1.8097236 2.0457823 38
0.14672422 2.002898 2.0533113 24
0.18651813 2.5460515 2.140101 10
0.22983494 3.1298313 2.1421452 7
0.27654278 3.7658372 2.0622747 30
0.3579179 4.8739572 2.0628276 7
0.50223196 6.8228397 2.0995553 30
nan nan nan 0
0.71737707 9.6993341 0.96437925 78
0.17264643 2.3123889 2.1457014 10
0.21074578 2.8160489 2.1397665 9
0.26110417 3.4971027 2.1455352 9
0.31982493 4.2735271 2.0685375 55
0.43137151 5.7505236 2.0950599 37
0.19571438 2.6029561 0.7202875 2
nan nan nan 0
0.255128 3.3773644 0.23030338 11
0.0028702139 0.031175204 1.9941976 75
0.025497094 0.31439683 2.0057628 97
0.032587849 0.41360423 2.0180943 95
0.047918506 0.61326325 2.0125027 86
0.064782873 0.83078974 2.0227277 95
0.083290972 1.0704193 2.0340583 85
0.10353283 1.3304853 2.0326231 79
0.12749676 1.6383785 2.0434382 69
0.011329183 0.12511933 2.0060561 89
0.020990379 0.21928583 2.0082631 93
0.041122135 0.51369637 2.0202737 97
0.057400916 0.71997088 2.0183041 93
0.075100668 0.94599837 2.0251279 92
0.094876111 1.195014 2.0310042 87
0.11733888 1.4778734 2.0371556 84
0.14472428 1.8227276 2.060483 16
0.15617156 2.0343757 2.0848522 18
0.19540438 2.5453846 2.140101 10
0.2407587 3.12901 2.1421452 7
0.28968635 3.7648489 2.0622747 51
0.37613595 4.8772345 2.0647006 7
0.52723551 6.8209534 2.0995553 29
nan nan nan 0
0.75122964 9.6967707 0.96437925 78
0.18071713 2.3117723 2.1457014 10
0.22057435 2.8152959 2.1397665 9
0.26819509 3.4230552 2.102484 9
0.33548608 4.2723265 2.0685375 54
0.45244533 5.7489038 2.0950599 37
0.20296013 2.5731478 0.71325362 5
0.22282985 2.8187783 0.48608536 36
0.26513746 3.3465252 0.22909418 8
0.0029790183 0.031164996 1.9941976 75
0.026594387 0.3143059 2.0057628 97
0.034031399 0.41348794 2.0180943 95
0.050058905 0.61309218 2.0125027 86
0.067682475 0.8305586 2.0227277 93
0.087026931 1.070122 2.0340583 83
0.10817647 1.3301159 2.0326231 79
0.1334749 1.6411188 2.0472748 61
0.011765862 0.12507901 2.0060561 89
0.021755701 0.21921122 2.0082631 93
0.042915013 0.51354969 2.0202737 97
0.059913732 0.71976614 2.0183041 93
0.078582317 0.94790071 2.0296285 92
0.099046908 1.1946754 2.0310042 87
0.12249691 1.4774549 2.0371556 87
0.15276676 1.8424824 2.0825341 16
0.16469885 2.0515924 2.102375 11
0.20428823 2.5446873 2.140101 10
0.25167951 3.1281505 2.1421452 8
0.30282637 3.7638149 2.0622747 59
0.39353096 4.8805132 2.0665736 20
0.55065542 6.8142891 2.098146 27
0.78460246 9.7093401 1.9408579 1
0.78547508 9.6990528 0.96482545 79
0.18878561 2.3111274 2.1457014 10
0.23040022 2.8145089 2.1397665 8
0.27381054 3.3447545 2.0569005 9
0.35002613 4.2666059 2.0664394 56
0.47251001 5.7472897 2.0950599 39
0.21234001 2.5772679 0.71442592 9
0.23063037 2.7933061 0.48263627 32
0.26033875 3.1464224 0.22103295 9
0.0030877865 0.031154405 1.9941976 75
0.027691357 0.31421116 2.0057628 96
0.035474531 0.41336665 2.0180943 95
0.052198689 0.61291373 2.0125027 86
0.07058125 0.83031726 2.0227277 93
0.090761825 1.0698118 2.0340583 83
0.11281879 1.3297303 2.0326231 71
0.13920264 1.6406429 2.0472748 42
0.01217379 0.12474903 2.0010643 89
0.02252076 0.21913394 2.0082631 93
0.044707377 0.51339674 2.0202737 97
0.062425822 0.7195527 2.0183041 93
0.081890628 0.94762069 2.0296285 92
0.1032165 1.1943225 2.0310042 85
0.127913 1.4800212 2.0411453 85
0.16065697 1.8588259 2.1009099 15
0.17424162 2.0794353 2.1304114 10
0.2131696 2.5439584 2.140101 10
0.26224738 3.1230862 2.1394038 8
0.31596267 3.7627347 2.0622747 59
0.41095349 4.8837295 2.0684466 41
0.57443845 6.8123255 2.098146 15
0.81725144 9.6918573 1.9380602 2
0.81974572 9.7012148 0.96527165 78
0.1968518 2.3104541 2.1457014 10
0.2402233 2.8136876 2.1397665 8
0.285851 3.3480742 2.059433 24
0.36491722 4.265358 2.0664394 55
0.49256891 5.745605 2.0950599 38
0.22133507 2.5765109 0.71442592 9
0.23740637 2.7579465 0.47780758 13
0.27475497 3.1853139 0.22264519 9
0.0031965165 0.031143438 1.9941976 75
0.028787989 0.3141126 2.0057628 97
0.036917236 0.41324028 2.0180943 93
0.054337841 0.61272776 2.0125027 86
0.073479168 0.83006585 2.0227277 93
0.094495609 1.0694884 2.0340583 81
0.11745971 1.3293283 2.0326231 71
0.14492869 1.6401469 2.0472748 14
0.012609172 0.12470578 2.0010643 89
0.023285542 0.219054 2.0082631 93
0.046499193 0.5132376 2.0202737 96
0.064937152 0.71933037 2.0183041 93
0.085197948 0.94732904 2.0296285 93
0.10738484 1.1939549 2.0310042 85
0.13307846 1.4795656 2.0411453 79
0.16896684 1.8785129 2.1229608 15
0.18149914 2.0788145 2.1304114 10
0.22204837 2.5431991 2.140101 10
0.27314737 3.1221521 2.1394038 9
0.32909513 3.7616091 2.0622747 59
0.42799839 4.8822651 2.0684466 41
0.59821439 6.8102789 2.098146 15
0.86268288 9.8210669 1.9632407 3
0.85360432 9.6982937 0.96527165 78
0.2049156 2.3097529 2.1457014 11
0.25004342 2.8128319 2.1397665 7
0.29791796 3.3513501 2.0619655 43
0.3798039 4.2640581 2.0664394 54
0.51262176 5.7438502 2.0950599 38
0.23032741 2.5757229 0.71442592 9
0.24084477 2.6880474 0.46815017 2
0.31356844 3.4928427 0.23514012 11
0.0033052082 0.031132091 1.9941976 75
0.029884271 0.3140102 2.0057628 97
0.038359486 0.41310892 2.0180943 95
0.056476329 0.6125344 2.0125027 88
0.076376192 0.82980424 2.0227277 95
0.098228246 1.0691521 2.0340583 81
0.12209922 1.3289102 2.0326231 77
0.150653 1.6396312 2.0472748 10
0.013044399 0.12466101 2.0010643 88
0.024050042 0.21897137 2.0082631 91
0.048290443 0.51307213 2.0202737 96
0.067447685 0.71909928 2.0183041 93
0.088504225 0.9470259 2.0296285 93
0.11155186 1.1935729 2.0310042 85
0.13824227 1.4790921 2.0411453 71
0.17741609 1.8981644 2.1450119 14
0.18907702 2.0817196 2.1339159 11
0.23092444 2.5424085 2.140101 10
0.27798051 3.0545518 2.0955403 10
0.34182209 3.7560253 2.0599566 59
0.44503805 4.8807411 2.0684466 42
0.62154663 6.8033719 2.0967369 17
0.90053487 9.8571301 1.9707017 6
0.88745242 9.6952543 0.96527165 82
0.21297689 2.3090239 2.1457014 12
0.25986052 2.8119419 2.1397665 7
0.30961457 3.3502898 2.0619655 68
0.39468592 4.2627068 2.0664394 54
0.53266841 5.7420263 2.0950599 38
0.23931694 2.574903 0.71442592 13
0.24930802 2.6773286 0.46677053 2
0.34432212 3.6907005 0.24320135 10
0.0034138593 0.031120364 1.9941976 75
0.03098019 0.31390396 2.0057628 97
0.039801273 0.41297251 2.0180943 95
0.058614127 0.61233354 2.0125027 88
0.079272285 0.82953268 2.0227277 95
0.10195968 1.0688027 2.0340583 83
0.1270045 1.3312771 2.0367558 77
0.15637547 1.6390952 2.0472748 10
0.013479467 0.12461472 2.0010643 88
0.024814248 0.21888611 2.0082631 91
0.050081108 0.51290047 2.0202737 96
0.069790199 0.71714193 2.0136113 93
0.091809422 0.94671118 2.0296285 93
0.11571753 1.1931762 2.0310042 87
0.14340445 1.4786005 2.0411453 52
0.18404083 1.8975334 2.1450119 14
0.19667745 2.0845978 2.1374204 12
0.23943202 2.5377111 2.1369631 8
0.28234506 2.9869568 2.0516768 13
0.354931 3.7548091 2.0599566 59
0.46207234 4.879158 2.0684466 42
0.64529109 6.8011608 2.0967369 31
0.946073 9.9712934 1.9930845 9
0.92223233 9.702013 0.96616405 78
0.22103558 2.3082662 2.1457014 14
0.26890245 2.8029704 2.1338801 7
0.32130736 3.3491886 2.0619655 66
0.40912893 4.2567854 2.0643413 54
0.55225605 5.7354312 2.0934174 36
0.24830359 2.5740521 0.71442592 14
0.26627395 2.7553093 0.47780758 3
0.38753381 4.0027547 0.25589779 40
0.0035224687 0.031108256 1.9941976 75
0.032075733 0.3137939 2.0057628 97
0.04124257 0.41283104 2.0180943 95
0.060751211 0.61212516 2.0125027 86
0.082167409 0.82925087 2.0227277 95
0.10545401 1.0660559 2.0296695 81
0.13165076 1.3308256 2.0367558 77
0.16493666 1.6672523 2.0818074 11
0.013914371 0.12456691 2.0010643 89
0.025578152 0.21879815 2.0082631 91
0.051997826 0.51397389 2.0251129 97
0.072293065 0.71689391 2.0136113 93
0.095113501 0.94638491 2.0296285 92
0.11988179 1.192765 2.0310042 87
0.14886628 1.4810896 2.0451348 29
0.19066334 1.8968794 2.1450119 14
0.20430021 2.0874474 2.1409249 14
0.24828883 2.5368598 2.1369631 8
0.29236174 2.9817915 2.0489354 21
0.36803555 3.7535472 2.0599566 60
0.47910094 4.8775153 2.0684466 42
0.66902757 6.7988672 2.0967369 31
0.9900136 10.060816 2.0108044 22
nan nan nan 0
0.22909158 2.3074806 2.1457014 14
0.278685 2.8020148 2.1338801 8
0.33299625 3.3480468 2.0619655 68
0.42398539 4.255331 2.0643413 54
0.57180405 5.7287698 2.0917747 36
0.25728717 2.5731697 0.71442592 15
0.27490303 2.7445083 0.47642794 4
0.40399766 4.0262327 0.25690544 43
0.0036310353 0.031095773 1.9941976 75
0.033170879 0.31368002 2.0057628 97
0.04268337 0.41268459 2.0180943 95
0.062887557 0.61190939 2.0125027 86
0.085061543 0.82895899 2.0227277 95
0.10917459 1.0656815 2.0296695 81
0.13629541 1.330358 2.0367558 79
0.1720625 1.6794232 2.0971551 11
0.014349106 0.12451757 2.0010643 89
0.026341744 0.21870753 2.0082631 93
0.053791612 0.51378924 2.0251129 97
0.074795052 0.71663719 2.0136113 93
0.098416418 0.94604713 2.0296285 92
0.12404457 1.1923393 2.0310042 85
0.15403533 1.480561 2.0451348 23
0.19728351 1.8962022 2.1450119 14
0.21194531 2.0902696 2.1444294 14
0.2571426 2.5359776 2.1369631 8
0.30319089 2.9849129 2.0516768 36
0.38068795 3.7478328 2.0576386 60
0.49612376 4.8758135 2.0684466 43
0.692756 6.7964902 2.0967369 30
1.011179 9.9204645 1.9846911 16
nan nan nan 0
0.23676291 2.3029521 2.1423767 13
0.28349516 2.7527759 2.0985622 10
0.34468108 3.346864 2.0619655 68
0.43883666 4.2538252 2.0643413 54
0.59131223 5.7220411 2.090132 36
0.26576716 2.5674207 0.71325362 14
nan nan nan 0
nan nan nan 0
0.0037395579 0.03108291 1.9941976 75
0.034265622 0.31356233 2.0057628 93
0.044123646 0.41253304 2.0180943 95
0.065023139 0.61168617 2.0125027 86
0.087954625 0.82865703 2.0227277 93
0.11289385 1.0652938 2.0296695 83
0.14093839 1.3298742 2.0367558 64
0.18096475 1.707505 2.1316879 10
0.014783666 0.12446673 2.0010643 89
0.027105015 0.21861425 2.0082631 93
0.055584747 0.51359832 2.0251129 96
0.07729613 0.71637177 2.0136113 93
0.10171814 0.94569784 2.0296285 93
0.12820587 1.1918991 2.0310042 85
0.15952487 1.483011 2.0491242 21
0.20390129 1.8955021 2.1450119 14
0.2192404 2.0895171 2.1444294 15
0.26599324 2.5350647 2.1369631 8
0.31360832 2.9838364 2.0516768 63
0.39376801 3.7464809 2.0576386 60
0.51314044 4.874052 2.0684466 42
0.71647596 6.7940311 2.0967369 30
0.99119323 9.3990469 1.8858333 63
0.41954133 3.9716923 0.45079166 40
0.24480027 2.3021116 2.1423767 12
0.28967747 2.7196157 2.0750172 13
0.35636172 3.3456404 2.0619655 68
0.45368263 4.2522674 2.0643413 54
0.61027873 5.7105517 2.0868468 13
0.27369282 2.5568116 0.71090895 12
nan nan nan 0
nan nan nan 0
0.0038480347 0.031069666 1.9941976 75
0.035359956 0.3134408 2.0057628 93
0.045563389 0.41237652 2.0180943 95
0.067157924 0.61145544 2.0125027 86
0.090846635 0.828345 2.0227277 93
0.11661173 1.0648932 2.0296695 83
0.14557965 1.3293741 2.0367558 50
0.18692395 1.7068629 2.1316879 10
0.015218046 0.12441436 2.0010643 88
0.027867954 0.21851829 2.0082631 91
0.057377201 0.51340121 2.0251129 96
0.079796262 0.71609759 2.0136113 93
0.10501862 0.945337 2.0296285 93
0.13236558 1.1914442 2.0310042 85
0.1673632 1.5064092 2.0810401 21
0.2105166 1.8947788 2.1450119 14
0.22691739 2.0922844 2.147934 16
0.27484065 2.5341208 2.1369631 9
0.32402197 2.9827235 2.0516768 61
0.4068433 3.7450838 2.0576386 59
0.53015095 4.8722305 2.0684466 42
0.73966748 6.7867198 2.0953276 30
1.0064327 9.2343798 1.8550568 101
0.43394303 3.9751544 0.45123789 66
0.25283462 2.3012431 2.1423767 11
0.2956318 2.686446 2.0514717 19
0.36803803 3.3443761 2.0619655 68
0.46902025 4.2551694 2.0664394 54
0.62917209 5.6989985 2.0835612 7
0.28208187 2.5510094 0.70973665 9
0.35051012 3.1647785 0.53575212 82
nan nan nan 0
0.0039564646 0.031056043 1.9941976 75
0.036453851 0.31331548 2.0057628 96
0.047002573 0.41221496 2.0180943 95
0.06929189 0.61121732 2.0125027 86
0.093737558 0.82802278 2.0227277 93
0.1203282 1.0644797 2.0296695 83
0.15021914 1.3288579 2.0367558 37
0.19288087 1.7062 2.1316879 11
0.015652241 0.12436049 2.0010643 88
0.028630558 0.21841969 2.0082631 93
0.059168957 0.51319778 2.0251129 95
0.082295418 0.71581471 2.0136113 93
0.10831782 0.94496471 2.0296285 92
0.13652369 1.1909748 2.0310042 83
0.17433691 1.5207876 2.1009874 19
0.21712932 1.8940324 2.1450119 14
0.23421945 2.0914798 2.147934 16
0.28238496 2.5215399 2.1275499 10
0.33443165 2.9815741 2.0516768 63
0.41991356 3.7436404 2.0576386 59
0.54715496 4.8703508 2.0684466 42
0.76335299 6.7840962 2.0953276 30
1.0348157 9.19664 1.8485285 68
0.44725856 3.9686668 0.45079166 58
0.26086593 2.3003464 2.1423767 10
0.30409509 2.6773653 2.0455854 35
0.37970981 3.3430712 2.0619655 68
0.48387074 4.2535062 2.0664394 54
0.64852685 5.6920753 2.0819185 7
0.29043373 2.5451801 0.70856434 7
0.36099279 3.1586156 0.53506231 38
0.44767392 3.9110024 0.25247177 2
0.0040711146 0.031085223 1.9991974 77
0.037547302 0.31318632 2.0057628 95
0.048441187 0.4120484 2.0180943 95
0.071251534 0.60948825 2.007731 88
0.096627317 0.82769054 2.0227277 93
0.12404319 1.0640532 2.0296695 83
0.15485682 1.3283254 2.0367558 23
0.19920669 1.7087005 2.1355245 12
0.016086245 0.12430509 2.0010643 89
0.029392812 0.21831842 2.0082631 93
0.060959991 0.51298809 2.0251129 95
0.084793583 0.71552306 2.0136113 93
0.11161571 0.94458085 2.0296285 93
0.14068015 1.1904911 2.0310042 79
0.1831817 1.5501009 2.1408827 18
0.22373942 1.893263 2.1450119 14
0.24110936 2.0871069 2.1444294 16
0.29029152 2.5128045 2.1212742 10
0.34483725 2.9803886 2.0516768 61
0.43297878 3.7421522 2.0576386 58
0.56415236 4.8684111 2.0684466 42
0.78702927 6.7813911 2.0953276 31
nan nan nan 0
0.46455896 3.996762 0.45346895 20
0.26889405 2.2994218 2.1423767 10
0.31343901 2.6762874 2.0455854 44
0.391377 3.3417253 2.0619655 68
0.49871528 4.251791 2.0664394 54
0.66784102 5.6850872 2.080276 5
0.29874837 2.5393233 0.70739204 5
0.36622131 3.1081548 0.52816415 2
0.48298582 4.0929923 0.25992844 2
0.0041795978 0.031070823 1.9991974 77
0.038640298 0.31305337 2.0057628 95
0.049879208 0.41187683 2.0180943 95
0.073378615 0.60923582 2.007731 84
0.099515907 0.82734823 2.0227277 95
0.12775667 1.0636138 2.0296695 85
0.15915696 1.3249828 2.0326231 23
0.20516995 1.7079948 2.1355245 13
0.016520051 0.12424818 2.0010643 88
0.030154705 0.2182145 2.0082631 89
0.06275028 0.5127722 2.0251129 96
0.087290704 0.71522272 2.0136113 93
0.11491222 0.94418544 2.0296285 92
0.14483489 1.1899928 2.0310042 71
0.18859144 1.5494521 2.1408827 18
0.23034677 1.8924705 2.1450119 14
0.24839325 2.0862525 2.1444294 15
0.29445851 2.4731202 2.0898964 14
0.35523865 2.9791667 2.0516768 61
0.44551411 3.7362187 2.0553207 58
0.58114284 4.8664122 2.0684466 42
0.81069601 6.7786021 2.0953276 31
nan nan nan 0
0.4719927 3.9407241 0.44856063 3
0.27691889 2.2984693 2.1423767 10
0.32277906 2.6751771 2.0455854 67
0.40252295 3.3360586 2.059433 68
0.51300937 4.2455187 2.0643413 54
0.68711418 5.6780329 2.0786333 4
0.30761045 2.5382652 0.70739204 3
nan nan nan 0
1.1814393 9.7202425 0.488666 78
0.0042880294 0.031056045 1.9991974 77
0.039732825 0.31291658 2.0057628 95
0.0511906 0.4106898 2.0131991 95
0.075504795 0.60897595 2.007731 84
0.1026434 0.82893461 2.0273302 95
0.13146859 1.0631613 2.0296695 81
0.16516258 1.3355904 2.0491548 23
0.21152422 1.7104501 2.1393616 13
0.016953658 0.12418976 2.0010643 89
0.030916233 0.21810791 2.0082631 89
0.064539805 0.51255006 2.0251129 96
0.089786768 0.71491367 2.0136113 91
0.11793667 0.94161779 2.0251279 92
0.14898784 1.1894799 2.0310042 58
0.19287503 1.5398127 2.1289141 29
0.23695132 1.8916548 2.1450119 15
0.25567412 2.0853727 2.1444294 15
0.29882586 2.4373026 2.0616565 15
0.36563569 2.9779086 2.0516768 63
0.45855322 3.7346408 2.0553207 53
0.598692 4.8689551 2.0703199 42
0.83376646 6.7709694 2.0939183 31
0.31698367 2.5742195 0.58389556 2
0.49001205 3.9736509 0.45168412 2
0.28448072 2.2937827 2.1390519 11
0.331617 2.670023 2.0426424 71
0.41416553 3.3346329 2.059433 67
0.52782583 4.2437019 2.0643413 53
0.70634639 5.6709132 2.0769906 6
0.31406233 2.5178828 0.70270276 3
nan nan nan 0
1.2141219 9.7061434 0.48826292 77
0.0043896893 0.030997775 1.9941976 75
0.040925611 0.31354642 2.0107021 97
0.052623861 0.4105086 2.0131991 95
0.077819064 0.61019027 2.0125027 86
0.1055363 0.82857126 2.0273302 95
0.13517892 1.062696 2.0296695 83
0.17124416 1.3461717 2.0656867 23
0.2174935 1.7097012 2.1393616 14
0.017387059 0.12412982 2.0010643 89
0.03167738 0.21799865 2.0082631 91
0.066166982 0.5110743 2.0202737 96
0.092281729 0.71459585 2.0136113 93
0.12150102 0.94336021 2.0296285 93
0.15347217 1.1915392 2.03527 38
0.19863383 1.5421191 2.1329036 29
0.24398607 1.8941785 2.1486869 15
0.2625055 2.0809293 2.1409249 13
0.30587009 2.4246576 2.052243 21
0.37602833 2.9766142 2.0516768 63
0.47158679 3.7330174 2.0553207 53
0.61568415 4.8668356 2.0703199 47
0.85739642 6.7680178 2.0939183 31
nan nan nan 0
nan nan nan 0
0.29295835 2.2964799 2.1423767 12
0.34093511 2.6688492 2.0426424 69
0.42580304 3.3331671 2.059433 68
0.54263586 4.2418337 2.0643413 53
0.72613716 5.6684127 2.0769906 7
0.32903397 2.5649824 0.71442592 2
nan nan nan 0
1.2473577 9.6968927 0.4880614 80
0.0044978643 0.030982263 1.9941976 75
0.042019848 0.31340167 2.0107021 97
0.054056481 0.4103224 2.0131991 95
0.079948559 0.60991484 2.0125027 88
0.1084279 0.82819784 2.0273302 95
0.13888758 1.0622176 2.0296695 83
0.17740159 1.3567268 2.0822184 23
0.22387582 1.7121104 2.1431985 14
0.017820247 0.12406838 2.0010643 88
0.032438144 0.21788676 2.0082631 93
0.067950562 0.51084018 2.0202737 96
0.094775565 0.71426934 2.0136113 93
0.12450747 0.94077146 2.0251279 93
0.15763049 1.1909963 2.03527 35
0.20401563 1.5414163 2.1329036 31
0.25059652 1.8933153 2.1486869 16
0.26976773 2.0800002 2.1409249 13
0.31282976 2.4119937 2.0428298 35
0.38641635 2.9752836 2.0516768 63
0.48461455 3.7313488 2.0553207 59
0.63266885 4.8646569 2.0703199 26
0.88101608 6.7649837 2.0939183 32
1.2040427 9.2453747 1.8615851 13
nan nan nan 0
0.2985453 2.2769299 2.1257522 13
0.35024905 2.6676426 2.0426424 69
0.43687415 3.3273857 2.0569005 67
0.55684781 4.235414 2.0622432 54
0.7453028 5.6611614 2.0753479 8
0.33862069 2.5686371 0.71559823 2
nan nan nan 0
1.2838176 9.7122917 0.48886752 87
0.0046059852 0.030966375 1.9941976 75
0.043113563 0.31325305 2.0107021 97
0.055488441 0.41013122 2.0131991 95
0.082077064 0.60963207 2.0125027 86
0.1110578 0.82587808 2.0227277 93
0.14259459 1.0617263 2.0296695 83
0.1840094 1.3700441 2.1028829 24
0.22985086 1.7113186 2.1431985 14
0.018253217 0.12400541 2.0010643 89
0.033198517 0.2177722 2.0082631 93
0.069733314 0.51059991 2.0202737 96
0.097268261 0.71393424 2.0136113 93
0.12779063 0.94033116 2.0251279 93
0.16213813 1.1930231 2.039536 35
0.20939495 1.5406948 2.1329036 23
0.25720391 1.892429 2.1486869 16
0.27655563 2.075511 2.1374204 13
0.32124728 2.410887 2.0428298 39
0.39679968 2.9739163 2.0516768 63
0.49763644 3.729634 2.0553207 59
0.64964586 4.8624191 2.0703199 5
0.90462482 6.761867 2.0939183 33
1.2454271 9.3092794 1.8746419 4
nan nan nan 0
0.30200574 2.2425656 2.0958288 13
0.35955876 2.6664038 2.0426424 69
0.44848624 3.3258405 2.0569005 67
0.57162875 4.2334447 2.0622432 54
0.76505941 5.658525 2.0753479 10
nan nan nan 0
1.3257979 9.7801285 1.4670035 4
1.3177121 9.7077513 0.48886752 97
0.0047212215 0.030993145 1.9991974 77
0.044097949 0.31233132 2.0057628 97
0.056919731 0.40993506 2.0131991 96
0.084204569 0.60934192 2.0125027 86
0.11393997 0.82548541 2.0227277 95
0.14629984 1.0612221 2.0296695 75
0.19071233 1.3833317 2.1235478 26
0.23582307 1.7105057 2.1431985 14
0.018685967 0.12394094 2.0010643 89
0.033958476 0.21765499 2.0082631 93
0.071515217 0.51035339 2.0202737 96
0.099759765 0.71359038 2.0136113 93
0.13107221 0.93987936 2.0251279 93
0.16630158 1.1924498 2.039536 35
0.21477169 1.5399544 2.1329036 23
0.26380813 1.8915198 2.1486869 16
0.28379878 2.074533 2.1374204 13
0.32966089 2.4097509 2.0428298 69
0.40717816 2.9725132 2.0516768 63
0.51065224 3.7278745 2.0553207 59
0.66661489 4.8601213 2.0703199 5
0.92822266 6.7586684 2.0939183 35
0.31947613 2.3262141 0.53726459 9
1.3392351 9.7387552 0.97374958 80
0.30471864 2.2045059 2.0625803 13
0.36886403 2.6651325 2.0426424 67
0.46009278 3.3242545 2.0569005 67
0.58640271 4.2314234 2.0622432 55
0.78415769 5.6511431 2.0737052 11
nan nan nan 0
1.3612938 9.7852516 1.4683831 3
1.3522795 9.7080393 0.48906907 84
0.0048293788 0.030976478 1.9991974 75
0.04518792 0.31217548 2.0057628 97
0.058350321 0.40973386 2.0131991 95
0.086331069 0.60904419 2.0125027 86
0.11682076 0.8250826 2.0227277 93
0.1500033 1.0607049 2.0296695 66
0.19553991 1.3826576 2.1235478 28
0.24179241 1.7096722 2.1431985 15
0.019118488 0.12387496 2.0010643 89
0.034718033 0.21753512 2.0082631 93
0.073296241 0.5101006 2.0202737 96
0.10225005 0.71323776 2.0136113 93
0.13435221 0.93941611 2.0251279 93
0.17083226 1.1944438 2.0438018 35
0.22014584 1.5391954 2.1329036 23
0.2704092 1.8905873 2.1486869 16
0.29103854 2.07353 2.1374204 14
0.33807051 2.4085855 2.0428298 69
0.41755167 2.9710741 2.0516768 63
0.52366185 3.7260692 2.0553207 59
0.68292981 4.8531742 2.0684466 47
0.95180911 6.7553868 2.0939183 35
0.3234821 2.2958996 0.53166884 71
1.3718302 9.7241592 0.97285718 76
0.31188768 2.1997311 2.0592554 17
0.37816483 2.6638286 2.0426424 69
0.47169384 3.3226283 2.0569005 66
0.60116959 4.2293506 2.0622432 56
0.80387902 5.6483717 2.0737052 12
1.1869776 8.3297415 2.1200345 9
1.3954425 9.7804394 1.4683831 3
1.3868653 9.7082062 0.4892706 84
0.0049374774 0.030959431 1.9991974 75
0.046277341 0.31201583 2.0057628 96
0.059780207 0.40952766 2.0131991 95
0.088456497 0.6087392 2.0125027 86
0.11970012 0.82466984 2.0227277 93
0.15370494 1.0601748 2.0296695 52
0.20036508 1.3819666 2.1235478 28
0.24775881 1.7088177 2.1431985 15
0.019550774 0.12380747 2.0010643 89
0.035477158 0.21741261 2.0082631 93
0.075259693 0.51108599 2.0251129 97
0.10473909 0.7128765 2.0136113 93
0.13763057 0.9389413 2.0251279 92
0.1780269 1.2144839 2.0779295 32
0.22551727 1.5384176 2.1329036 24
0.27700689 1.8896319 2.1486869 15
0.29878277 2.076031 2.1409249 14
0.34647596 2.4073906 2.0428298 67
0.42792013 2.9695983 2.0516768 63
0.53666514 3.7242186 2.0553207 59
0.69986641 4.8507609 2.0684466 51
0.97538406 6.7520232 2.0939183 36
0.332899 2.3044803 0.53353411 73
1.4086171 9.739027 0.97464204 75
0.31741568 2.1838472 2.0459561 32
0.38746107 2.6624925 2.0426424 69
0.48328912 3.320962 2.0569005 67
0.61658341 4.2317171 2.0643413 55
0.82359064 5.6455307 2.0737052 13
1.2097243 8.2822638 2.1094837 13
1.4338734 9.8049088 1.4725219 3
1.4214684 9.7082491 0.48947209 82
0.0050455164 0.030942008 1.9991974 75
0.047366198 0.3118524 2.0057628 96
0.061209358 0.40931651 2.0131991 93
0.090580858 0.60842669 2.0125027 86
0.12257803 0.824247 2.0227277 93
0.15740469 1.0596319 2.0296695 36
0.20518781 1.3812587 2.1235478 23
0.25372216 1.7079425 2.1431985 14
0.019982824 0.12373847 2.0010643 88
0.036235854 0.21728744 2.0082631 91
0.07704325 0.51082015 2.0251129 97
0.10722686 0.71250659 2.0136113 93
0.14090723 0.93845528 2.0251279 92
0.18381433 1.2241715 2.0949931 24
0.23088598 1.537621 2.1329036 25
0.28360125 1.8886535 2.1486869 15
0.30394623 2.060863 2.1269066 17
0.3548772 2.4061666 2.0428298 67
0.43828335 2.9680865 2.0516768 63
0.54966182 3.7223227 2.0553207 58
0.71611637 4.8437023 2.0665736 51
0.99894702 6.7485776 2.0939183 36
0.34094107 2.3033042 0.53353411 75
1.4426041 9.7340498 0.97464204 78
0.32558686 2.1864192 2.0492809 39
0.39675251 2.6611238 2.0426424 69
0.4948785 3.3192544 2.0569005 67
0.63135117 4.2295389 2.0643413 56
0.84329218 5.642622 2.0737052 14
1.2407851 8.2924099 2.1130006 10
1.4673564 9.7949457 1.4718322 3
1.456089 9.708168 0.48967364 81
0.0051534935 0.030924208 1.9991974 75
0.048454478 0.31168514 2.0057628 96
0.062791958 0.41010681 2.0180943 95
0.09270411 0.60810679 2.0125027 88
0.12545444 0.82381403 2.0227277 93
0.16110255 1.059076 2.0296695 35
0.21000805 1.3805342 2.1235478 23
0.25968245 1.7070464 2.1431985 14
0.02041463 0.12366797 2.0010643 88
0.036994107 0.21715964 2.0082631 89
0.078825876 0.51054811 2.0251129 97
0.10971332 0.71212792 2.0136113 93
0.14418221 0.93795764 2.0251279 90
0.19165297 1.246722 2.1333864 22
0.23625188 1.5368056 2.1329036 25
0.29019216 1.8876519 2.1486869 15
0.30581152 2.0245271 2.0918612 23
0.36327416 2.4049132 2.0428298 69
0.44864124 2.9665387 2.0516768 63
0.56265175 3.7203813 2.0553207 59
0.73301971 4.8411732 2.0665736 53
1.0224979 6.7450495 2.0939183 39
0.34897903 2.3020999 0.53353411 95
1.4773207 9.7338791 0.97508824 78
0.33265394 2.1815779 2.0459561 64
0.40542912 2.6557269 2.0396991 69
0.5064618 3.3175068 2.0569005 67
0.64611119 4.2273092 2.0643413 39
0.86298352 5.6396437 2.0737052 14
1.2682514 8.2784204 2.110656 4
1.5022892 9.7946596 1.4725219 3
1.4907261 9.7079639 0.48987517 81
0.0052534863 0.030863123 1.9941976 73
0.049542166 0.31151411 2.0057628 96
0.064223118 0.40988511 2.0180943 95
0.094826236 0.60777944 2.0125027 88
0.12832932 0.82337111 2.0227277 93
0.16479842 1.0585072 2.0296695 32
0.21482575 1.3797926 2.1235478 24
0.2656396 1.7061296 2.1431985 14
0.020846186 0.12359595 2.0010643 86
0.037751913 0.21702917 2.0082631 89
0.080411218 0.50902748 2.0202737 96
0.11219844 0.71174061 2.0136113 93
0.14745539 0.93744862 2.0251279 90
0.19600368 1.2460454 2.1333864 22
0.24161488 1.5359716 2.1329036 25
0.29677951 1.8866274 2.1486869 16
0.30742684 1.9882038 2.0568159 28
0.37166661 2.4036305 2.0428298 69
0.45899364 2.9649544 2.0516768 63
0.57563484 3.7183943 2.0553207 59
0.74920404 4.834003 2.0647006 51
1.0460362 6.7414393 2.0939183 40
0.3562595 2.2960134 0.53260148 98
1.5120538 9.7335835 0.9755345 75
0.34026706 2.1804035 2.0459561 75
0.41469687 2.6542952 2.0396991 67
0.51803899 3.3157187 2.0569005 66
0.66156465 4.2295127 2.0664394 8
0.88266432 5.6365967 2.0737052 16
nan nan nan 0
1.5372376 9.7942486 1.4732118 3
1.5253798 9.7076378 0.49007672 79
0.0053611863 0.030844595 1.9941976 73
0.050754149 0.31210619 2.0107021 96
0.065653488 0.40965846 2.0180943 95
0.096711755 0.60596985 2.007731 88
0.13120264 0.82291818 2.0227277 91
0.16886917 1.0602915 2.0340583 29
0.21964082 1.3790344 2.1235478 25
0.2710892 1.7020259 2.1393616 14
0.021277491 0.12352243 2.0010643 88
0.038509253 0.21689609 2.0082631 89
0.082187563 0.5087437 2.0202737 96
0.11495691 0.71304834 2.0183041 93
0.15072682 0.93692827 2.0251279 83
0.200352 1.2453536 2.1333864 23
0.24697496 1.5351189 2.1329036 25
0.30444032 1.8922744 2.1560371 17
0.31269327 1.9765509 2.0463023 33
0.38005459 2.4023187 2.0428298 69
0.46868634 2.9592042 2.0489354 63
0.58861101 3.7163625 2.0553207 59
0.76607329 4.8313589 2.0647006 48
1.069562 6.7377467 2.0939183 37
nan nan nan 0
1.5475843 9.7380838 0.9764269 75
0.34728736 2.1755147 2.0426311 73
0.42395955 2.6528316 2.0396991 67
0.52892953 3.309633 2.054368 66
0.67632437 4.2271776 2.0664394 8
0.90233433 5.6334815 2.0737052 16
0.47716311 2.9757214 0.81758988 27
1.5722015 9.7937136 1.4739016 3
1.5600491 9.7071857 0.49027824 77
0.0054688212 0.030825693 1.9941976 75
0.051843293 0.31192711 2.0107021 96
0.067083061 0.40942678 2.0180943 95
0.098826393 0.60562861 2.007731 88
0.13407436 0.82245517 2.0227277 93
0.17295434 1.0620601 2.0384469 28
0.22445321 1.3782593 2.1235478 25
0.27702874 1.7010694 2.1393616 13
0.021759165 0.12373251 2.0060561 86
0.039266124 0.21676034 2.0082631 88
0.08396291 0.50845373 2.0202737 97
0.11744521 0.71264273 2.0183041 91
0.15399639 0.93639636 2.0251279 76
0.20427461 1.2420733 2.1291206 25
0.25233203 1.5342474 2.1329036 25
0.30884296 1.8778193 2.1413364 17
0.31959081 1.9754474 2.0463023 33
0.38843796 2.4009774 2.0428298 67
0.47901309 2.9575503 2.0489354 63
0.60157996 3.7142854 2.0553207 59
0.78219128 4.824079 2.0628276 47
1.0923059 6.7292366 2.0925093 34
nan nan nan 0
1.5823658 9.7375364 0.97687304 77
0.3548792 2.1742892 2.0426311 73
0.43321705 2.6513355 2.0396991 69
0.540479 3.3077664 2.054368 67
0.69107586 4.224791 2.0664394 26
0.92199337 5.6302977 2.0737052 17
0.49619699 3.0267997 0.83048534 2
1.6063783 9.7881651 1.4739016 14
1.5947341 9.7066126 0.49047977 78
0.0055763898 0.030806417 1.9941976 75
0.052931804 0.31174424 2.0107021 96
0.068511821 0.40919012 2.0180943 95
0.10093983 0.60527992 2.007731 88
0.13694446 0.82198215 2.0227277 91
0.17980738 1.0803559 2.0735562 28
0.22926287 1.3774674 2.1235478 25
0.28296489 1.700092 2.1393616 13
0.02219094 0.1236558 2.0060561 86
0.040022522 0.21662195 2.0082631 89
0.085737236 0.50815755 2.0202737 97
0.11993208 0.71222836 2.0183041 93
0.15726408 0.93585312 2.0251279 55
0.20860903 1.2413526 2.1291206 27
0.25768602 1.5333574 2.1329036 25
0.31258655 1.8600135 2.1229608 18
0.32590264 1.9708015 2.0427978 38
0.39681658 2.3996069 2.0428298 66
0.48933396 2.9558601 2.0489354 63
0.61454159 3.7121627 2.0553207 59
0.79902565 4.8213191 2.0628276 47
1.1150036 6.7206502 2.0911002 33
1.5380281 9.2704124 1.8755746 23
1.6179786 9.7417803 0.9777655 77
0.36246669 2.1730373 2.0426311 75
0.4424693 2.6498072 2.0396991 69
0.55202198 3.3058596 2.054368 66
0.70581895 4.222353 2.0664394 63
0.94164109 5.6270447 2.0737052 20
nan nan nan 0
1.6413548 9.7873821 1.4745914 97
1.6302611 9.7108402 0.49088284 79
0.0056838905 0.030786764 1.9941976 75
0.054019675 0.31155759 2.0107021 96
0.06993974 0.40894848 2.0180943 95
0.10305203 0.6049239 2.007731 88
0.13948505 0.81957322 2.0181251 91
0.18518381 1.089169 2.0911107 26
0.23406972 1.3766587 2.1235478 26
0.2888976 1.6990939 2.1393616 13
0.022622444 0.12357759 2.0060561 88
0.040778436 0.21648093 2.0082631 93
0.087724164 0.50909466 2.0251129 96
0.12212496 0.7101047 2.0136113 93
0.16052987 0.9352985 2.0251279 39
0.21249965 1.2380464 2.1248546 28
0.26303685 1.5324485 2.1329036 24
0.31391543 1.8288393 2.0898843 18
0.33278003 1.9696518 2.0427978 48
0.40519032 2.3982069 2.0428298 67
0.49964881 2.954134 2.0489354 63
0.62675685 3.7056267 2.0530026 59
0.81507641 4.81393 2.0609546 44
1.1376545 6.711988 2.0896909 32
1.5687367 9.2553005 1.8737093 25
1.6528069 9.740983 0.9782117 78
0.3700498 2.1717589 2.0426311 75
0.45171618 2.6482465 2.0396991 69
0.56355822 3.3039126 2.054368 66
0.72055334 4.2198629 2.0664394 65
0.96127748 5.6237235 2.0737052 21
1.4190949 8.2933521 2.1200345 31
1.6746728 9.7767124 1.4739016 101
1.6649926 9.7100134 0.49108434 80
0.0057913214 0.030766737 1.9941976 75
0.055106882 0.31136712 2.0107021 96
0.071366817 0.40870184 2.0180943 95
0.10541901 0.60603195 2.0125027 88
0.14234503 0.81908131 2.0181251 89
0.19226332 1.1073996 2.1262202 25
0.23887374 1.3758333 2.1235478 26
0.29482678 1.6980751 2.1393616 13
0.02300006 0.12321331 2.0010643 86
0.041533843 0.21633725 2.0082631 93
0.089500695 0.50878537 2.0251129 96
0.12460294 0.70967406 2.0136113 93
0.16379368 0.93473238 2.0251279 39
0.21681994 1.2372971 2.1248546 28
0.26838449 1.5315208 2.1329036 23
0.3150306 1.7976791 2.0568078 18
0.33965337 1.9684783 2.0427978 66
0.41355917 2.3967781 2.0428298 69
0.50995767 2.9523718 2.0489354 58
0.63968807 3.7034161 2.0530026 59
0.83187526 4.8110557 2.0609546 44
1.1602585 6.7032485 2.0882816 31
1.6110877 9.3078518 1.8849006 19
1.6884998 9.7449684 0.97910416 78
0.37762842 2.1704538 2.0426311 75
0.46095753 2.6466537 2.0396991 67
0.57508761 3.3019254 2.054368 64
0.73527908 4.2173223 2.0664394 66
0.98171389 5.6249857 2.0753479 22
1.4463627 8.2787743 2.1176901 31
nan nan nan 0
1.6997383 9.7090645 0.49128589 76
0.0058986824 0.030746333 1.9941976 75
0.056193423 0.31117287 2.0107021 96
0.072793014 0.40845025 2.0180943 95
0.10753381 0.60566032 2.0125027 84
0.14520331 0.81857938 2.0181251 89
0.19654576 1.1090807 2.1306086 26
0.24367483 1.3749911 2.1235478 27
0.30075237 1.6970356 2.1393616 14
0.023430012 0.12313228 2.0010643 86
0.042288747 0.21619096 2.0082631 93
0.091276154 0.50846988 2.0251129 96
0.12707941 0.70923483 2.0136113 93
0.1670555 0.93415499 2.0251279 40
0.22113757 1.2365327 2.1248546 28
0.27372885 1.5305748 2.1329036 23
0.31891632 1.7832197 2.0421071 22
0.3465226 1.9672806 2.0427978 69
0.42192298 2.3953197 2.0428298 67
0.52026021 2.9505737 2.0489354 59
0.65184218 3.6967978 2.0506845 58
0.84866381 4.8081226 2.0609546 43
1.1803114 6.6802611 2.0826449 10
1.6418591 9.2924967 1.8830355 13
1.7233731 9.7439184 0.97955036 76
0.38520238 2.1691225 2.0426311 73
0.47019324 2.6450284 2.0396991 67
0.58660996 3.2998977 2.054368 64
0.74999577 4.2147298 2.0664394 64
1.0013428 5.6215243 2.0753479 25
1.4761053 8.2784586 2.1188624 31
nan nan nan 0
1.7344974 9.7079887 0.49148741 76
0.0060149385 0.030768257 1.9991974 73
0.057138342 0.31021068 2.0057628 96
0.074218325 0.40819365 2.0180943 95
0.10964731 0.60528129 2.0125027 84
0.1480598 0.81806755 2.0181251 89
0.19998969 1.1060303 2.1262202 26
0.24847296 1.3741322 2.1235478 27
0.30724475 1.6991302 2.1431985 15
0.023859683 0.12304974 2.0010643 88
0.043043137 0.21604203 2.0082631 91
0.093050487 0.50814819 2.0251129 96
0.12955432 0.7087869 2.0136113 93
0.1703153 0.93356615 2.0251279 40
0.22545256 1.2357533 2.1248546 28
0.2790699 1.52961 2.1329036 22
0.32513899 1.7820954 2.0421071 31
0.35338756 1.9660591 2.0427978 69
0.43028164 2.3938322 2.0428298 69
0.5305565 2.9487398 2.0489354 64
0.66395789 3.6901398 2.0483663 32
0.86544222 4.805131 2.0609546 44
1.2061762 6.6902637 2.0868723 10
1.674286 9.2867098 1.8830355 11
1.7591441 9.7476444 0.98044276 76
0.39277172 2.1677647 2.0426311 73
0.47942331 2.6433709 2.0396991 69
0.59812522 3.2978299 2.054368 66
0.76470333 4.2120862 2.0664394 64
1.0218039 5.6226416 2.0769906 28
1.5049936 8.2732553 2.1188624 32
nan nan nan 0
1.7692701 9.7067909 0.49168897 77
0.0061223032 0.030747073 1.9991974 73
0.058220834 0.31000936 2.0057628 96
0.075642742 0.4079321 2.0180943 95
0.11175945 0.60489482 2.0125027 88
0.15091449 0.81754577 2.0181251 88
0.20384923 1.1053255 2.1262202 26
0.25326806 1.3732563 2.1235478 27
0.31317392 1.6980473 2.1431985 15
0.02428906 0.1229657 2.0010643 88
0.043797001 0.21589047 2.0082631 93
0.094823688 0.50782025 2.0251129 97
0.13202767 0.70833039 2.0136113 93
0.17397137 0.93510693 2.0296285 39
0.22976476 1.2349588 2.1248546 28
0.28440753 1.5286266 2.1329036 22
0.33135769 1.7809497 2.0421071 39
0.36024821 1.9648136 2.0427978 71
0.43863502 2.3923159 2.0428298 69
0.54084629 2.9468699 2.0489354 64
0.67683482 3.6877992 2.0483663 6
0.88220996 4.8020811 2.0609546 43
1.2312576 6.6954494 2.0896909 29
1.7066923 9.2808075 1.8830355 17
1.7940605 9.7463427 0.98088896 76
0.40033621 2.1663804 2.0426311 75
0.48864746 2.6416814 2.0396991 67
0.60963309 3.295722 2.054368 66
0.77940166 4.2093916 2.0664394 64
1.0422851 5.6236839 2.0786333 31
1.5356365 8.2775097 2.1212068 30
nan nan nan 0
1.8049684 9.7103796 0.49209201 77
0.0062295934 0.030725516 1.9991974 73
0.059302613 0.30980426 2.0057628 96
0.077066228 0.40766558 2.0180943 95
0.11387026 0.60450101 2.0125027 88
0.15376733 0.81701398 2.0181251 78
0.20726353 1.1022528 2.1218314 26
0.25806007 1.372364 2.1235478 26
0.31554443 1.6780397 2.1201768 15
0.024718143 0.12288018 2.0010643 89
0.044550333 0.21573627 2.0082631 93
0.096595734 0.50748616 2.0251129 96
0.1344994 0.70786518 2.0136113 93
0.17804609 0.93877316 2.0386302 38
0.23407418 1.2341492 2.1248546 28
0.28974172 1.5276245 2.1329036 21
0.33694062 1.7764516 2.0384321 59
0.36710453 1.9635439 2.0427978 71
0.44698313 2.3907702 2.0428298 69
0.55112946 2.9449639 2.0489354 63
0.68970352 3.6854143 2.0483663 6
0.89896703 4.7989717 2.0609546 40
1.2563897 6.7005405 2.0925093 43
1.7399832 9.2796211 1.883968 16
1.8299079 9.7498102 0.98178142 75
0.40789589 2.1649697 2.0426311 75
0.49786568 2.6399598 2.0396991 67
0.62113363 3.2935741 2.054368 67
0.79409039 4.2066455 2.0664394 64
1.0627857 5.6246519 2.080276 32
1.5663277 8.2816515 2.1235516 17
1.8496507 9.7703238 1.4773506 2
1.8379227 9.699111 0.49189049 76
0.0063368073 0.030703582 1.9991974 73
0.06038367 0.30959538 2.0057628 96
0.078488775 0.40739411 2.0180943 95
0.11597966 0.60409987 2.0125027 88
0.15661828 0.81647229 2.0181251 67
0.21110985 1.1015226 2.1218314 27
0.26284894 1.3714547 2.1235478 26
0.31717566 1.6548878 2.0933185 14
0.025146924 0.12279314 2.0010643 89
0.045303121 0.21557945 2.0082631 91
0.098127037 0.50591111 2.0202737 95
0.13696948 0.70739138 2.0136113 95
0.18462828 0.95525116 2.0746372 35
0.23838073 1.2333246 2.1248546 28
0.29507235 1.5266038 2.1329036 21
0.3431395 1.7752645 2.0384321 78
0.37395632 1.9622507 2.0427978 69
0.45532575 2.3891954 2.0428298 69
0.5614059 2.9430223 2.0489354 63
0.703394 3.6873364 2.0506845 19
0.91571301 4.795805 2.0609546 40
1.2815726 6.7055383 2.0953276 44
1.7723646 9.2734909 1.883968 14
1.8648657 9.7482538 0.98222762 46
0.41545054 2.163533 2.0426311 75
0.50707781 2.6382058 2.0396991 67
0.63262659 3.2913859 2.054368 66
0.80876952 4.2038479 2.0664394 66
1.0833058 5.625545 2.0819185 34
1.5961465 8.2809067 2.1247239 11
1.8837442 9.7638073 1.4773506 2
1.8755569 9.7122583 0.49269664 81
0.0064290338 0.030639827 1.9941976 75
0.061409995 0.30939341 2.0057628 96
0.079839312 0.40713155 2.0180943 95
0.11769578 0.60224611 2.007731 86
0.1596994 0.81786585 2.0227277 42
0.21476148 1.1008164 2.1218314 28
0.26739544 1.3705757 2.1235478 25
0.31713653 1.6255078 2.0587859 14
0.025532566 0.12271354 2.0010643 89
0.045980163 0.21543606 2.0082631 93
0.099715926 0.50560033 2.0202737 95
0.13919114 0.70695752 2.0136113 93
0.19157839 0.9738645 2.1151445 29
0.24246927 1.2325274 2.1248546 29
0.30013314 1.5256169 2.1329036 21
0.34871498 1.7741778 2.0384321 85
0.38046134 1.9609998 2.0427978 69
0.46324608 2.3876722 2.0428298 69
0.57116228 2.9411442 2.0489354 64
0.71646237 3.6893325 2.0530026 9
0.93077499 4.7929044 2.0609546 44
1.3026322 6.7014794 2.0953276 43
1.804045 9.2723856 1.8849006 15
1.8981339 9.7469053 0.98267382 46
0.4226228 2.1621432 2.0426311 75
0.51582366 2.6365097 2.0396991 67
0.64296365 3.289382 2.054368 64
0.82197225 4.2012858 2.0664394 66
1.1009736 5.6221137 2.0819185 37
1.6240236 8.2853909 2.1270685 34
1.9191759 9.7821398 1.4807998 2
1.9099103 9.7259274 0.49350274 80
0.0065412913 0.030616056 1.9941976 75
0.062543564 0.30916625 2.0057628 97
0.081131302 0.40583777 2.0131991 95
0.11990232 0.60181069 2.007731 86
0.16269596 0.81727499 2.0227277 38
0.21879473 1.100022 2.1218314 28
0.27241704 1.3695865 2.1235478 23
0.3224667 1.6211901 2.0549488 16
0.026003564 0.12261459 2.0010643 89
0.046807036 0.21525793 2.0082631 93
0.10190472 0.50644678 2.0251129 96
0.14190464 0.70641798 2.0136113 93
0.1955747 0.97529107 2.1196454 29
0.24698506 1.2316303 2.1248546 29
0.30572277 1.5245066 2.1329036 23
0.3548581 1.7695017 2.0347569 81
0.3876462 1.9595921 2.0427978 71
0.47199425 2.3859584 2.0428298 69
0.58193827 2.9390314 2.0489354 64
0.72997957 3.686682 2.0530026 8
0.94917148 4.7892952 2.0609546 44
1.3283545 6.6964283 2.0953276 43
1.8389736 9.2705288 1.8858333 39
1.9348154 9.7447672 0.98312008 69
0.43054461 2.1605797 2.0426311 75
0.52548349 2.6346014 2.0396991 69
0.65558916 3.2868891 2.054368 63
0.83809793 4.1980991 2.0664394 67
1.1234783 5.6224756 2.0835612 38
1.6567785 8.2838593 2.1282408 34
1.9567223 9.7746992 1.4807998 2
nan nan nan 0
0.0066481214 0.030593038 1.9941976 75
0.063622378 0.30894607 2.0057628 97
0.082547449 0.40555212 2.0131991 95
0.12200231 0.60138851 2.007731 88
0.1655478 0.81670213 2.0227277 38
0.22263318 1.0992514 2.1218314 28
0.27719611 1.3686271 2.1235478 23
0.32430527 1.6012019 2.0319271 18
0.026431408 0.12252308 2.0010643 89
0.04755814 0.21509321 2.0082631 93
0.10367193 0.50608802 2.0251129 97
0.14436962 0.70591825 2.0136113 93
0.19984923 0.97886986 2.1286471 29
0.25128275 1.2307608 2.1248546 29
0.3104395 1.5204773 2.1289141 25
0.36103263 1.7682523 2.0347569 85
0.3944841 1.958227 2.0427978 71
0.48031992 2.3842964 2.0428298 69
0.59136736 2.932883 2.0461938 63
0.74371976 3.6884542 2.0553207 8
0.96588349 4.785953 2.0609546 44
1.3507713 6.6870484 2.0939183 44
1.8732679 9.2736835 1.8876985 23
1.969806 9.742837 0.98356628 72
0.4380838 2.1590638 2.0426311 75
0.53467667 2.632751 2.0396991 67
0.66705853 3.2845805 2.054368 62
0.85274696 4.195148 2.0664394 67
1.1430975 5.6185203 2.0835612 38
1.6856846 8.2780256 2.1282408 37
1.9987425 9.8066282 1.4863183 2
nan nan nan 0
0.006749535 0.030570824 1.9941976 75
0.064646527 0.30873337 2.0057628 97
0.083891854 0.40527615 2.0131991 95
0.12399591 0.60098064 2.007731 88
0.16825517 0.8161487 2.0227277 38
0.2262772 1.0985072 2.1218314 29
0.28173313 1.3677003 2.1235478 23
0.33155376 1.6095377 2.0434382 32
0.026878621 0.12272218 2.0060561 89
0.048233636 0.21494275 2.0082631 91
0.10526133 0.50575978 2.0251129 97
0.14658661 0.70546126 2.0136113 93
0.20265144 0.97606939 2.124146 28
0.25536272 1.2299207 2.1248546 29
0.31425437 1.5135373 2.1209352 25
0.36727464 1.7704288 2.0384321 85
0.40097564 1.9569082 2.0427978 71
0.48822388 2.3826904 2.0428298 69
0.60108989 2.9309058 2.0461938 63
0.75594705 3.6859677 2.0553207 8
0.97998273 4.7783527 2.0590816 43
1.3717726 6.6827712 2.0939183 44
1.9049989 9.2722321 1.8886312 19
2.0000975 9.7264948 0.98267382 72
0.44524112 2.157599 2.0426311 75
0.54340428 2.6309633 2.0396991 67
0.67737406 3.2824686 2.054368 40
0.86592215 4.1924486 2.0664394 67
1.160743 5.6149011 2.0835612 38
1.7146368 8.2869692 2.1317577 42
2.0365705 9.8342457 1.491147 2
1.4752653 7.117547 0.38689288 66
0.0068615377 0.030545879 1.9941976 75
0.065777659 0.30849436 2.0057628 96
0.085376702 0.40496594 2.0131991 95
0.12619779 0.6005221 2.007731 88
0.17124537 0.81552655 2.0227277 39
0.23030192 1.0976704 2.1218314 29
0.28674409 1.3666587 2.1235478 22
0.33679241 1.6051739 2.0396011 38
0.027349642 0.12261807 2.0060561 89
0.049058601 0.21475598 2.0082631 93
0.10720254 0.5053519 2.0251129 96
0.1492943 0.70489317 2.0136113 93
0.20684871 0.97741467 2.1286471 28
0.26008341 1.2289312 2.1248546 29
0.31631926 1.4946277 2.0969982 26
0.37437862 1.7689402 2.0384321 85
0.40814537 1.9554255 2.0427978 71
0.49695358 2.3808849 2.0428298 69
0.61182821 2.928683 2.0461938 64
0.77035773 3.6875091 2.0576386 8
0.99832296 4.7745547 2.0590816 44
1.3964397 6.6727591 2.0925093 42
1.9426017 9.2744656 1.8904965 15
2.0425384 9.7431126 0.98490483 74
0.45352241 2.1558735 2.0426311 75
0.55266964 2.6249025 2.036756 69
0.6905452 3.2797232 2.054368 19
0.88274467 4.1889381 2.0664394 67
1.1822985 5.6055756 2.0819185 39
1.7418655 8.2514839 2.1247239 17
3.345722 15.849188 2.348588 3
1.501551 7.1069422 0.38669133 66
0.0069627929 0.030522957 1.9941976 73
0.066800296 0.30827454 2.0057628 95
0.086932577 0.40567619 2.0180943 95
0.12818849 0.60010034 2.007731 86
0.17394881 0.81495416 2.0227277 39
0.23394068 1.0969007 2.1218314 30
0.29127455 1.3657002 2.1235478 22
0.34211352 1.6040484 2.0396011 50
0.027734721 0.12253155 2.0060561 89
0.049733035 0.21460077 2.0082631 95
0.10878962 0.50501263 2.0251129 96
0.15150805 0.70442069 2.0136113 93
0.20991832 0.97676003 2.1286471 29
0.26394293 1.2281079 2.1248546 28
0.3178466 1.4788934 2.0770507 26
0.37962553 1.7678217 2.0384321 85
0.41462755 1.9540612 2.0427978 71
0.50484616 2.3792238 2.0428298 69
0.62153667 2.9266381 2.0461938 64
0.78258163 3.6849339 2.0576386 8
1.0133177 4.7713947 2.0590816 45
1.4173958 6.6683393 2.0925093 40
1.9737728 9.2779255 1.8923615 18
2.0741744 9.741518 0.98535109 73
0.46029302 2.154438 2.0426311 75
0.56091332 2.6231532 2.036756 67
0.69937259 3.2734439 2.0518358 16
0.89516962 4.1863008 2.0664394 67
1.1989255 5.6020427 2.0819185 39
1.763286 8.2320213 2.1212068 11
3.3799257 15.765966 2.3382406 3
1.5238707 7.10219 0.38669133 60
0.0070692962 0.030498467 1.9941976 73
0.067875974 0.30803946 2.0057628 95
0.08834812 0.40537024 2.0180943 95
0.13028245 0.59964919 2.007731 86
0.17679247 0.81434196 2.0227277 39
0.23776814 1.0960773 2.1218314 30
0.29603994 1.3646752 2.1235478 22
0.34703097 1.5997114 2.0357642 73
0.028183635 0.12242907 2.0060561 89
0.050642356 0.21493658 2.0132346 93
0.11063985 0.50461048 2.0251129 96
0.15408887 0.70386064 2.0136113 93
0.21332657 0.97602129 2.1286471 30
0.2682282 1.2271791 2.1248546 28
0.31850174 1.4571637 2.0491242 27
0.38610238 1.7664183 2.0384321 85
0.42144597 1.9526019 2.0427978 69
0.51232678 2.3736417 2.0396919 67
0.63174874 2.9244509 2.0461938 63
0.79543972 3.6821799 2.0576386 7
1.0317787 4.7721806 2.0609546 46
1.4418271 6.6630993 2.0925093 40
2.0082247 9.2805824 1.8942268 21
2.1113284 9.7488203 0.98668975 66
0.4678106 2.1528182 2.0426311 73
0.57006639 2.6211791 2.036756 67
0.71136564 3.2708585 2.0518358 16
0.91050708 4.1829915 2.0664394 69
1.2194499 5.597611 2.0819185 16
1.7903399 8.211257 2.1176901 19
3.4070699 15.613161 2.3182361 4
1.5498914 7.0965571 0.38669133 56
0.0071757128 0.030473605 1.9941976 73
0.068950817 0.30780068 2.0057628 93
0.089762583 0.40505937 2.0180943 96
0.13237482 0.59919077 2.007731 88
0.18089753 0.81944305 2.0365353 38
0.24159271 1.0952407 2.1218314 30
0.30080172 1.3636335 2.1235478 23
0.35261288 1.5984902 2.0357642 78
0.028544405 0.12204811 2.0010643 89
0.051392317 0.21475852 2.0132346 89
0.11240059 0.5042212 2.0251129 96
0.15654485 0.70331848 2.0136113 89
0.21673222 0.97527075 2.1286471 30
0.2725102 1.2262354 2.1248546 29
0.3222785 1.450159 2.0411453 30
0.39226598 1.7650598 2.0384321 85
0.42825925 1.9511189 2.0427978 69
0.5206092 2.3718388 2.0396919 67
0.64195317 2.9222279 2.0461938 64
0.8082881 3.6793807 2.0576386 7
1.0484306 4.7685499 2.0609546 45
1.4650769 6.6580257 2.0925093 44
2.0427191 9.2831106 1.8960922 17
nan nan nan 0
0.47532251 2.1511722 2.0426311 73
0.57921255 2.6191733 2.036756 69
0.72277874 3.2683554 2.0518358 30
0.92510295 4.1797881 2.0664394 68
1.2389817 5.5933199 2.0819185 11
1.8168874 8.1954651 2.1153452 28
3.444386 15.523819 2.307199 3
1.5757365 7.0959811 0.38689288 52
0.0072820415 0.030448372 1.9941976 73
0.070024826 0.30755812 2.0057628 93
0.091175966 0.40474358 2.0180943 95
0.13446559 0.59872502 2.007731 88
0.18675169 0.83215028 2.068753 35
0.24541435 1.0943907 2.1218314 30
0.3055599 1.3625752 2.1235478 23
0.35819051 1.5972497 2.0357642 76
0.028970258 0.12194772 2.0010643 89
0.052141648 0.21457781 2.0132346 89
0.11388195 0.50259912 2.0202737 97
0.15899895 0.70276779 2.0136113 77
0.22013523 0.97450829 2.1286471 31
0.27678892 1.2252767 2.1248546 29
0.3260102 1.4431453 2.0331662 33
