# .PCD v0.7 - Point Cloud Data file format
VERSION 0.7
FIELDS x y z intensity
SIZE 4 4 4 4
TYPE F F F F
COUNT 1 1 1 1
WIDTH 1301
HEIGHT 1
VIEWPOINT 0 0 0 1 0 0 0
POINTS 1301
DATA ascii
0.033742875 -1.7569466 1.9833045 86
0.042184107 -1.9329134 1.9797159 75
0.051110074 -2.3421021 1.9706609 73
0.062127173 -2.8699749 1.9666914 66
0.068581924 -3.1682966 1.744705 72
0.067789488 -3.1571555 1.3641863 40
0.067218952 -3.1562514 1.0172931 41
0.067148522 -3.1529443 0.69021428 46
0.066671766 -3.1564372 0.37582842 53
0.043540578 -2.1316628 1.979459 79
0.052346114 -2.5849152 1.96612 73
0.064450718 -3.1828411 1.9556034 76
0.063695453 -3.1729016 1.5545145 77
0.062869988 -3.1592598 1.188298 47
0.062407926 -3.1637995 0.85393173 46
0.061757099 -3.1587651 0.53230304 59
0.061356839 -3.1665716 0.22143602 71
9.7751865e-05 -0.031350531 1.9991974 80
0.004412875 -0.31462106 2.0008237 97
0.0067534284 -0.41381276 2.0131991 105
0.010310244 -0.60757732 1.9886441 88
0.014069997 -0.82146937 1.9951125 95
0.01814945 -1.0495403 1.9901714 87
0.022484368 -1.3005449 1.9830275 80
0.027625609 -1.5982105 1.9897208 40
0.00058270257 -0.12534028 2.0010643 89
-0.00010589819 -0.2197542 2.0032918 93
0.0077065281 -0.51150811 2.0057559 95
0.010927676 -0.71009171 1.9854547 91
0.014647652 -0.93143779 1.9891212 93
0.018432772 -1.1725492 1.9883448 87
0.022634039 -1.4401513 1.9813027 89
0.027609779 -1.7570536 1.9833045 86
0.03543672 -1.9330491 1.9797159 75
0.042934299 -2.3422663 1.9706609 71
0.052108712 -2.8701744 1.9666914 66
0.057522088 -3.1685166 1.744705 72
0.056768548 -3.157373 1.3641863 40
0.056201167 -3.1564667 1.0172931 41
0.056142285 -3.1531594 0.69021428 46
0.05565333 -3.1566505 0.37582842 53
0.036099419 -2.1318018 1.979459 79
0.043322753 -2.5850821 1.96612 73
0.053340133 -3.1830466 1.9556034 76
0.052619573 -3.1731045 1.5545145 77
0.051919211 -3.1641819 1.1899408 47
0.051363826 -3.1639981 0.85393173 46
0.050730579 -3.1589615 0.53230304 59
0.050223719 -3.1617711 0.22123447 70
-1.1682496e-05 -0.031350676 1.9991974 80
0.0033146157 -0.31463453 2.0008237 97
0.0053089112 -0.4138338 2.0131991 105
0.0081893392 -0.60760963 1.9886441 88
0.011202446 -0.82151341 1.9951125 95
0.014485762 -1.0495973 1.9901714 87
0.017944483 -1.3006153 1.9830275 82
0.022046648 -1.5982971 1.9897208 40
0.00014517987 -0.12534155 2.0010643 89
-0.00087298284 -0.21975249 2.0032918 93
0.0059209848 -0.51153195 2.0057559 95
0.0084489286 -0.71012551 1.9854547 91
0.01139624 -0.93148327 1.9891212 93
0.014307834 -1.1699985 1.9840788 89
0.017606834 -1.4402215 1.9813027 89
0.021476349 -1.7571393 1.9833045 85
0.028688906 -1.933161 1.9797159 75
0.034758005 -2.342402 1.9706609 71
0.042089622 -2.8703387 1.9666914 61
0.046461552 -3.1686981 1.744705 73
0.045746911 -3.1575518 1.3641863 40
0.045182697 -3.1566436 1.0172931 41
0.04513536 -3.1533363 0.69021428 46
0.044634223 -3.1568258 0.37582842 51
0.028657822 -2.1319149 1.979459 79
0.034298871 -2.5852175 1.96612 75
0.042228904 -3.1832137 1.9556034 74
0.041543048 -3.173269 1.5545145 77
0.040873833 -3.1643438 1.1899408 45
0.040319093 -3.1641581 0.85393173 46
0.039703436 -3.1591191 0.53230304 59
0.039186776 -3.1619272 0.22123447 70
-0.00012658841 -0.031350426 1.9991974 80
0.0021614002 -0.3146446 2.0008237 97
0.0037920987 -0.41385046 2.0131991 105
0.0059768809 -0.60912895 1.9934158 86
0.0081913741 -0.821549 1.9951125 96
0.010638698 -1.0496433 1.9901714 85
0.013177368 -1.3006724 1.9830275 80
0.016220897 -1.6015728 1.9935577 40
-0.00031422084 -0.12534124 2.0010643 91
-0.0016784101 -0.21974783 2.0032918 95
0.0040460867 -0.51155019 2.0057559 95
0.0058461311 -0.71015173 1.9854547 93
0.0078195259 -0.9315201 1.9891212 93
0.0098152691 -1.1700448 1.9840788 89
0.012076666 -1.4402784 1.9813027 89
0.014729278 -1.7572088 1.9833045 85
0.021603322 -1.9332532 1.9797159 73
0.026172439 -2.3425136 1.9706609 71
0.031569019 -2.8704736 1.9666914 61
0.034896091 -3.1732769 1.747023 73
0.034173597 -3.1576982 1.3641863 40
0.033612721 -3.1567879 1.0172931 41
0.033027116 -3.1534863 0.69021428 49
0.032563869 -3.1619537 0.37627462 51
0.020471666 -2.1320093 1.979459 79
0.024372119 -2.5853302 1.96612 71
0.03000596 -3.1833522 1.9556034 74
0.029358294 -3.1734049 1.5545145 77
0.028723355 -3.1644773 1.1899408 47
0.028169334 -3.1642895 0.85393173 48
0.028124418 -3.1592436 0.53230304 59
0.02759747 -3.1620495 0.22123447 71
-0.00023602101 -0.031349789 1.9991974 80
0.0010630724 -0.31465021 2.0008237 97
0.0023474682 -0.41386119 2.0131991 106
0.0038505879 -0.60914612 1.9934158 86
0.0053235833 -0.8215726 1.9951125 95
0.0069746953 -1.049674 1.9901714 85
0.0086557576 -1.3035245 1.9871606 82
0.010630269 -1.6016196 1.9935577 42
-0.00075174141 -0.12533937 2.0010643 89
-0.0024454629 -0.21974063 2.0032918 95
0.0022604186 -0.51156121 2.0057559 96
0.0033672038 -0.71016783 1.9854547 93
0.0047414727 -0.93371856 1.9936218 95
0.005935207 -1.1700709 1.9840788 89
0.007300463 -1.4403106 1.9813027 89
0.0089020822 -1.757248 1.9833045 85
0.014854878 -1.9333167 1.9797159 75
0.017995382 -2.3425906 1.9706609 71
0.021549007 -2.8705664 1.9666914 66
0.023819076 -3.1733794 1.747023 65
0.023150966 -3.1577983 1.3641863 40
0.0226276 -3.1616833 1.0187023 40
0.0225696 -3.1535783 0.69021428 49
0.022078272 -3.1620443 0.37627462 51
0.013401555 -2.1320655 1.979459 79
0.01579872 -2.585397 1.96612 71
0.019449418 -3.1834342 1.9556034 74
0.018834742 -3.173485 1.5545145 77
0.018229414 -3.1645553 1.1899408 47
0.017703161 -3.1692257 0.85510403 48
0.017096428 -3.1593225 0.53230304 59
0.016559688 -3.1621265 0.22123447 70
-0.00033997936 -0.031348836 1.9991974 82
1.9648818e-05 -0.31465203 2.0008237 96
0.00097504212 -0.4138667 2.0131991 107
0.0018305654 -0.60915554 1.9934158 86
0.0025991211 -0.82158571 1.9951125 95
0.0034938124 -1.0496913 1.9901714 85
0.0043330677 -1.3035461 1.9871606 82
0.0053190477 -1.6016461 1.9935577 42
-0.0011673777 -0.1253362 2.0010643 88
-0.0031741357 -0.2197313 2.0032918 93
0.00056400819 -0.51156586 2.0057559 95
0.001012184 -0.71017504 1.9854547 91
0.0014821579 -0.93372947 1.9936218 95
0.0018508612 -1.1700845 1.9840788 89
0.0022727968 -1.4403273 1.9813027 89
0.0027680872 -1.7572684 1.9833045 85
0.008443689 -1.9333555 1.9797159 75
0.010243959 -2.3465302 1.9737986 71
0.012029746 -2.8706219 1.9666914 66
0.013295638 -3.1734412 1.747023 66
0.012679202 -3.1578579 1.3641863 40
0.012142955 -3.161741 1.0187023 40
0.011579424 -3.15855 0.69114685 46
0.011040545 -3.1621022 0.37627462 51
0.005959176 -2.1320994 1.979459 79
0.0067739044 -2.5854363 1.96612 73
0.0083370404 -3.1834829 1.9556034 74
0.0077570979 -3.1735315 1.5545145 77
0.0071829432 -3.1645997 1.1899408 45
0.0066403914 -3.1692684 0.85510403 45
0.006619643 -3.1593618 0.53230304 59
0.0060832007 -3.1671603 0.22143602 70
-0.00045487631 -0.031347379 1.9991974 78
-0.0011336085 -0.31464997 2.0008237 96
-0.00054186169 -0.4138675 2.0131991 109
-0.00040107084 -0.60766464 1.9886441 88
-0.00041215849 -0.82158971 1.9951125 95
-0.00035352222 -1.049697 1.9901714 85
-0.00044469663 -1.3035531 1.9871606 82
-0.00055131415 -1.6016548 1.9935577 43
-0.0016225048 -0.12504154 1.9960728 88
-0.0039794701 -0.21971819 2.0032918 93
-0.0013109782 -0.51156449 2.0057559 95
-0.0015907445 -0.71017396 1.9854547 91
-0.0019401414 -0.93372858 1.9936218 95
-0.002437725 -1.1700834 1.9840788 89
-0.0030062818 -1.440326 1.9813027 89
-0.0036726419 -1.7572668 1.9833045 86
0.0013575299 -1.9333733 1.9797159 75
0.0016434267 -2.3465521 1.9737986 73
0.0015083097 -2.870647 1.9666914 67
0.0016643066 -3.1734684 1.747023 72
0.0011066092 -3.162519 1.3660593 39
0.00055451383 -3.1617644 1.0187023 43
2.6817675e-06 -3.1585712 0.69114685 48
-0.00054921233 -3.1621213 0.37627462 53
-0.0018553979 -2.1321068 1.979459 79
-0.0027022387 -2.5854437 1.96612 73
-0.0033310635 -3.1834919 1.9556034 74
-0.0038745282 -3.1735384 1.5545145 79
-0.0044159428 -3.1646047 1.1899408 45
-0.0049756016 -3.1692712 0.85510403 47
-0.0049600406 -3.1593647 0.53230304 60
-0.0055250628 -3.1671612 0.22143602 71
-0.00056429632 -0.031345598 1.9991974 80
-0.002231935 -0.3146441 2.0008237 96
-0.0019865253 -0.41386306 2.0131991 110
-0.0025222141 -0.60765958 1.9886441 88
-0.0032800392 -0.82158327 1.9951125 95
-0.0040176469 -1.0496895 1.9901714 87
-0.0049949437 -1.3035437 1.9871606 82
-0.0061421297 -1.6016432 1.9935577 43
-0.0020589714 -0.12503511 1.9960728 89
-0.0047464049 -0.21970297 2.0032918 91
-0.0030966634 -0.5115568 2.0057559 93
-0.0040697046 -0.71016413 1.9854547 91
-0.0050364863 -0.93371701 1.9936218 93
-0.0063178479 -1.1700689 1.9840788 91
-0.007782558 -1.4403081 1.9813027 87
-0.009499928 -1.7572449 1.9833045 86
-0.0053912112 -1.9333664 1.9797159 73
-0.0065475781 -2.3465436 1.9737986 73
-0.0085245324 -2.8748159 1.9694327 67
-0.0094131762 -3.173455 1.747023 73
-0.0099326484 -3.1625037 1.3660593 39
-0.010482106 -3.1617472 1.0187023 43
-0.010471517 -3.1585541 0.69114685 48
-0.011035182 -3.1621022 0.37627462 53
-0.008925708 -2.1320889 1.979459 79
-0.011275865 -2.5854206 1.96612 73
-0.013887885 -3.1834633 1.9556034 76
-0.01439834 -3.1735082 1.5545145 79
-0.014910125 -3.1645727 1.1899408 45
-0.015485256 -3.1692374 0.85510403 48
-0.016013315 -3.1642802 0.53299284 59
-0.016580485 -3.1671226 0.22143602 65
-0.00067370944 -0.031343441 1.9991974 80
-0.0033302342 -0.31463441 2.0008237 97
-0.0034311649 -0.41385362 2.0131991 109
-0.0046433262 -0.607647 1.9886441 88
-0.0061478801 -0.82156688 1.9951125 95
-0.0076817228 -1.0496691 1.9901714 89
-0.0095451297 -1.3035182 1.9871606 82
-0.01173287 -1.6016119 1.9935577 47
-0.0024954127 -0.12502715 1.9960728 89
-0.0055132825 -0.21968506 2.0032918 91
-0.004882311 -0.51154292 2.0057559 93
-0.0065486147 -0.71014559 1.9854547 91
-0.0082957353 -0.93369377 1.9936218 93
-0.010402111 -1.1700397 1.9840788 89
-0.012810124 -1.4402721 1.9813027 89
-0.015633799 -1.7572011 1.9833045 86
-0.012139886 -1.9333357 1.9797159 73
-0.014738503 -2.3465064 1.9737986 71
-0.01855946 -2.8747687 1.9694327 69
-0.020490544 -3.1734028 1.747023 73
-0.020971786 -3.1624498 1.3660593 39
-0.021518599 -3.1616912 1.0187023 43
-0.021496864 -3.158498 0.69114685 46
-0.022072909 -3.1620443 0.37627462 53
-0.016368033 -2.1320446 1.979459 79
-0.020300597 -2.5853655 1.96612 73
-0.025000161 -3.1833954 1.9556034 76
-0.025475862 -3.1734385 1.5545145 79
-0.025956452 -3.1645014 1.1899408 47
-0.026547866 -3.1691639 0.85510403 48
-0.027058618 -3.1642051 0.53299284 59
-0.027635703 -3.1670454 0.22143602 65
-0.00078311434 -0.031340897 1.9991974 80
-0.0044284929 -0.31462085 2.0008237 97
-0.0048757629 -0.4138391 2.0131991 110
-0.0067643817 -0.60762709 1.9886441 88
-0.0090156458 -0.82154042 1.9951125 95
-0.011345705 -1.0496359 1.9901714 85
-0.014095199 -1.303477 1.9871606 76
-0.017323468 -1.6015613 1.9935577 47
-0.0029318237 -0.12501769 1.9960728 89
-0.006280093 -0.21966448 2.0032918 91
-0.006667899 -0.51152271 2.0057559 93
-0.0090274457 -0.71011835 1.9854547 93
-0.011554886 -0.93365908 1.9936218 95
-0.014518568 -1.1726042 1.9883448 89
-0.017837534 -1.4402187 1.9813027 87
-0.02176748 -1.7571357 1.9833045 86
-0.018888414 -1.9332817 1.9797159 75
-0.022929249 -2.3464406 1.9737986 71
-0.028594162 -2.8746865 1.9694327 69
-0.031567663 -3.1733119 1.747023 73
-0.032010671 -3.1623571 1.3660593 39
-0.032604225 -3.1663938 1.0201114 41
-0.032521948 -3.1584039 0.69114685 46
-0.033110373 -3.161948 0.37627462 53
-0.023810158 -2.1319745 1.979459 79
-0.029325083 -2.5852787 1.96612 73
-0.03611213 -3.1832886 1.9556034 77
-0.036553074 -3.1733303 1.5545145 77
-0.037002467 -3.1643915 1.1899408 45
-0.037610147 -3.1690521 0.85510403 46
-0.038103588 -3.1640913 0.53299284 60
-0.038690586 -3.1669297 0.22143602 67
-0.00089250971 -0.031337973 1.9991974 82
-0.0055266977 -0.31460351 2.0008237 96
-0.006320301 -0.41381958 2.0131991 110
-0.0089072492 -0.60909313 1.9934158 88
-0.011883303 -0.82150394 1.9951125 95
-0.015009549 -1.0495899 1.9901714 85
-0.018645097 -1.3034199 1.9871606 76
-0.022913853 -1.601491 1.9935577 49
-0.0033681991 -0.12500669 1.9960728 89
-0.0070468271 -0.21964122 2.0032918 91
-0.0084534064 -0.51149637 2.0057559 96
-0.011506166 -0.71008253 1.9854547 95
-0.014813893 -0.93361306 1.9936218 95
-0.018611634 -1.1725464 1.9883448 89
-0.022864727 -1.4401476 1.9813027 87
-0.027900897 -1.7570491 1.9833045 86
-0.025636708 -1.9332038 1.9797159 75
-0.031068081 -2.3424537 1.9706609 71
-0.038628519 -2.8745692 1.9694327 67
-0.042644393 -3.1731825 1.747023 73
-0.043112267 -3.1668615 1.3679323 40
-0.043656804 -3.1662602 1.0201114 40
-0.043546639 -3.1582708 0.69114685 46
-0.044147424 -3.1618133 0.37627462 53
-0.031251993 -2.1318786 1.979459 79
-0.038349211 -2.585161 1.96612 73
-0.047223661 -3.1831434 1.9556034 76
-0.045994967 -3.064271 1.5041612 44
-0.048048027 -3.164243 1.1899408 45
-0.048671976 -3.1689014 0.85510403 47
-0.049148094 -3.163939 0.53299284 60
-0.049744997 -3.1667755 0.22143602 67
-0.0010018942 -0.031334668 1.9991974 82
-0.0066248346 -0.31458229 2.0008237 97
-0.0077647623 -0.41379499 2.0131991 109
-0.011033328 -0.60905832 1.9934158 88
-0.014750813 -0.82145745 1.9951125 95
-0.018673208 -1.0495311 1.9901714 87
-0.023194766 -1.3033469 1.9871606 82
-0.028503958 -1.6014013 1.9935577 47
-0.0038138309 -0.12528358 2.0010643 89
-0.0078134751 -0.21961528 2.0032918 91
-0.01023881 -0.5114637 2.0057559 96
-0.013984747 -0.71003807 1.9854547 93
-0.018072721 -0.93355572 1.9936218 93
-0.022704471 -1.1724743 1.9883448 89
-0.027891641 -1.4400591 1.9813027 89
-0.034033976 -1.756941 1.9833045 86
-0.032384697 -1.9331026 1.9797159 75
-0.039244585 -2.3423309 1.9706609 71
-0.048662402 -2.8744168 1.9694327 67
-0.05379561 -3.1774437 1.749341 56
-0.054087128 -3.1620567 1.3660593 39
-0.05470885 -3.1660888 1.0201114 41
-0.054655675 -3.1630116 0.69207948 45
-0.055183943 -3.1616399 0.37627462 52
-0.03869345 -2.1317563 1.979459 79
-0.047372878 -2.5850112 1.96612 73
-0.058492627 -3.1915801 1.9606682 70
-0.053080712 -2.868969 1.413945 14
-0.05909301 -3.1640563 1.1899408 47
-0.059733212 -3.1687124 0.85510403 46
-0.060192008 -3.163748 0.53299284 59
-0.060798805 -3.1665823 0.22143602 64
-0.0011112664 -0.031330977 1.9991974 82
-0.0077228914 -0.31455725 2.0008237 97
-0.00920913 -0.41376537 2.0131991 109
-0.013159271 -0.60901612 1.9934158 88
-0.017618146 -0.82140094 1.9951125 95
-0.022336641 -1.0494595 1.9901714 85
-0.027744155 -1.3032579 1.9871606 84
-0.034093719 -1.601292 1.9935577 47
-0.004251129 -0.12526952 2.0010643 89
-0.0085800271 -0.21958667 2.0032918 93
-0.01202409 -0.51142484 2.0057559 96
-0.016463157 -0.70998496 1.9854547 93
-0.021331329 -0.93348694 1.9936218 93
-0.02679703 -1.1723878 1.9883448 89
-0.032918215 -1.4399529 1.9813027 89
-0.040166635 -1.7568114 1.9833045 86
-0.039132286 -1.9329778 1.9797159 75
-0.047420602 -2.3421798 1.9706609 71
-0.058695689 -2.8742294 1.9694327 66
nan nan nan 0
-0.062642232 -3.0413401 1.3173604 24
-0.065760233 -3.1658785 1.0201114 41
-0.065696314 -3.1628015 0.69207948 45
-0.066219792 -3.1614277 0.37627462 51
-0.046134431 -2.1316082 1.979459 79
-0.056395955 -2.58483 1.96612 73
-0.069256768 -3.1741154 1.9505385 37
-0.062795557 -2.8551533 1.4076508 14
-0.070137262 -3.1638305 1.1899408 47
-0.070793718 -3.1684847 0.85510403 48
-0.07123518 -3.1635189 0.53299284 59
-0.071851864 -3.1663508 0.22143602 63
-0.0012206252 -0.031326909 1.9991974 77
-0.0088208541 -0.31452835 2.0008237 96
-0.010653384 -0.41373071 2.0131991 109
-0.015285053 -0.60896653 1.9934158 86
-0.020485263 -0.82133442 1.9951125 95
-0.025999803 -1.0493752 1.9901714 85
-0.032293204 -1.3031532 1.9871606 82
-0.039603621 -1.5979584 1.9897208 52
-0.0046883756 -0.12525392 2.0010643 89
-0.0093464768 -0.21955539 2.0032918 95
-0.013809221 -0.51137978 2.0057559 95
-0.018941367 -0.70992315 1.9854547 93
-0.024589675 -0.93340677 1.9936218 93
-0.030889263 -1.1722872 1.9883448 89
-0.037944384 -1.4398292 1.9813027 89
-0.046298802 -1.7566606 1.9833045 88
-0.04596404 -1.9363946 1.9832203 75
-0.055688445 -2.3458917 1.9737986 71
-0.068628296 -2.8698268 1.9666914 61
-0.05595788 -2.3399208 1.311234 8
-0.07169503 -2.9762187 1.2911379 14
-0.076810807 -3.1656296 1.0201114 41
-0.076736145 -3.1625528 0.69207948 48
-0.077254832 -3.1611774 0.37627462 52
-0.053574849 -2.1314344 1.979459 79
-0.065418355 -2.5846176 1.96612 73
nan nan nan 0
-0.076114997 -2.9864914 1.4684943 18
-0.081180662 -3.1635664 1.1899408 43
-0.081978902 -3.1730771 0.85627633 50
-0.08240626 -3.1682012 0.53368264 57
-0.082904063 -3.1660807 0.22143602 63
-0.0013299691 -0.031322457 1.9991974 77
-0.0099187093 -0.31449568 2.0008237 96
-0.01209751 -0.41369098 2.0131991 109
-0.017410651 -0.60890943 1.9934158 86
-0.023352129 -0.82125789 1.9951125 95
-0.029662648 -1.049278 1.9901714 85
-0.036841866 -1.3030325 1.9871606 82
-0.045181297 -1.5978105 1.9897208 54
-0.0051255645 -0.12523678 2.0010643 89
-0.01011281 -0.21952142 2.0032918 93
-0.015594186 -0.51132846 2.0057559 95
-0.021419344 -0.7098527 1.9854547 93
-0.027847722 -0.93331528 1.9936218 95
-0.034981124 -1.1721722 1.9883448 91
-0.042970095 -1.4396881 1.9813027 89
-0.05243041 -1.7564883 1.9833045 88
-0.052723035 -1.9362223 1.9832203 67
-0.063876785 -2.3456831 1.9737986 69
-0.078072622 -2.8486702 1.952984 37
-0.063761249 -2.3264256 1.3042799 15
-0.081955716 -2.9713163 1.2892649 14
-0.087727346 -3.1605473 1.0187023 41
-0.087775044 -3.1622658 0.69207948 48
-0.088427976 -3.1658666 0.37672085 49
-0.061014615 -2.1312342 1.979459 79
-0.074439958 -2.5843735 1.96612 69
-0.059262767 -2.0574057 1.2946401 10
-0.086670808 -2.9907441 1.4705924 24
-0.090846814 -3.1160591 1.1735139 29
-0.093054511 -3.1727717 0.85627633 47
-0.093464844 -3.1678946 0.53368264 57
-0.093955234 -3.1657722 0.22143602 60
-0.0014392969 -0.031317621 1.9991974 80
-0.011016444 -0.31445909 2.0008237 96
-0.013541486 -0.41364625 2.0131991 109
-0.019536037 -0.60884494 1.9934158 86
-0.026218712 -0.8211714 1.9951125 95
-0.033325128 -1.0491681 1.9901714 85
-0.041390073 -1.302896 1.9871606 84
-0.050758421 -1.597643 1.9897208 57
-0.0055493535 -0.12492888 1.9960728 89
-0.010879021 -0.21948478 2.0032918 93
-0.017378962 -0.51127088 2.0057559 96
-0.023897063 -0.7097736 1.9854547 93
-0.031105433 -0.9332124 1.9936218 95
-0.039072555 -1.172043 1.9883448 91
-0.047995284 -1.4395292 1.9813027 89
-0.058561385 -1.7562946 1.9833045 86
-0.05948139 -1.9360265 1.9832203 67
-0.07206437 -2.3454459 1.9737986 71
nan nan nan 0
-0.072839454 -2.3571854 1.3205061 17
-0.087719053 -2.8227346 1.2293279 11
-0.098909013 -3.1650162 1.0201114 41
-0.098659433 -3.1570299 0.69114685 46
-0.099321954 -3.1605611 0.37627462 49
-0.068453647 -2.1310084 1.979459 79
-0.08306919 -2.5719781 1.9572905 54
-0.066026561 -2.0442595 1.2870429 16
-0.095636837 -2.9450624 1.4496119 25
-0.099103592 -3.0354841 1.1455882 19
-0.10412898 -3.1724274 0.85627633 47
-0.1045223 -3.1675489 0.53368264 59
-0.10500527 -3.1654246 0.22143602 59
-0.0015486069 -0.03131241 1.9991974 82
-0.012114043 -0.31441873 2.0008237 96
-0.014985299 -0.41359645 2.0131991 109
-0.021661183 -0.60877299 1.9934158 88
-0.029084975 -0.8210749 1.9951125 95
-0.036987208 -1.0490453 1.9901714 85
-0.045937777 -1.3027434 1.9871606 84
-0.056334928 -1.5974561 1.9897208 59
-0.005985403 -0.12490873 1.9960728 89
-0.0116451 -0.21944547 2.0032918 93
-0.019163523 -0.5112071 2.0057559 95
-0.026374491 -0.7096858 1.9854547 93
-0.034362763 -0.93309808 1.9936218 93
-0.043163508 -1.1718994 1.9883448 89
-0.053019885 -1.439353 1.9813027 87
-0.064691633 -1.7560794 1.9833045 86
-0.066117048 -1.9322429 1.9797159 75
-0.080384202 -2.3490705 1.9769365 69
-0.063316308 -1.8409268 1.2922907 10
-0.082133181 -2.3879097 1.3367323 28
-0.096290313 -2.785346 1.2143437 11
-0.11012296 -3.1694462 1.0215206 40
-0.1098495 -3.1615758 0.69207948 46
-0.11052756 -3.1651723 0.37672085 52
-0.075891837 -2.1307564 1.979459 79
nan nan nan 0
-0.074241497 -2.0741758 1.3047698 19
-0.098738201 -2.7451446 1.3572975 22
-0.10679901 -2.9548905 1.1176627 14
-0.11520219 -3.1720448 0.85627633 48
-0.11557847 -3.1671646 0.53368264 59
-0.11605403 -3.1650391 0.22143602 59
-0.0016578982 -0.031306811 1.9991974 82
-0.013211495 -0.31437454 2.0008237 97
-0.016428929 -0.41354162 2.0131991 107
-0.023786064 -0.60869366 1.9934158 89
-0.031950884 -0.82096833 1.9951125 95
-0.040648833 -1.0489099 1.9901714 83
-0.050484914 -1.3025753 1.9871606 84
-0.061910745 -1.5972497 1.9897208 57
-0.0064213793 -0.12488708 1.9960728 89
-0.012411036 -0.21940349 2.0032918 93
-0.020947851 -0.51113713 2.0057559 95
-0.028851595 -0.70958942 1.9854547 93
-0.037619669 -0.93297243 1.9936218 93
-0.047253937 -1.1717416 1.9883448 89
-0.058043841 -1.439159 1.9813027 87
-0.07095775 -1.7592303 1.9869798 85
-0.07286144 -1.9320004 1.9797159 75
-0.088290058 -2.3409953 1.9706609 60
-0.070058614 -1.8490515 1.2977736 17
-0.088287324 -2.3300574 1.3065979 28
-0.10371989 -2.7247696 1.1899942 14
-0.11990248 -3.1354859 1.0116563 34
-0.1208848 -3.1611731 0.69207948 45
-0.1215754 -3.164767 0.37672085 51
-0.083329096 -2.1304786 1.979459 79
nan nan nan 0
-0.082666077 -2.1040595 1.3224968 26
-0.097760551 -2.4772186 1.2335125 21
-0.11561646 -2.9167495 1.1045212 14
-0.12627399 -3.1716232 0.85627633 47
-0.12663323 -3.1667418 0.53368264 59
-0.12710136 -3.1646147 0.22143602 61
-0.0017671692 -0.031300835 1.9991974 78
-0.014308787 -0.31432649 2.0008237 97
-0.017872358 -0.41348177 2.0131991 107
-0.025910657 -0.60860699 1.9934158 89
-0.034816403 -0.8208518 1.9951125 95
-0.044309963 -1.0487616 1.9901714 85
-0.055031445 -1.3023912 1.9871606 84
-0.067485802 -1.5970238 1.9897208 61
-0.0068572778 -0.12486391 1.9960728 89
-0.013176822 -0.21935883 2.0032918 93
-0.022731926 -0.51106089 2.0057559 95
-0.03132835 -0.7094844 1.9854547 93
-0.040876128 -0.93283546 1.9936218 93
-0.051343791 -1.1715696 1.9883448 91
-0.063067093 -1.4389477 1.9813027 87
-0.077098176 -1.7589719 1.9869798 86
-0.079604931 -1.9317343 1.9797159 75
-0.095659614 -2.3212254 1.9549719 40
-0.075302176 -1.8195504 1.2785833 18
-0.0923898 -2.2323537 1.2556013 21
-0.10668496 -2.5669053 1.1263111 13
-0.12664552 -3.0343926 0.98206311 17
-0.13171376 -3.1558239 0.69114685 40
-0.13262177 -3.1643233 0.37672085 51
-0.090924323 -2.1339054 1.9827838 73
-0.071812205 -1.6785005 1.3068521 20
-0.089088626 -2.0822215 1.3098346 28
-0.10212144 -2.3771071 1.1873554 23
-0.12294781 -2.850275 1.0815235 15
-0.13755456 -3.1760192 0.85744864 45
-0.1366107 -3.1415429 0.53023356 46
-0.13814716 -3.1641517 0.22143602 60
-0.0018732005 -0.031250961 1.9941976 78
-0.015405905 -0.31427464 2.0008237 97
-0.019315569 -0.41341686 2.0131991 109
-0.028034933 -0.60851288 1.9934158 84
-0.037681501 -0.82072526 1.9951125 95
-0.047970552 -1.0486004 1.9901714 85
-0.059577305 -1.302191 1.9871606 84
-0.073060051 -1.5967785 1.9897208 62
-0.0072930921 -0.12483922 1.9960728 91
-0.013942447 -0.21931149 2.0032918 93
-0.024515722 -0.5109784 2.0057559 96
-0.033804722 -0.70937073 1.9854547 93
-0.044132084 -0.9326871 1.9936218 93
-0.055433024 -1.1713833 1.9883448 91
-0.068089575 -1.4387188 1.9813027 87
-0.083237663 -1.7586921 1.9869798 86
-0.086506739 -1.9350072 1.9832203 73
nan nan nan 0
-0.080903158 -1.8025677 1.2676175 18
-0.097003207 -2.1612053 1.2185129 22
-0.10875797 -2.413687 1.064501 14
-0.13463534 -2.976423 0.9651528 14
nan nan nan 0
-0.12898238 -2.8404713 0.3477172 6
-0.097856477 -2.1223843 1.9728094 60
-0.076736428 -1.6580514 1.2921362 28
-0.094961107 -2.0517519 1.2921077 30
-0.10810154 -2.3268661 1.1642767 27
-0.12827663 -2.7507648 1.0470271 15
-0.13295834 -2.8405032 0.77655876 11
nan nan nan 0
nan nan nan 0
-0.0019822754 -0.031244233 1.9941976 78
-0.016502835 -0.31421897 2.0008237 96
-0.020758545 -0.41334695 2.0131991 109
-0.030158868 -0.60841125 1.9934158 82
-0.040546134 -0.82058877 1.9951125 95
-0.051630564 -1.0484266 1.9901714 85
-0.064122438 -1.3019751 1.9871606 82
-0.078633413 -1.5965139 1.9897208 64
-0.0077288179 -0.124813 1.9960728 91
-0.014707902 -0.21926148 2.0032918 91
-0.02629922 -0.51088971 2.0057559 96
-0.03628068 -0.70924842 1.9854547 93
-0.047387496 -0.93252736 1.9936218 93
-0.059521575 -1.1711825 1.9883448 91
-0.073111229 -1.4384723 1.9813027 89
-0.089376137 -1.7583908 1.9869798 86
-0.093260653 -1.9346935 1.9832203 73
-0.074934587 -1.5544971 1.3368298 17
-0.086184435 -1.7813917 1.2539102 23
-0.10047878 -2.0767782 1.1744704 20
-0.11380994 -2.3438356 1.0364056 16
-0.14152151 -2.9040606 0.94401485 12
-0.13437459 -2.7574065 0.61560464 34
-0.13768031 -2.8151331 0.34548613 6
nan nan nan 0
-0.081719734 -1.6416252 1.2803636 28
-0.099335782 -1.9954307 1.2591861 31
-0.11192056 -2.24035 1.1244137 23
-0.13149358 -2.6229537 1.0026747 15
-0.13749994 -2.7332234 0.75076777 12
-0.13906409 -2.7547336 0.47642794 37
-0.14001283 -2.7639472 0.20531353 25
-0.0020913258 -0.031237122 1.9941976 78
-0.01759956 -0.31415942 2.0008237 97
-0.022255978 -0.41428864 2.0180943 109
-0.032282438 -0.6083023 1.9934158 88
-0.043410275 -0.8204422 1.9951125 95
-0.055289943 -1.0482401 1.9901714 85
-0.068666786 -1.3017434 1.9871606 82
-0.084205799 -1.5962297 1.9897208 64
-0.0081644496 -0.12478524 1.9960728 89
-0.015473178 -0.21920882 2.0032918 89
-0.028082399 -0.51079482 2.0057559 97
-0.038756199 -0.70911741 1.9854547 93
-0.05052419 -0.9301818 1.9891212 93
-0.063609399 -1.1709677 1.9883448 89
-0.078131989 -1.4382083 1.9813027 87
-0.095513523 -1.7580682 1.9869798 86
-0.099829271 -1.9307948 1.9797159 67
-0.078149095 -1.5114619 1.3023143 23
-0.091535524 -1.7643768 1.2429444 24
-0.10635021 -2.0498693 1.1605623 20
-0.1178936 -2.26472 1.0045639 16
-0.14915536 -2.8556411 0.92992288 12
-0.14399892 -2.7569208 0.61560464 36
-0.14489976 -2.7649031 0.34102404 38
nan nan nan 0
-0.085944131 -1.613076 1.2597615 28
-0.10377723 -1.9477152 1.2313294 31
-0.11828653 -2.2127535 1.1118255 24
-0.13483153 -2.5140183 0.96489286 17
-0.15879215 -2.9511387 0.80352205 13
-0.148946 -2.7591765 0.47711775 38
-0.14965996 -2.7634413 0.20531353 57
-0.0022003511 -0.031229634 1.9941976 78
-0.018696075 -0.31409606 2.0008237 97
-0.023701981 -0.41420844 2.0180943 109
-0.034405611 -0.60818589 1.9934158 89
-0.046273891 -0.82028574 1.9951125 95
-0.058948644 -1.0480406 1.9901714 85
-0.073210306 -1.3014958 1.9871606 84
-0.089777164 -1.5959259 1.9897208 66
-0.0085999817 -0.12475599 1.9960728 89
-0.016238265 -0.21915346 2.0032918 89
-0.029865233 -0.51069367 2.0057559 95
-0.041231241 -0.70897782 1.9854547 93
-0.053770822 -0.92999983 1.9891212 95
-0.06769646 -1.1707385 1.9883448 89
-0.083151788 -1.4379269 1.9813027 87
-0.10164975 -1.757724 1.9869798 86
-0.10637181 -1.9268736 1.9762113 58
-0.082780831 -1.499519 1.2929009 26
-0.095843963 -1.7306461 1.2210126 26
-0.11228001 -2.0273681 1.148972 32
-0.12245505 -2.2041209 0.98021454 16
-0.15671988 -2.8119941 0.91724014 14
-0.15389486 -2.761306 0.61653727 39
-0.15482819 -2.7693527 0.34147027 37
-0.078286387 -1.383023 1.3144892 22
-0.090199389 -1.5885533 1.2421025 28
-0.10788684 -1.899994 1.2034727 32
-0.12342883 -2.1670153 1.090845 27
-0.13579442 -2.3768041 0.91725504 16
-0.16909258 -2.9505668 0.80352205 13
-0.1582922 -2.7536957 0.47642794 37
-0.1590177 -2.7579145 0.20511201 40
-0.0023093494 -0.031221762 1.9941976 78
-0.019792363 -0.31402889 2.0008237 97
-0.025147691 -0.41412321 2.0180943 109
-0.036528364 -0.60806209 1.9934158 88
-0.049020052 -0.81816894 1.99051 95
-0.062463716 -1.0454372 1.9857829 85
-0.077752918 -1.3012323 1.9871606 82
-0.095347442 -1.5956029 1.9897208 69
-0.0090354085 -0.12472522 1.9960728 89
-0.017003154 -0.21909544 2.0032918 93
-0.031647705 -0.51058632 2.0057559 95
-0.043705788 -0.70882964 1.9854547 93
-0.057016801 -0.92980647 1.9891212 95
-0.071782678 -1.170495 1.9883448 89
-0.088170581 -1.4376279 1.9813027 87
-0.10757717 -1.7539746 1.9833045 78
nan nan nan 0
-0.08664567 -1.4759039 1.2740743 27
-0.099426456 -1.6885591 1.1935979 25
-0.11727278 -1.9915837 1.1304278 33
-0.1276882 -2.1620293 0.96335721 17
-0.15036516 -2.5384622 0.83691603 12
-0.16208032 -2.7362337 0.61187416 30
-0.16478944 -2.7737668 0.34191647 37
-0.082665406 -1.3752861 1.3078396 28
-0.094284497 -1.5640208 1.2244436 28
-0.11166455 -1.8522681 1.175616 30
-0.1282533 -2.1212687 1.0698645 29
-0.13894522 -2.2914672 0.88768673 16
-0.17585047 -2.8917387 0.78945422 13
-0.16790344 -2.7531264 0.47642794 37
-0.16864364 -2.7573431 0.20511201 39
-0.0024183197 -0.031213511 1.9941976 78
-0.020888407 -0.3139579 2.0008237 97
-0.026593098 -0.41403291 2.0180943 109
-0.038650677 -0.6079309 1.9934158 89
-0.051875692 -0.81799281 1.99051 95
-0.066112593 -1.0452126 1.9857829 85
-0.082116924 -1.2981445 1.9830275 82
-0.10091656 -1.5952604 1.9897208 69
-0.0094707264 -0.12469292 1.9960728 89
-0.017767835 -0.21903476 2.0032918 91
-0.033429794 -0.51047271 2.0057559 95
-0.046179798 -0.70867276 1.9854547 91
-0.06026208 -0.92960173 1.9891212 95
-0.075868033 -1.1702374 1.9883448 89
-0.093188301 -1.4373114 1.9813027 87
-0.11347966 -1.7502055 1.9796295 71
nan nan nan 0
-0.090588398 -1.4561656 1.2583854 28
-0.10297671 -1.6506418 1.1689247 24
-0.12201712 -1.9557893 1.1118836 33
-0.13291851 -2.1245553 0.94837296 18
-0.15441889 -2.4613154 0.81436884 11
-0.17070781 -2.7209435 0.60907632 15
-0.17415799 -2.7682047 0.34147027 37
-0.086280137 -1.3563552 1.2912154 31
-0.098199457 -1.5394791 1.2067846 29
-0.11483598 -1.8002369 1.145227 30
-0.13304964 -2.0800447 1.050982 31
-0.14392026 -2.2438407 0.87125993 17
-0.18063988 -2.8086464 0.76952481 13
-0.18038104 -2.7970009 0.48263627 11
-0.17826754 -2.7567375 0.20511201 39
-0.0025272605 -0.031204879 1.9941976 78
-0.021984197 -0.3138831 2.0008237 97
-0.02803818 -0.41393754 2.0180943 111
-0.040672492 -0.60630208 1.9886441 88
-0.054730706 -0.81780672 1.99051 95
-0.069760665 -1.0449756 1.9857829 83
-0.086647794 -1.29785 1.9830275 76
-0.10669801 -1.598097 1.9935577 69
-0.0099059287 -0.1246591 1.9960728 89
-0.018532302 -0.2189714 2.0032918 91
-0.03521147 -0.51035297 2.0057559 95
-0.048653245 -0.70850724 1.9854547 93
-0.063506633 -0.92938572 1.9891212 95
-0.079774611 -1.1673633 1.9840788 89
-0.098204888 -1.4369771 1.9813027 87
-0.11681426 -1.7092115 1.9355273 66
-0.082811013 -1.2602003 1.3208612 25
-0.094394401 -1.4364182 1.2426965 28
-0.10598854 -1.6085486 1.14151 24
-0.126513 -1.9199865 1.0933396 33
-0.13788877 -2.0870717 0.93338871 20
-0.155082 -2.3410909 0.77913898 12
-0.17923051 -2.7056265 0.60627842 13
nan nan nan 0
-0.090764083 -1.3523197 1.2878906 31
-0.10194425 -1.5149298 1.1891258 29
-0.11793503 -1.7525084 1.1173702 28
-0.1375598 -2.0388136 1.0320995 31
-0.15079564 -2.2291894 0.86633182 21
-0.18814048 -2.7740529 0.76131862 12
-0.1901433 -2.7963541 0.48263627 11
nan nan nan 0
-0.0026361702 -0.031195868 1.9941976 78
-0.023079719 -0.31380445 2.0008237 97
-0.029482922 -0.41383716 2.0180943 111
-0.042788636 -0.60615641 1.9886441 88
-0.057585049 -0.81761074 1.99051 95
-0.073407888 -1.0447258 1.9857829 83
-0.091177613 -1.2975396 1.9830275 76
-0.11227576 -1.5977148 1.9935577 71
-0.010341008 -0.12462376 1.9960728 89
-0.019296542 -0.21890537 2.0032918 91
-0.036992718 -0.51022691 2.0057559 95
-0.051126104 -0.70833308 1.9854547 93
-0.066906482 -0.93133044 1.9936218 95
-0.08384899 -1.1670778 1.9840788 89
-0.10343629 -1.4396319 1.9852921 87
nan nan nan 0
-0.086716868 -1.2527883 1.3138521 29
-0.098063663 -1.4166622 1.2270076 28
-0.10986579 -1.5831405 1.1250613 25
-0.13045375 -1.8797569 1.0724772 33
-0.14227723 -2.044955 0.91653138 25
-0.15991494 -2.2926786 0.76504701 15
-0.18696482 -2.6804829 0.60161537 13
-0.22196531 -3.1742904 0.37805945 86
-0.094168529 -1.3333693 1.2712663 32
-0.10580435 -1.494405 1.1744099 29
-0.12039783 -1.7004803 1.0869812 27
-0.14178377 -1.997577 1.0132171 33
-0.15488911 -2.1768334 0.84826225 24
-0.17499779 -2.4533906 0.68394566 13
-0.19248591 -2.6919425 0.46815017 14
-0.227156 -3.1690271 0.22183907 91
-0.0027450481 -0.031186474 1.9941976 78
-0.02417496 -0.31372195 2.0008237 97
-0.030927304 -0.41373172 2.0180943 111
-0.044904254 -0.60600334 1.9886441 86
-0.060438696 -0.81740475 1.99051 95
-0.07705421 -1.0444632 1.9857829 85
-0.095706314 -1.2972136 1.9830275 82
-0.11761624 -1.5941161 1.9897208 55
-0.010775964 -0.1245869 1.9960728 89
-0.020060547 -0.21883669 2.0032918 93
-0.038773522 -0.5100947 2.0057559 95
-0.053598333 -0.70815027 1.9854547 93
-0.070157021 -0.93109125 1.9936218 95
-0.087922342 -1.166778 1.9840788 89
-0.10846092 -1.439262 1.9852921 87
-0.08797913 -1.1674632 1.347501 29
-0.089537159 -1.2311366 1.2928247 32
-0.10187855 -1.4007808 1.2144566 29
-0.11417509 -1.5660658 1.1140954 26
-0.13475952 -1.848361 1.0562512 33
-0.14637339 -2.0028336 0.89967406 25
-0.16406129 -2.2394772 0.74954593 15
-0.19955048 -2.7239058 0.6100089 16
-0.23304431 -3.173496 0.37805945 64
-0.097717889 -1.318136 1.257967 32
-0.10922287 -1.4698414 1.1567509 30
-0.12281838 -1.6527566 1.0591245 26
-0.14605868 -1.9608618 0.99643248 37
-0.15932217 -2.1338954 0.83347815 26
-0.17630565 -2.355824 0.66049933 14
-0.20002913 -2.6665626 0.46470106 14
-0.23859113 -3.1731966 0.22204059 90
-0.0028538923 -0.031176701 1.9941976 78
-0.025269907 -0.31363565 2.0008237 97
-0.032371309 -0.41362125 2.0180943 111
-0.047019333 -0.60584289 1.9886441 88
-0.063442506 -0.81913668 1.9951125 95
-0.080699593 -1.0441878 1.9857829 85
-0.10045072 -1.2996771 1.9871606 82
-0.12293295 -1.5904994 1.9858838 50
-0.011210788 -0.12454852 1.9960728 91
-0.020824309 -0.21876532 2.0032918 93
-0.040553845 -0.50995624 2.0057559 96
-0.056069911 -0.70795888 1.9854547 93
-0.073406719 -0.93084061 1.9936218 95
-0.092199706 -1.1690639 1.9883448 89
-0.11348422 -1.4388745 1.9852921 87
-0.089921184 -1.1401117 1.3180997 29
-0.093562968 -1.2272607 1.2893202 32
-0.10528784 -1.3810087 1.1987677 29
-0.11836652 -1.5489805 1.1031295 28
-0.13851011 -1.8125404 1.0377069 37
-0.15053129 -1.9653314 0.88468981 26
-0.16820541 -2.1910584 0.7354539 16
-0.19777723 -2.5762575 0.58203036 13
-0.22654551 -2.9442563 0.35753381 17
-0.10116208 -1.3028942 1.2446675 32
-0.11341206 -1.4573616 1.1479214 31
-0.1262453 -1.6222301 1.0413975 26
-0.14972612 -1.9196172 0.97755009 38
-0.16308935 -2.0862453 0.81705129 28
-0.18035157 -2.3018904 0.64760381 16
-0.20700985 -2.6362259 0.46056217 10
-0.24966623 -3.1723442 0.22204059 88
-0.002967437 -0.031209927 1.9991974 77
-0.026364546 -0.31354555 2.0008237 97
-0.033814918 -0.41350573 2.0180943 112
-0.049254645 -0.60716373 1.9934158 89
-0.06630145 -0.81891024 1.9951125 95
-0.084344007 -1.0438997 1.9857829 85
-0.10498682 -1.2993187 1.9871606 84
-0.12151198 -1.5037823 1.8822863 38
-0.011645475 -0.12450863 1.9960728 89
-0.021587815 -0.2186913 2.0032918 95
-0.042333677 -0.50981158 2.0057559 95
-0.05854081 -0.70775884 1.9854547 93
-0.076655507 -0.93057877 1.9936218 95
-0.096279934 -1.1687351 1.9883448 89
-0.11825866 -1.4354661 1.9813027 87
-0.093621984 -1.136412 1.3144246 33
-0.096712224 -1.2127067 1.2753021 32
-0.10917934 -1.3689911 1.1893543 29
-0.12277327 -1.5360535 1.0949051 29
-0.14342427 -1.7943814 1.0284348 39
-0.15405902 -1.9232041 0.8678326 28
-0.17278138 -2.1522024 0.72418034 17
-0.20676884 -2.5755513 0.58203036 12
-0.23522389 -2.9235916 0.35574895 12
-0.10450105 -1.2876447 1.2313681 32
-0.11784315 -1.4488995 1.1420351 32
-0.13015963 -1.600294 1.0287353 27
-0.15347616 -1.8828946 0.96076572 39
-0.16691032 -2.0433023 0.80226713 29
-0.18600608 -2.2721806 0.64056993 18
-0.21580581 -2.6305513 0.45987234 10
-0.26114765 -3.1764328 0.22224215 87
-0.003076362 -0.031199377 1.9991974 77
-0.027458865 -0.31345162 2.0008237 97
-0.035258114 -0.41338515 2.0180943 113
-0.051373743 -0.60698813 1.9934158 88
-0.069159567 -0.81867385 1.9951125 95
-0.087987378 -1.0435989 1.9857829 85
-0.10952166 -1.2989441 1.9871606 82
nan nan nan 0
-0.01208002 -0.12446722 1.9960728 89
-0.022351058 -0.21861462 2.0032918 93
-0.044112992 -0.50966066 2.0057559 95
-0.06101099 -0.70755023 1.9854547 91
-0.079903357 -0.93030554 1.9936218 95
-0.10035899 -1.1683918 1.9883448 89
-0.12326864 -1.4350445 1.9813027 87
-0.096717738 -1.1259452 1.3033991 34
-0.10005696 -1.2016999 1.2647884 31
-0.11266518 -1.353084 1.1768031 30
-0.12674351 -1.518948 1.0839393 33
-0.1434242 -1.7188172 0.98902828 33
-0.15768082 -1.8856961 0.85284823 31
-0.17668758 -2.1085613 0.71149766 21
-0.19935025 -2.37901 0.54472554 15
-0.23417628 -2.7887628 0.3437013 9
-0.1077348 -1.272388 1.2180687 32
-0.12187481 -1.4363967 1.1332057 34
-0.13355787 -1.5740552 1.0135407 28
-0.15581813 -1.8326032 0.9376871 35
-0.17003264 -1.9956534 0.78584027 31
-0.18980144 -2.2230871 0.62884676 20
-0.21865477 -2.5557702 0.44952515 12
-0.26199213 -3.0560374 0.21740538 32
-0.0031852494 -0.031188449 1.9991974 80
-0.028552845 -0.31335384 2.0008237 95
-0.036610726 -0.41224539 2.0131991 110
-0.053492215 -0.60680509 1.9934158 88
-0.07201685 -0.81842744 1.9951125 95
-0.091629684 -1.0432855 1.9857829 85
-0.11405515 -1.2985541 1.9871606 84
-0.090769686 -1.0334363 1.3182554 24
-0.012514418 -0.12442431 1.9960728 91
-0.023114029 -0.21853527 2.0032918 91
-0.045891769 -0.5095036 2.0057559 95
-0.063480429 -0.70733291 1.9854547 91
-0.083150253 -0.93002093 1.9936218 95
-0.10443684 -1.1680344 1.9883448 89
-0.12800868 -1.4316034 1.9773132 87
-0.099741563 -1.1154708 1.2923737 34
-0.10301772 -1.1871316 1.2507702 31
-0.11671448 -1.3449258 1.1705276 31
-0.13023357 -1.4976677 1.0702319 34
-0.14404981 -1.6565163 0.95657593 30
-0.16104271 -1.848187 0.83786404 32
-0.18029125 -2.0649197 0.69881487 22
-0.20380782 -2.3342569 0.53633195 17
-0.23349252 -2.6688623 0.33299229 9
-0.11086334 -1.2571245 1.2047694 32
-0.12617645 -1.4279099 1.1273193 37
-0.13715406 -1.5521067 1.0008787 29
-0.15821123 -1.7868397 0.91670656 34
-0.17324169 -1.9527118 0.77105612 32
-0.19325641 -2.1739957 0.6171236 24
-0.22405984 -2.5155296 0.44400659 12
-0.26422006 -2.9605575 0.21357632 12
-0.003294098 -0.031177137 1.9991974 78
-0.029646482 -0.31325227 2.0008237 95
-0.038049508 -0.41211504 2.0131991 110
-0.055610031 -0.60661465 1.9934158 88
-0.074873254 -0.81817102 1.9951125 95
-0.095488824 -1.0453449 1.9901714 85
-0.11858725 -1.298148 1.9871606 84
-0.094084822 -1.0299206 1.3144184 26
-0.012948664 -0.12437986 1.9960728 91
-0.023876719 -0.21845324 2.0032918 91
-0.047669992 -0.50934029 2.0057559 96
-0.066109397 -0.70882529 1.9901476 91
-0.086396113 -0.92972505 1.9936218 95
-0.10851339 -1.1676627 1.9883448 89
-0.13272621 -1.428147 1.9733237 87
-0.10237972 -1.1016134 1.277673 34
-0.10619874 -1.1761096 1.2402567 32
-0.1203581 -1.3328789 1.1611143 34
-0.13357665 -1.4763818 1.0565246 32
-0.14543992 -1.6074693 0.9310776 29
-0.16414465 -1.8106775 0.82287979 32
-0.18315847 -2.0165012 0.6847229 22
-0.20662241 -2.274826 0.52514052 19
-0.2382936 -2.6184354 0.32853019 15
-0.11456875 -1.2492924 1.1981196 34
-0.1296806 -1.4113606 1.1155467 37
-0.14020418 -1.5258597 0.9856841 29
-0.16028681 -1.7410825 0.89572603 34
-0.17571935 -1.9050704 0.75462925 29
-0.1959237 -2.1200681 0.60422808 25
-0.22553413 -2.4358351 0.43296954 16
-0.2745527 -2.9596171 0.21357632 12
-0.0034029065 -0.031165451 1.9991974 78
-0.030739756 -0.31314689 2.0008237 97
-0.039487828 -0.41197973 2.0131991 109
-0.057727177 -0.60641688 1.9934158 88
-0.077728748 -0.81790471 1.9951125 95
-0.099137172 -1.0450053 1.9901714 85
-0.12311791 -1.2977262 1.9871606 84
-0.097376533 -1.0263944 1.3105814 26
-0.013382751 -0.1243339 1.9960728 91
-0.024639118 -0.21836857 2.0032918 91
-0.04944763 -0.50917077 2.0057559 95
-0.068583257 -0.70859021 1.9901476 93
-0.089640945 -0.92941773 1.9936218 93
-0.11258864 -1.1672769 1.9883448 87
-0.13713178 -1.4216748 1.9653447 91
-0.10524788 -1.0911257 1.2666475 34
-0.10897093 -1.1615289 1.2262385 32
-0.12391905 -1.3208232 1.151701 36
-0.13677274 -1.4550912 1.0428174 33
-0.14856249 -1.5804874 0.91716945 29
-0.16698676 -1.7731696 0.80789554 31
-0.18568991 -1.9680884 0.67063093 23
-0.21040888 -2.2300758 0.51674694 21
-0.24040224 -2.5432181 0.32183704 12
-0.11822084 -1.2414498 1.1914699 34
-0.13230298 -1.3867569 1.0978876 36
-0.14348221 -1.5039023 0.97302198 29
-0.16204491 -1.6953332 0.87474555 31
-0.17831673 -1.8621368 0.7398451 30
-0.19868112 -2.070987 0.59250492 24
-0.22834995 -2.375879 0.42469177 19
-0.27961478 -2.9039385 0.21135947 13
-0.0035116733 -0.031153385 1.9991974 78
-0.031832654 -0.31303763 2.0008237 97
-0.040925663 -0.4118394 2.0131991 109
-0.059843611 -0.60621166 1.9934158 88
-0.080583297 -0.81762844 1.9951125 95
-0.10278433 -1.0446529 1.9901714 83
-0.12764709 -1.2972885 1.9871606 84
-0.10033082 -1.0196673 1.3029076 28
-0.013816676 -0.12428643 1.9960728 91
-0.025401216 -0.21828124 2.0032918 91
-0.051224668 -0.50899512 2.0057559 95
-0.071056284 -0.70834655 1.9901476 93
-0.092668012 -0.92693233 1.9891212 93
-0.11666251 -1.1668768 1.9883448 87
-0.1411939 -1.4121904 1.9533762 95
-0.10770679 -1.0772583 1.2519468 34
-0.11198817 -1.150493 1.2157247 33
-0.12777449 -1.3126335 1.1454254 37
-0.13941596 -1.4296347 1.0263685 30
-0.15106849 -1.5490941 0.90094328 29
-0.16956908 -1.7356645 0.79291129 31
-0.1874184 -1.9149091 0.65512979 26
-0.21245006 -2.1706612 0.50555551 23
-0.24150278 -2.463063 0.31469768 12
-0.12181958 -1.2335969 1.1848203 36
-0.13515317 -1.3661748 1.083172 36
-0.1466087 -1.4819406 0.96035981 29
-0.1634856 -1.6495931 0.85376495 31
-0.17921683 -1.8051107 0.72013289 30
-0.20013618 -2.0122397 0.57843715 25
-0.23025906 -2.3110063 0.41572416 20
-0.28627637 -2.8681462 0.20994875 10
-0.0036203975 -0.031140935 1.9991974 78
-0.032843683 -0.31215194 1.9958843 97
-0.042362999 -0.41169402 2.0131991 109
-0.061959319 -0.60599905 1.9934158 88
-0.083436862 -0.81734216 1.9951125 95
-0.10643022 -1.0442877 1.9901714 85
-0.13217467 -1.2968349 1.9871606 82
-0.10258915 -1.0065532 1.2875599 28
-0.014250432 -0.12423744 1.9960728 89
-0.026163004 -0.21819125 2.0032918 93
-0.05300108 -0.5088132 2.0057559 95
-0.073350154 -0.70637763 1.9854547 91
-0.095903039 -0.9266032 1.9891212 95
-0.12073497 -1.1664623 1.9883448 89
-0.14550184 -1.4056932 1.9453971 96
-0.11041924 -1.0667595 1.2409213 34
-0.11492971 -1.1394504 1.2052112 34
-0.13118358 -1.3005599 1.1360121 37
-0.14272395 -1.4124984 1.0154027 31
-0.15558414 -1.5397418 0.89630723 30
-0.17235848 -1.7027752 0.7798 32
-0.18877791 -1.8617419 0.63962865 25
-0.21507016 -2.1210346 0.49622929 24
-0.24204676 -2.3829322 0.3075583 14
-0.12574492 -1.2294493 1.1814954 38
-0.13786128 -1.34559 1.0684562 35
-0.14958364 -1.459976 0.94769764 30
-0.16507241 -1.6083792 0.8348825 32
-0.1826189 -1.7762879 0.71027678 30
-0.20267746 -1.9680133 0.56788629 26
-0.23273452 -2.2560019 0.40813616 22
-0.29628631 -2.8671293 0.20994875 10
-0.0037290778 -0.031128107 1.9991974 80
-0.033933092 -0.31203538 1.9958843 97
-0.043799825 -0.41154364 2.0131991 109
-0.064074278 -0.60577905 1.9934158 86
-0.086289413 -0.81704593 1.9951125 95
-0.11007481 -1.0439098 1.9901714 85
-0.13670067 -1.2963657 1.9871606 82
-0.10509337 -0.99662429 1.276049 28
-0.014684016 -0.12418695 1.9960728 89
-0.026924474 -0.21809858 2.0032918 93
-0.054776847 -0.50862503 2.0057559 95
-0.075815424 -0.70611733 1.9854547 91
-0.099136904 -0.9262628 1.9891212 93
-0.12480593 -1.1660339 1.9883448 89
-0.14944535 -1.3961862 1.9334288 97
-0.11305974 -1.0562547 1.2298958 34
-0.11853615 -1.1354954 1.2017065 34
-0.13450994 -1.2884786 1.1265987 37
-0.14547913 -1.3911979 1.0016953 33
-0.158654 -1.5171583 0.88471705 32
-0.17540337 -1.6744993 0.76856184 32
-0.19327298 -1.8419873 0.63399184 26
-0.21683387 -2.0665312 0.48597044 26
-0.24047267 -2.2879703 0.29908031 15
-0.12924987 -1.2215756 1.1748457 42
-0.14042738 -1.3250031 1.0537404 35
-0.15240705 -1.4380087 0.93503553 31
-0.16589439 -1.5626615 0.81390196 30
-0.18582198 -1.7474638 0.70042062 32
-0.20594212 -1.933461 0.55968004 29
-0.23430346 -2.1960852 0.39985839 26
-0.25957444 -2.4289243 0.19221401 11
-0.0038377123 -0.031114902 1.9991974 80
-0.035022095 -0.31191504 1.9958843 97
-0.045236111 -0.41138822 2.0131991 109
-0.066188447 -0.60555172 1.9934158 88
-0.089140899 -0.8167398 1.9951125 95
-0.11371806 -1.0435191 1.9901714 83
-0.141225 -1.2958806 1.9871606 82
-0.10787692 -0.98987734 1.2683752 31
-0.01511742 -0.12413494 1.9960728 89
-0.027685618 -0.21800327 2.0032918 95
-0.056551944 -0.50843078 2.0057559 96
-0.078279771 -0.70584834 1.9854547 93
-0.10236956 -0.92591113 1.9891212 95
-0.1288754 -1.165591 1.9883448 89
-0.1536555 -1.3896645 1.9254496 98
-0.11600087 -1.0491146 1.2225455 34
-0.12211637 -1.1315291 1.198202 36
-0.13733587 -1.2725197 1.1140476 37
-0.14853677 -1.3740528 0.99072945 33
-0.16252047 -1.5033817 0.87776297 33
-0.17775391 -1.6416138 0.75545061 32
-0.19659789 -1.8126854 0.62553668 29
-0.21874942 -2.0169256 0.47664425 28
-0.24200362 -2.227706 0.29372579 15
-0.13270137 -1.2136925 1.1681961 58
-0.14329149 -1.3084328 1.0419677 35
-0.15507896 -1.4160399 0.92237341 31
-0.16936855 -1.5440272 0.80550975 30
-0.18934186 -1.7233334 0.69220722 32
-0.20896806 -1.89891 0.5514738 32
-0.23545702 -2.1361852 0.39158061 24
-0.26750317 -2.4230378 0.19201249 11
-0.0039463006 -0.031101316 1.9991974 78
-0.03620024 -0.31256267 2.0008237 97
-0.046671852 -0.41122785 2.0131991 109
-0.068301812 -0.605317 1.9934158 89
-0.091991313 -0.81642359 1.9951125 95
-0.11735994 -1.0431159 1.9901714 83
-0.14574762 -1.2953798 1.9871606 84
-0.11025617 -0.97993731 1.2568643 32
-0.01555064 -0.12408141 1.9960728 89
-0.028516205 -0.21843465 2.0082631 95
-0.058326352 -0.50823027 2.0057559 96
-0.080743164 -0.70557082 1.9854547 93
-0.10560097 -0.92554814 1.9891212 95
-0.13294329 -1.1651342 1.9883448 87
-0.16055569 -1.407087 1.9493867 97
-0.11889353 -1.0419667 1.2151952 34
-0.12567034 -1.1275516 1.1946975 37
-0.14048326 -1.2604259 1.1046343 39
-0.15101258 -1.3527478 0.97702211 33
-0.16530961 -1.4807909 0.86617285 34
-0.18039224 -1.6133403 0.74421239 33
-0.20025454 -1.7881504 0.6184907 29
-0.22032136 -1.9673324 0.46731806 28
-0.24700272 -2.2021027 0.29149476 18
-0.13609943 -1.2058003 1.1615463 58
-0.14604163 -1.291859 1.030195 36
-0.15808368 -1.3983542 0.91224372 31
-0.17271468 -1.5253878 0.79711753 31
-0.19216342 -1.6945078 0.68235111 34
-0.21175538 -1.8643621 0.54326761 32
-0.23619534 -2.0763049 0.38330281 25
-0.2674762 -2.3476319 0.18898952 13
-0.0040485943 -0.03104417 1.9941976 78
-0.037291065 -0.31243441 2.0008237 97
-0.048107017 -0.41106239 2.0131991 110
-0.070414349 -0.60507488 1.9934158 88
-0.094840616 -0.8160975 1.9951125 95
-0.12100037 -1.0426999 1.9901714 87
-0.15026844 -1.294863 1.9871606 84
-0.11293694 -0.97317743 1.2491904 29
-0.015983669 -0.12402637 1.9960728 89
-0.029278509 -0.21833378 2.0082631 95
-0.060100056 -0.50802356 2.0057559 96
-0.083205573 -0.70528466 1.9854547 93
-0.10883109 -0.92517394 1.9891212 95
-0.13700955 -1.164663 1.9883448 89
-0.166875 -1.4184912 1.9653447 87
-0.1217377 -1.0348114 1.2078449 35
-0.12879063 -1.1200203 1.1876884 40
-0.14310317 -1.2444582 1.0920832 39
-0.15381993 -1.3355966 0.96605617 33
-0.16794309 -1.4581993 0.85458273 34
-0.18336658 -1.5896739 0.73484719 33
-0.20264123 -1.7540812 0.60862631 29
-0.22324103 -1.9323927 0.46078971 30
-0.24896403 -2.1517563 0.28703263 22
-0.1385804 -1.1904806 1.1482469 53
-0.14820977 -1.2712673 1.0154792 36
-0.16046758 -1.3763826 0.89958155 31
-0.17593277 -1.5067439 0.78872538 32
-0.1953346 -1.6703742 0.67413771 35
-0.21430406 -1.8298182 0.53506136 32
-0.23651853 -2.0164461 0.375025 25
-0.26401177 -2.2474477 0.1849589 13
-0.0041569336 -0.031029847 1.9941976 78
-0.038381439 -0.31230235 2.0008237 97
-0.049541604 -0.41089198 2.0131991 110
-0.07252603 -0.60482538 1.9934158 88
-0.097688742 -0.81576145 1.9951125 95
-0.12463934 -1.0422711 1.9901714 85
-0.15478744 -1.2943306 1.9871606 84
-0.11519116 -0.96322757 1.2376796 28
-0.016416505 -0.12396982 1.9960728 89
-0.03004046 -0.21823025 2.0082631 95
-0.061873019 -0.50781065 2.0057559 95
-0.085666977 -0.70498991 1.9854547 93
-0.11205989 -0.9247883 1.9891212 95
-0.14107415 -1.1641777 1.9883448 89
-0.17363848 -1.4328603 1.9852921 70
-0.12494126 -1.0310146 1.2041696 37
-0.13227966 -1.1160223 1.1841838 47
-0.14561333 -1.2284881 1.0795321 37
-0.15650938 -1.3184423 0.95509034 34
-0.17042089 -1.4356077 0.8429926 33
-0.18563062 -1.561403 0.72360903 33
-0.20535974 -1.7247812 0.60017115 34
-0.22591953 -1.897457 0.45426136 31
-0.25116664 -2.106369 0.28301677 21
-0.14140087 -1.1788665 1.1382724 55
-0.15071806 -1.2546896 1.0037066 36
-0.16321427 -1.3586922 0.88945186 31
-0.17848071 -1.4835906 0.77823508 32
-0.1977748 -1.6415509 0.66428161 35
-0.21719648 -1.8001052 0.52802747 33
-0.237615 -1.9664441 0.36812687 27
-0.2616519 -2.1621966 0.18153289 13
-0.0042652232 -0.031015147 1.9941976 77
-0.039471347 -0.31216648 2.0008237 97
-0.050975583 -0.41071653 2.0131991 110
-0.074636817 -0.6045686 1.9934158 88
