# .PCD v0.7 - Point Cloud Data file format
VERSION 0.7
FIELDS x y z intensity
SIZE 4 4 4 4
TYPE F F F F
COUNT 1 1 1 1
WIDTH 1399
HEIGHT 1
VIEWPOINT 0 0 0 1 0 0 0
POINTS 1399
DATA ascii
-3.1083207 2.2286196 2.0877728 4
-3.997577 2.8672602 2.0759389 3
nan nan nan 0
-1.1733968 0.84192628 0.36566246 4
-10.292187 7.3875141 1.2280892 25
-1.5098828 1.085354 1.7367451 48
-2.1614246 1.554279 2.0220401 27
-2.7211237 1.9567629 2.054368 17
-3.4567525 2.4866705 2.055949 33
-4.7918377 3.4483562 2.1426978 5
-6.7693248 4.8732123 2.1024497 5
-10.279378 7.402813 1.8567493 49
nan nan nan 0
-0.025101155 0.018709984 1.9941976 66
-0.25493982 0.18574488 2.0057628 93
-0.3350594 0.24294397 2.0131991 95
-0.49460453 0.35813689 1.9981875 37
-0.49620047 0.35916701 1.5026424 38
-0.86399984 0.62518579 2.0208921 77
-1.0811493 0.78232121 2.0326231 16
-1.3235482 0.95772731 2.0319271 13
-0.10060867 0.074755736 2.0010643 89
-0.17614308 0.13228939 2.0082631 93
-0.41682947 0.30303165 2.0202737 95
-0.49358273 0.35858333 1.7132742 39
-0.54237062 0.393747 1.449021 40
-0.94686699 0.68741834 1.9840788 37
-1.1899419 0.86389601 2.0211978 82
-1.3863628 1.0065026 1.9355273 31
-1.5414793 1.1129677 1.948175 71
-1.9529868 1.4100871 2.0240033 34
-2.4186306 1.7469326 2.0407109 12
-3.1184795 2.2524259 2.0993631 3
-4.0927582 2.9572196 2.1283836 2
-5.6106343 4.0554514 2.1235116 2
nan nan nan 0
-10.290551 7.4409027 1.2307665 27
-1.4183717 1.0271006 1.6403246 39
-2.1559861 1.5618143 2.0220401 27
-2.7072942 1.9611912 2.0493033 27
-3.4480512 2.4987216 2.055949 31
-4.7874188 3.4706056 2.1459832 4
-6.7837501 4.9196401 2.1118283 5
-10.285542 7.4619136 1.8622679 51
nan nan nan 0
-0.02503241 0.018801859 1.9941976 67
-0.25425732 0.18667802 2.0057628 93
-0.33416677 0.2441704 2.0131991 95
-0.494495 0.36082771 2.0029593 37
-0.4964591 0.36213461 1.5072449 39
-0.86363846 0.62975997 2.025281 77
-1.0782747 0.78627861 2.0326231 16
-1.3096677 0.95501637 2.0165794 12
-0.100334 0.075123981 2.0010643 89
-0.17565703 0.13293409 2.0082631 93
-0.41673055 0.30530077 2.0251129 96
-0.49365756 0.36140946 1.7179672 39
-0.54085475 0.39582664 1.449021 40
-0.94211602 0.68950868 1.979813 23
-1.1841837 0.8666786 2.0172081 80
-1.3578664 0.99379826 1.902451 20
-1.5489246 1.1270028 1.9621931 66
-1.9478055 1.4172355 2.0240033 34
-2.4054499 1.7508643 2.035228 12
-3.1281123 2.2768764 2.1109531 3
-4.081892 2.9722002 2.1283836 2
nan nan nan 0
nan nan nan 0
-10.290074 7.5008955 1.2338899 25
-1.3963203 1.0193281 1.6203753 38
-2.1499734 1.5700811 2.0220401 26
-2.6927805 1.9664869 2.0442383 35
-3.4384315 2.5119429 2.055949 31
-4.8426876 3.5391183 2.1755517 2
-6.7726588 4.9513893 2.1141729 10
-10.28211 7.5170989 1.8664067 52
nan nan nan 0
-0.024969924 0.018884767 1.9941976 66
-0.2536369 0.18752015 2.0057628 93
-0.33335522 0.2452772 2.0131991 93
-0.49329576 0.36246556 2.0029593 37
-0.49682996 0.36493552 1.5118475 39
-0.86154532 0.63262045 2.025281 73
-1.0756615 0.78985 2.0326231 20
-1.3039095 0.95745677 2.0127425 12
-0.10009749 0.075438827 2.0010643 89
-0.17523855 0.13348529 2.0082631 93
-0.4157694 0.30660844 2.0251129 96
-0.49390885 0.36398238 1.7226599 39
-0.53960854 0.39752382 1.449021 40
-0.93994522 0.69246501 1.979813 22
-1.1790286 0.86860681 2.0132186 76
-1.3330736 0.98173988 1.8730495 15
-1.530795 1.1215943 1.9446703 46
-1.9430951 1.423687 2.0240033 34
-2.3928854 1.7538875 2.0297451 10
-3.1348374 2.297713 2.1202252 3
-4.0874906 2.9959719 2.1358757 1
-5.5674248 4.082201 2.1178746 2
nan nan nan 0
-10.298579 7.556756 1.2374597 28
-1.3931112 1.0237098 1.6203753 38
-2.1450303 1.5768278 2.0220401 26
-2.686934 1.9744679 2.0442383 37
-3.4309633 2.5221338 2.055949 31
-4.7979245 3.5282912 2.1607676 3
-6.7618527 4.9743423 2.1153452 9
-10.306308 7.5845866 1.8746846 47
-10.230963 7.5318928 0.60615855 14
-0.024900541 0.018976158 1.9941976 62
-0.25294787 0.1884485 2.0057628 93
-0.332454 0.24649735 2.0131991 93
-0.49316421 0.36515993 2.007731 37
-0.49705932 0.36791638 1.5164499 39
-0.85922086 0.6357739 2.025281 67
-1.0704972 0.7921133 2.0284901 33
-1.2875059 0.95269454 1.9935577 12
-0.099807091 0.075822614 2.0010643 88
-0.17472471 0.13415717 2.0082631 93
-0.41458905 0.30820262 2.0251129 96
-0.49389282 0.36690524 1.7273527 39
-0.53807819 0.39959282 1.449021 39
-0.93518567 0.69451398 1.975547 23
-1.1732651 0.87133056 2.0092292 70
-1.3100703 0.97293419 1.8473235 15
-1.5094601 1.1144878 1.9236431 38
-1.9409955 1.4331114 2.0271409 34
-2.3830776 1.7601616 2.0270035 10
-3.1620305 2.3355081 2.1434057 2
-1.1527817 0.85176533 0.66741806 5
-5.5864301 4.1292119 2.1305575 2
nan nan nan 0
-10.309525 7.6258583 1.2419218 31
-1.3921708 1.0312741 1.6237003 38
-2.1389596 1.5850523 2.0220401 24
-2.6755228 1.9826711 2.0417061 36
-3.4208109 2.5358863 2.055949 31
-4.7647562 3.533458 2.152554 2
-6.7457342 5.0043426 2.1165175 14
-10.281086 7.6270552 1.8753743 41
-10.209991 7.5770755 0.6065616 12
-0.024834149 0.019062962 1.9941976 62
-0.25228852 0.18933032 2.0057628 93
-0.33159152 0.24765632 2.0131991 93
-0.49188653 0.36687917 2.007731 39
-0.49733821 0.37081704 1.5210525 39
-0.85699636 0.63876927 2.025281 54
-1.0677257 0.79584521 2.0284901 39
-1.2661797 0.94377148 1.9666992 12
-0.099541806 0.076170541 2.0010643 88
-0.17425536 0.13476625 2.0082631 93
-0.41351068 0.30964795 2.0251129 96
-0.49399069 0.369661 1.7320454 39
-0.53500611 0.40007076 1.4445202 39
-0.93287742 0.69761133 1.975547 28
-1.1703691 0.87521642 2.0092292 57
-1.3231264 0.9894551 1.8693745 15
nan nan nan 0
-1.9359812 1.439878 2.0271409 34
-2.3702095 1.7634776 2.0215206 9
-3.1289783 2.3280201 2.1271794 4
-1.1498015 0.85578418 0.66741806 5
-5.5565915 4.1372271 2.1249206 2
nan nan nan 0
-10.304151 7.6748781 1.2441528 27
-1.3917367 1.038118 1.6270251 40
-2.1304524 1.5897194 2.0190971 22
-2.6689329 1.9915327 2.0417061 38
-3.4160199 2.5499308 2.0580471 33
-4.7227416 3.5266347 2.1394124 3
-6.7291021 5.0266843 2.1165175 16
-10.309936 7.7043972 1.8850317 56
-10.215491 7.6365995 0.60817385 11
-0.024767455 0.019149534 1.9941976 64
-0.2516261 0.19020982 2.0057628 93
-0.33072504 0.24881229 2.0131991 93
-0.49060288 0.36859393 2.007731 51
-0.49760291 0.37372407 1.525655 39
-0.85476142 0.64175683 2.025281 39
-1.0626907 0.79787785 2.0243571 54
-1.2474953 0.93663615 1.9436773 11
-0.099275321 0.076517545 2.0010643 89
-0.17378387 0.1353737 2.0082631 93
-0.41242728 0.31108949 2.0251129 96
-0.49407533 0.37242186 1.7367382 39
-0.53360635 0.40193588 1.4445202 39
-0.93043661 0.70086354 1.975547 8
-1.167307 0.87929648 2.0092292 61
-1.3223723 0.9961074 1.8730495 15
-1.2476264 0.9346931 1.6117386 11
-1.9340589 1.448961 2.0302787 34
-2.3673854 1.7742481 2.0242622 9
-3.124378 2.3415849 2.1294973 4
-1.1393887 0.8542307 0.66367197 6
-1.166976 0.8752318 0.51843786 13
nan nan nan 0
-10.281281 7.713789 1.244599 23
-1.4328873 1.0766178 1.6768978 71
-2.1248903 1.5971465 2.0190971 19
-2.6619651 2.0008366 2.0417061 40
-3.4070983 2.5618396 2.0580471 37
-4.6424704 3.4920011 2.1098442 4
-6.7153988 5.0530653 2.1176901 20
-10.263198 7.7254472 1.8815827 50
-10.228682 7.7022638 0.61018914 14
-0.024700459 0.019235872 1.9941976 60
-0.25096062 0.19108699 2.0057628 93
-0.32985449 0.24996522 2.0131991 93
-0.48931324 0.37030423 2.007731 66
-0.49785331 0.37663752 1.5302576 39
-0.85251611 0.64473665 2.025281 34
-1.0598992 0.80158246 2.0243571 71
-1.2237624 0.92551446 1.9129819 11
-0.099007621 0.076863617 2.0010643 89
-0.17331025 0.13597949 2.0082631 93
-0.41033739 0.31176624 2.0202737 95
-0.4941467 0.37518781 1.741431 39
-0.5304653 0.40247968 1.4400194 38
-0.93006223 0.70568347 1.979813 6
-1.1642306 0.88336575 2.0092292 72
-1.3269894 1.0068649 1.884075 16
-1.2130431 0.91541213 1.5731884 11
-1.9289892 1.4557034 2.0302787 35
-2.3611777 1.7825007 2.0242622 11
-3.1161852 2.3524766 2.1294973 5
-3.9776053 3.0038724 2.1021612 2
-1.1103249 0.83881521 0.49870908 5
nan nan nan 0
-10.250319 7.7466273 1.2441528 30
-1.461875 1.1064031 1.7134712 98
-2.1193023 1.6045541 2.0190971 19
-2.6549647 2.0101168 2.0417061 47
-3.3981349 2.5737169 2.0580471 37
-4.6076684 3.4910736 2.0999882 7
-6.7015929 5.079411 2.1188624 15
-10.216437 7.7462654 1.8781335 42
-10.161929 7.7077298 0.60817385 13
-0.024633164 0.019321974 1.9941976 58
-0.25090849 0.19243486 2.0107021 95
-0.32897994 0.25111508 2.0131991 87
-0.48801771 0.37200996 2.007731 75
-0.49653563 0.37837303 1.5302576 39
-0.85026032 0.64770848 2.025281 27
-1.0570947 0.80527729 2.0243571 77
-1.2052228 0.91812396 1.8899602 11
-0.098738715 0.077208742 2.0010643 89
-0.17283456 0.13658363 2.0082631 93
-0.40924665 0.31319669 2.0202737 95
-0.49420473 0.37795883 1.7461238 39
-0.52905715 0.40432891 1.4400194 38
-0.92759317 0.70892572 1.979813 6
-1.1635346 0.88925445 2.0132186 80
-1.3288538 1.0156081 1.8914254 15
-1.2524272 0.95201296 1.6257566 16
-1.9269953 1.4647838 2.0334165 35
-2.3582695 1.7932631 2.0270035 11
-3.111481 2.3660216 2.1318154 6
-3.9338887 2.9924784 2.085304 3
-1.10739 0.84268588 0.49870908 5
-8.5609789 6.5146322 2.1339102 4
-10.223215 7.7823606 1.2441528 28
-1.6658891 1.2699798 1.9462105 83
-2.1169021 1.6143931 2.0220401 22
-2.6479318 2.019372 2.0417061 41
-3.3927388 2.588316 2.0601451 39
-4.5616679 3.4813511 2.0852039 11
-6.6876841 5.105722 2.1200345 16
-10.161786 7.7608399 1.8733048 39
-10.138933 7.7461886 0.60837537 11
-0.024565566 0.019407842 1.9941976 55
-0.25023526 0.19330952 2.0107021 93
-0.3281014 0.25226194 2.0131991 87
-0.48671615 0.3737112 2.007731 84
-0.4967615 0.38129357 1.53486 39
-0.84799421 0.65067255 2.025281 24
-1.0542773 0.80896235 2.0243571 77
-1.2045542 0.92427713 1.8937972 11
-0.098468602 0.077552937 2.0010643 89
-0.17235672 0.13718611 2.0082631 95
-0.40815088 0.31462333 2.0202737 96
-0.49424949 0.38073474 1.7508165 39
-0.5293681 0.40750164 1.4445202 38
-0.92717946 0.71375018 1.9840788 6
-1.1628116 0.89514911 2.0172081 84
-1.3253006 1.0202405 1.8914254 15
-1.2519279 0.958547 1.6292613 25
-1.9218705 1.4715014 2.0334165 36
-2.3553152 1.8040268 2.0297451 11
-3.1137543 2.3849497 2.1387694 5
-4.0227757 3.0823212 2.1358757 2
nan nan nan 0
nan nan nan 0
nan nan nan 0
-1.6703314 1.2826102 1.9561851 95
-2.111254 1.6217725 2.0220401 24
-2.640867 2.0286028 2.0417061 39
-3.3836834 2.6001432 2.0601451 37
-4.5494876 3.4972527 2.0852039 16
-6.6698213 5.1290359 2.1200345 20
-10.083607 7.7570109 1.8643373 45
nan nan nan 0
-0.024497673 0.019493474 1.9941976 56
-0.24955896 0.19418181 2.0107021 92
-0.32721883 0.25340569 2.0131991 91
-0.48659015 0.37632164 2.0125027 88
-0.49697313 0.38422024 1.5394626 39
-0.84571785 0.65362865 2.025281 24
-1.0514472 0.81263751 2.0243571 79
-1.1962473 0.92455512 1.8861233 11
-0.098197296 0.077896178 2.0010643 89
-0.17187682 0.1377869 2.0082631 93
-0.40705013 0.31604612 2.0202737 96
-0.49428079 0.38351557 1.7555093 39
-0.52794248 0.40934697 1.4445202 39
-0.92674351 0.71858048 1.9883448 19
-1.1620618 0.90104949 2.0211978 84
-1.3029773 1.0103186 1.8656992 14
-1.2683423 0.97815639 1.653793 33
-1.9167223 1.4782009 2.0334165 35
-2.3523145 1.8147914 2.0324864 11
-3.1159332 2.4039226 2.1457236 5
-3.938591 3.0396957 2.0984151 2
nan nan nan 0
-8.663044 6.6883144 2.1693499 8
-10.054335 7.765264 1.2312127 23
-1.7042452 1.3181341 1.9994081 89
-2.108777 1.6316056 2.0249834 26
-2.6337695 2.0378084 2.0417061 36
-3.3745868 2.6119385 2.0601451 34
-4.5335188 3.510221 2.0835612 18
-6.6518769 5.1522865 2.1200345 15
-10.017322 7.7618294 1.8574392 30
-10.021429 7.7678118 0.60515088 48
-0.024429478 0.019578869 1.9941976 49
-0.24887961 0.19505176 2.0107021 93
-0.32633227 0.25454634 2.0131991 91
-0.48527357 0.3780179 2.0125027 86
-0.4971703 0.38715303 1.5440651 39
-0.84343112 0.65657675 2.025281 24
-1.0508246 0.81803137 2.0284901 79
-1.1930128 0.92872518 1.8861233 11
-0.097924784 0.07823848 2.0010643 89
-0.17180979 0.13872196 2.0132346 93
-0.40594447 0.31746507 2.0202737 96
-0.49429876 0.38630131 1.7602021 39
-0.52651036 0.41118738 1.4445202 40
-0.92628491 0.72341633 1.9926107 38
-1.1589094 0.90510035 2.0211978 84
-1.2860836 1.0044273 1.8473235 13
-1.2592874 0.97820234 1.6467839 36
-1.9115506 1.4848825 2.0334165 34
-2.3459654 1.8229916 2.0324864 11
-3.1215158 2.4256582 2.1549957 5
-3.9133162 3.0420446 2.0909231 3
nan nan nan 0
-8.5737219 6.6672497 2.1534953 19
-10.015376 7.7911396 1.229874 27
-1.6996337 1.3240751 1.9994081 89
-2.1030688 1.6389568 2.0249834 25
-2.6232395 2.0443394 2.0391736 36
-3.3654487 2.623702 2.0601451 35
-4.5249615 3.5289288 2.0852039 29
-6.6338511 5.1754742 2.1200345 20
-9.951128 7.7662811 1.850541 39
-9.9981909 7.8058195 0.6053524 41
-0.024394553 0.019691899 1.9991974 49
-0.24758747 0.19543777 2.0057628 93
-0.32544175 0.2556839 2.0131991 93
-0.48395103 0.37970951 2.0125027 88
-0.49735302 0.39009184 1.5486677 40
-0.84301925 0.66099507 2.0296695 25
-1.0479627 0.82169449 2.0284901 79
-1.1847181 0.9289276 1.8784494 11
-0.097651087 0.078579828 2.0010643 89
-0.17132452 0.13932085 2.0132346 89
-0.40483379 0.31888014 2.0202737 95
-0.49430323 0.38909176 1.7648948 39
-0.52678341 0.41436914 1.449021 43
-0.92580384 0.72825778 1.9968767 50
-1.1557429 0.90914023 2.0211978 87
-1.2745759 1.0026222 1.8362979 13
-1.2586739 0.98478967 1.6502886 38
-1.9124875 1.4963437 2.0396919 35
-2.3395875 1.8311695 2.0324864 11
-3.1165183 2.43927 2.1573136 5
-1.0920479 0.85504109 0.64868772 8
-5.3632097 4.200757 2.0911002 2
-8.5465298 6.694108 2.1525626 13
-9.933238 7.7830515 1.2236271 30
-1.6891255 1.3253893 1.9927584 87
-2.0973351 1.6462877 2.0249834 23
-2.6126962 2.0508218 2.0366411 36
-3.3562698 2.6354337 2.0601451 31
-4.5163298 3.5476198 2.0868468 28
-6.6272116 5.2076092 2.1235516 20
-9.9005985 7.7826071 1.846402 35
-9.8962669 7.7819977 0.60152334 48
-0.024325665 0.019776933 1.9991974 45
-0.24690376 0.1963008 2.0057628 95
-0.32454726 0.25681835 2.0131991 93
-0.48262268 0.3813965 2.0125027 88
-0.49752131 0.39303663 1.5532701 39
-0.84070683 0.66393375 2.0296695 26
-1.0450882 0.82534766 2.0284901 81
-1.1814682 0.93305743 1.8784494 11
-0.097376198 0.078920215 2.0010643 89
-0.17083715 0.13991803 2.0132346 89
-0.40371826 0.32029131 2.0202737 95
-0.49429426 0.39188695 1.7695875 39
-0.52533376 0.41620541 1.449021 50
-0.9253003 0.73310447 2.0011425 73
-1.1525624 0.91316891 2.0211978 80
-1.2630968 1.0007493 1.8252726 13
-1.2524275 0.98696989 1.6467839 38
-1.8980801 1.4957819 2.0302787 34
-2.3331814 1.839325 2.0324864 10
-3.1392968 2.4748182 2.1781759 4
-1.0708557 0.84449428 0.63932252 6
-5.3485136 4.2194524 2.0911002 4
-8.5231113 6.7238998 2.1525626 9
-9.8590975 7.7806549 1.2182726 34
-1.6815587 1.3289616 1.9894335 85
-2.0915754 1.6535988 2.0249834 22
-2.6055214 2.0599291 2.0366411 33
-3.34705 2.6471334 2.0601451 27
-4.5039182 3.5633628 2.0868468 20
-6.6128044 5.2337279 2.1247239 20
-9.8151321 7.7710099 1.8360549 43
-9.8298788 7.7854757 0.59950799 42
-0.024256483 0.019861724 1.9991974 45
-0.24621701 0.19716147 2.0057628 93
-0.32364884 0.25794965 2.0131991 93
-0.48128843 0.38307881 2.0125027 88
-0.49767503 0.39598739 1.5578727 40
-0.83838415 0.66686428 2.0296695 27
-1.0422007 0.82899058 2.0284901 79
-1.1706772 0.93118858 1.8669386 11
-0.097100124 0.079259641 2.0010643 91
-0.17034771 0.14051351 2.0132346 91
-0.40259778 0.32169861 2.0202737 95
-0.49427176 0.39468685 1.7742803 39
-0.52387774 0.41803667 1.449021 54
-0.92477411 0.7379567 2.0054085 81
-1.1446562 0.9134267 2.0132186 72
-1.2675453 1.0114959 1.8362979 11
-1.2489748 0.99133569 1.6467839 38
-1.8623562 1.4781965 1.9989008 29
-2.3267465 1.8474579 2.0324864 9
-3.1306386 2.4857614 2.1781759 5
-1.0679013 0.84822702 0.63932252 6
-5.4088721 4.2977848 2.1192839 3
-8.4842052 6.7413859 2.1488321 16
-9.7889948 7.7809362 1.2133644 35
-1.6301621 1.2976121 1.936236 96
-2.0857906 1.6608897 2.0249834 22
-2.5983152 2.0690117 2.0366411 34
-3.3377893 2.6588006 2.0601451 27
-4.4914527 3.5790627 2.0868468 21
-6.632503 5.287076 2.136447 15
-9.7453566 7.7712598 1.8284669 47
-9.7792091 7.8010483 0.59829885 39
-0.024220277 0.019974502 2.0041974 42
-0.2455273 0.19801973 2.0057628 95
-0.32274643 0.25907785 2.0131991 93
-0.47994828 0.38475651 2.0125027 88
-0.49781421 0.39894393 1.5624752 40
-0.83418155 0.66828889 2.025281 31
-1.0393006 0.83262348 2.0284901 79
-1.1674196 0.93526936 1.8669386 11
-0.096822858 0.079598099 2.0010643 91
-0.16944593 0.14076558 2.0082631 93
-0.40147239 0.32310197 2.0202737 93
-0.49423572 0.39749128 1.7789731 39
-0.5224154 0.41986275 1.449021 52
-0.92422545 0.74281418 2.0096743 81
-1.1250163 0.90419972 1.9852921 57
-1.2640067 1.0159143 1.8362979 11
-1.2455068 0.99568939 1.6467839 38
-1.8450223 1.4749652 1.9863497 30
-2.3202837 1.8555686 2.0324864 9
-3.1115634 2.4883735 2.171222 4
-1.0757942 0.86063772 0.64494163 10
-5.3039441 4.244699 2.0854633 6
-8.4913034 6.7955155 2.1562932 7
-9.7073469 7.7714849 1.2071173 30
-1.6052275 1.2869432 1.912962 97
-2.0768273 1.6656315 2.0220401 20
-2.5910771 2.078069 2.0366411 38
-3.3284881 2.6704352 2.0601451 27
-4.4789319 3.5947189 2.0868468 22
-6.5836849 5.2858515 2.1270685 21
-9.6486712 7.7494116 1.8160502 46
-9.7285509 7.8163619 0.59708965 38
-0.024150405 0.020058926 2.0041974 42
-0.24483459 0.19887558 2.0057628 95
-0.32184011 0.26020285 2.0131991 93
-0.47860232 0.38642952 2.0125027 88
-0.49793884 0.40190628 1.5670776 40
-0.82997912 0.66969216 2.0208921 35
-1.0363879 0.83624625 2.0284901 71
-1.1841075 0.95544428 1.897634 13
-0.096544422 0.079935588 2.0010643 89
-0.16895354 0.1413562 2.0082631 93
-0.40034211 0.3245014 2.0202737 95
-0.49418613 0.40030029 1.7836659 39
-0.52094662 0.42168376 1.449021 45
-0.92568105 0.74931759 2.0182064 81
-1.1054549 0.89484698 1.9573658 35
-1.2894381 1.0437837 1.8767247 11
-1.2420236 1.000031 1.6467839 38
-1.8398625 1.4813966 1.9863497 28
-2.3170488 1.8662796 2.035228 11
-3.0442047 2.4519768 2.1318154 6
-1.0619537 0.85566175 0.63932252 11
-5.318975 4.287272 2.0967369 10
-8.4713554 6.828197 2.1572256 20
-9.6801596 7.8053222 1.2071173 26
-1.6065363 1.2972308 1.9196117 97
-2.0678563 1.6703312 2.0190971 19
-2.5838075 2.087101 2.0366411 39
-3.3156157 2.6791849 2.0580471 30
-4.4663568 3.6103315 2.0868468 16
-6.5614152 5.3057446 2.1258962 23
-9.5792093 7.748786 1.8084623 36
-9.654604 7.812561 0.59467125 40
-0.024047166 0.020114643 1.9991974 39
-0.24474017 0.20022114 2.0107021 92
-0.32092988 0.2613247 2.0131991 93
-0.47725052 0.38809776 2.0125027 86
-0.49804884 0.40487441 1.5716803 40
-0.8220588 0.66805238 2.0077264 39
-1.0334625 0.83985883 2.0284901 71
-1.2006686 0.97574675 1.9283296 17
-0.096264809 0.080272101 2.0010643 89
-0.16845909 0.14194509 2.0082631 93
-0.39920694 0.32589689 2.0202737 95
-0.49412292 0.40311384 1.7883586 39
-0.51947141 0.42349967 1.449021 40
-0.92508113 0.75419235 2.0224724 83
-1.0999886 0.89679575 1.9533762 35
-1.2857867 1.0482783 1.8767247 11
-1.2357554 1.0021142 1.6432794 37
nan nan nan 0
-2.3170147 1.8796248 2.0407109 13
-2.98402 2.4207225 2.0970449 8
nan nan nan 0
-5.2965283 4.2997646 2.0939183 4
-8.4550962 6.8639174 2.159091 23
-9.5910025 7.7888346 1.199978 24
-1.6222789 1.3193239 1.9428856 97
-2.0620129 1.6775391 2.0190971 24
-2.5798507 2.0988281 2.0391736 39
-3.3062434 2.6907423 2.0580471 33
-4.4537268 3.6259 2.0868468 17
-6.5202413 5.3101993 2.1188624 25
-9.5597811 7.7884312 1.8098419 30
-9.5730572 7.8020272 0.5918498 41
-0.023980331 0.020194277 1.9991974 39
-0.24407488 0.20103163 2.0107021 92
-0.32006153 0.26238751 2.0131991 95
-0.47596091 0.38967824 2.0125027 84
-0.49821532 0.40776119 1.5762829 40
-0.80315119 0.65712076 1.9682282 50
-1.0306718 0.84328121 2.0284901 79
-1.2172761 0.99596399 1.9590251 27
-0.096012145 0.080574133 2.0010643 89
-0.16801231 0.14247362 2.0082631 93
-0.39818114 0.32714942 2.0202737 95
-0.49418771 0.40575927 1.7930514 39
-0.5180642 0.42521995 1.449021 40
-0.92459095 0.75891048 2.0267382 87
-1.0923494 0.89661413 1.9453971 37
-1.327041 1.0888705 1.9392025 12
-1.2296629 1.0039511 1.6397748 38
-1.0035 0.81930321 1.1265987 4
-2.3140073 1.8899429 2.0434525 13
-2.9245079 2.3885684 2.0622747 9
-3.8066041 3.1090145 2.0740657 7
-5.2792792 4.3133483 2.0925093 6
-8.4246817 6.8857007 2.1572256 17
-9.5843973 7.8363571 1.2022091 39
-1.6323417 1.3365252 1.9595098 97
-2.0595655 1.6869289 2.0220401 24
-2.5732441 2.1069226 2.0391736 40
-3.2977741 2.7011158 2.0580471 33
-4.4423146 3.639874 2.0868468 20
-6.5185628 5.3429818 2.1235516 15
-9.5697317 7.8466849 1.8160502 45
-9.5909891 7.8669152 0.59406668 30
-0.023906153 0.020282034 1.9991974 38
-0.24333641 0.20192486 2.0107021 93
-0.3190977 0.2635588 2.0131991 93
-0.47452945 0.39142016 2.0125027 84
-0.49822468 0.4108274 1.5808854 40
-0.74158126 0.6112957 1.8277911 84
-1.0275741 0.84705329 2.0284901 79
-1.2309338 1.0146934 1.9858838 33
-0.09570206 0.080942206 2.0010643 89
-0.16746402 0.1431177 2.0082631 93
-0.39692205 0.32867593 2.0202737 95
-0.495285 0.40985426 1.8024368 39
-0.5164277 0.42720604 1.449021 40
-0.92167014 0.76245505 2.0267382 87
-1.0981878 0.90848649 1.9613551 42
-1.3513932 1.1179595 1.9796295 13
-1.2232209 1.0061858 1.6362704 37
-1.0004904 0.82297575 1.1265987 4
-2.3135226 1.9037253 2.0489354 13
-2.9054711 2.3908262 2.0553207 19
-3.8053763 3.132447 2.0796847 6
-5.2848983 4.3518839 2.1009643 23
-8.39818 6.9179988 2.1572256 20
-9.5811415 7.8952703 1.2053325 42
-1.6531203 1.3641746 1.9894335 95
-2.0561903 1.6973978 2.0249834 26
-2.5680909 2.1199801 2.0417061 41
-3.2869046 2.7143323 2.0580471 32
-4.4276671 3.6576772 2.0868468 17
-6.4858222 5.3598166 2.1200345 21
-9.5586195 7.8991466 1.8194994 45
-9.5645609 7.9068666 0.5942682 26
-0.02383521 0.020365357 1.9991974 38
-0.24263008 0.20277302 2.0107021 96
-0.31817576 0.26467106 2.0131991 93
-0.47316027 0.39307415 2.0125027 84
-0.49829051 0.41381222 1.5854878 40
-0.65280807 0.54195499 1.6215241 91
-1.024611 0.85063505 2.0284901 81
-1.2323176 1.0230796 1.9935577 38
-0.095418938 0.081275769 2.0010643 89
-0.16696343 0.14370137 2.0082631 93
-0.39577237 0.33005944 2.0202737 95
-0.49517697 0.41268545 1.8071296 39
-0.51500821 0.42891622 1.449021 40
-0.92114079 0.76717639 2.0310042 83
-1.0998009 0.91598094 1.9693341 44
-1.3841482 1.1528094 2.0310817 17
-1.2142086 1.0058992 1.6292613 36
nan nan nan 0
-2.313302 1.9171258 2.0544183 14
-2.8800523 2.3868194 2.0437305 27
-3.805126 3.1545875 2.085304 6
-5.2733679 4.3733683 2.1023736 19
-8.3751936 6.9458098 2.1572256 16
-9.5817356 7.9492574 1.208456 31
-1.6485875 1.3696492 1.9894335 95
-2.0536585 1.7067904 2.0279264 26
-2.5610466 2.1284845 2.0417061 40
-3.2743955 2.7223155 2.055949 33
-4.4155135 3.6723399 2.0868468 21
-6.4979043 5.4061646 2.1294129 15
-9.5652447 7.9609756 1.8257077 41
-9.5522614 7.952992 0.59507436 24
-0.023763977 0.020448435 1.9991974 36
-0.24192078 0.20361872 2.0107021 97
-0.31724995 0.26578009 2.0131991 93
-0.47178531 0.39472339 2.0125027 84
-0.49834156 0.41680253 1.5900904 40
-0.61782938 0.51656872 1.5425282 62
-1.0216354 0.85420638 2.0284901 81
-1.2311984 1.0294315 1.9973947 45
-0.095134646 0.081608348 2.0010643 89
-0.1664608 0.14428332 2.0082631 93
-0.39461783 0.3314389 2.0202737 95
-0.49505514 0.41552088 1.8118224 39
-0.51350784 0.43071133 1.449021 40
-0.91845727 0.77038711 2.0310042 77
-1.1012151 0.92368811 1.9773132 51
-1.3879077 1.1641699 2.0421071 22
-1.2079518 1.0078468 1.6257566 35
-1.8107394 1.5107872 1.983212 27
-2.3001757 1.9198302 2.0489354 16
-2.8785055 2.4025352 2.0483663 37
-3.7834151 3.158937 2.0796847 12
-5.2654333 4.3978996 2.1051919 15
-8.3508959 6.9750023 2.1572256 20
-9.5768585 8.0018139 1.2111332 29
-1.6523887 1.3825847 1.9994081 93
-2.0507879 1.7165432 2.0308697 24
-2.5536013 2.1374114 2.0417061 38
-3.2648728 2.7337286 2.055949 35
-4.3990474 3.6846979 2.0852039 34
-6.4976225 5.4444227 2.1352746 8
-9.5677595 8.0197659 1.8312262 44
-9.5627241 8.0183868 0.59708965 27
-0.023692455 0.020531261 1.9991974 36
-0.24120855 0.20446195 2.0107021 95
-0.31632027 0.26688588 2.0131991 91
-0.47040457 0.39636782 2.0125027 86
-0.4983778 0.41979817 1.5946929 40
-0.59769678 0.50329053 1.4986415 39
-1.016495 0.85595471 2.0243571 79
-1.2300497 1.0357878 2.0012317 54
-0.094849199 0.081939936 2.0010643 89
-0.16595614 0.1448635 2.0082631 93
-0.39345846 0.33281437 2.0202737 95
-0.4962374 0.41947457 1.8212079 39
-0.51200122 0.43250117 1.449021 40
-0.91576254 0.77358836 2.0310042 64
-1.1025889 0.93141639 1.9852921 57
-1.3967847 1.1799463 2.060483 26
-1.201696 1.0097629 1.6222522 35
-1.8143957 1.5246116 1.9926252 37
-2.2838578 1.9197761 2.0407109 23
-2.8701015 2.4125686 2.0483663 37
-3.7723653 3.1721241 2.0796847 19
-5.2537212 4.4193401 2.1066012 20
-8.326499 7.0041099 2.1572256 22
-9.5755434 8.0576401 1.2142568 29
-1.6475525 1.3883443 1.9994081 87
-2.0447836 1.7236912 2.0308697 18
-2.5428283 2.143533 2.0391736 36
-3.2553105 2.7451086 2.055949 33
-4.3861585 3.7000308 2.0852039 22
-6.4934373 5.479609 2.1399639 7
-9.5699797 8.0786695 1.8367448 37
-9.5652113 8.0775042 0.59870189 39
-0.023624241 0.020609718 1.9991974 36
-0.24052922 0.20526069 2.0107021 95
-0.3154335 0.2679334 2.0131991 91
-0.4690876 0.39792559 2.0125027 86
-0.49847293 0.42271215 1.5992955 40
-0.58505988 0.49597436 1.4723095 38
-1.013651 0.85932082 2.0243571 79
-1.2266082 1.0398611 2.0012317 57
-0.094591312 0.082237497 2.0010643 89
-0.16550022 0.14538415 2.0082631 93
-0.39241096 0.33404881 2.0202737 95
-0.49623147 0.42214969 1.8259007 39
-0.51056421 0.43419668 1.449021 40
-0.91319209 0.77662092 2.0310042 39
-1.1017901 0.93702024 1.9892817 61
-1.385322 1.1777409 2.0494576 28
-1.1956182 1.011439 1.6187476 36
-1.812302 1.5331342 1.9957631 37
-2.2710953 1.9219365 2.035228 28
-2.8620853 2.4220726 2.0483663 36
-3.7588427 3.1809649 2.077812 23
-5.2361503 4.4327235 2.1051919 29
-8.2994776 7.0285082 2.1562932 26
-9.5715694 8.1086645 1.216934 14
-1.6087675 1.36481 1.9595098 95
-2.0390563 1.7304626 2.0308697 13
-2.5360816 2.151511 2.0391736 34
-3.2466705 2.755322 2.055949 34
-4.3745131 3.7137921 2.0852039 22
-6.4502563 5.4779572 2.1317577 7
-9.5709715 8.1311388 1.8415735 45
-9.5702438 8.1333971 0.60031408 20
-0.023548543 0.020696167 1.9991974 35
-0.23977527 0.20614091 2.0107021 96
-0.31522292 0.26974979 2.0180943 93
-0.46762598 0.39964223 2.0125027 86
-0.49840564 0.42580536 1.6038979 40
-0.57777292 0.49344766 1.4591435 38
-1.0104946 0.86303031 2.0243571 79
-1.2227887 1.0443498 2.0012317 57
-0.094274849 0.082600094 2.0010643 89
-0.16494076 0.14601855 2.0082631 93
-0.39112541 0.33555311 2.0202737 95
-0.49591696 0.42517525 1.8305935 39
-0.50889325 0.43615389 1.449021 40
-0.91218358 0.78181881 2.03527 29
-1.1004726 0.94320536 1.9932711 63
-1.3651389 1.1700552 2.0274065 25
-1.191903 1.0158143 1.6187476 36
nan nan nan 0
-2.2608538 1.9275349 2.0324864 25
-2.8531888 2.4325466 2.0483663 37
-3.7466009 3.1953745 2.077812 32
-5.2190909 4.4527969 2.1051919 20
-8.268693 7.0571361 2.1553607 17
-9.5668745 8.1679907 1.2200575 4
-1.5836467 1.3539897 1.936236 96
-2.0293248 1.7356519 2.0279264 12
-2.524148 2.1588719 2.0366411 33
-3.2355835 2.7683325 2.055949 35
-4.3559818 3.7282519 2.0835612 26
-6.4097548 5.4880004 2.1258962 7
-9.5697737 8.1935949 1.8470919 29
-9.565505 8.1928339 0.60172486 12
-0.023476157 0.020778239 1.9991974 33
-0.23905426 0.20697661 2.0107021 97
-0.31427941 0.27084845 2.0180943 93
-0.46622813 0.40127209 2.0125027 86
-0.49839717 0.42881674 1.6085005 40
-0.57604688 0.49546149 1.4591435 38
-1.0053425 0.8647173 2.0202241 77
-1.2191356 1.0486119 2.0012317 61
-0.094202742 0.083120622 2.0060561 89
-0.16482815 0.14694922 2.0132346 93
-0.38995177 0.33691636 2.0202737 96
-0.49704209 0.42915937 1.8399791 39
-0.50744414 0.43783903 1.449021 43
-0.90958595 0.78483945 2.03527 22
-1.0996206 0.94881839 1.9972607 67
-1.3484179 1.163502 2.0090308 24
-1.1910561 1.0222915 1.6222522 37
-0.95054215 0.81585807 1.0920832 7
-2.2509391 1.9326911 2.0297451 12
-2.8446801 2.4424915 2.0483663 37
-3.735424 3.2084332 2.077812 33
-5.1998773 4.4678612 2.1037827 17
-8.237793 7.0781145 2.1534953 21
-9.5661736 8.222394 1.2231809 3
-1.5734874 1.3543617 1.9295863 97
-2.0235581 1.7423718 2.0279264 12
-2.5169749 2.1672301 2.0366411 33
-3.2263858 2.779047 2.055949 33
-4.3435941 3.7426763 2.0835612 22
-6.41361 5.528266 2.13293 6
-9.5673676 8.2495871 1.8519206 23
-9.5633287 8.2490158 0.60313559 27
-0.023403484 0.020860059 1.9991974 33
-0.23833032 0.20780981 2.0107021 97
-0.31333202 0.27194387 2.0180943 91
-0.46482459 0.40289706 2.0125027 84
-0.49837369 0.43183324 1.613103 40
-0.57250309 0.49590063 1.4547548 39
-1.002318 0.86822134 2.0202241 69
-1.215468 1.0528611 2.0012317 62
-0.09391202 0.083448939 2.0060561 89
-0.16431418 0.14752367 2.0132346 95
-0.38877332 0.33827546 2.0202737 95
-0.49684319 0.43202415 1.8446718 39
-0.50591266 0.43960771 1.449021 42
-0.90684074 0.78800964 2.03527 22
-1.0963019 0.95265102 1.9972607 72
-1.3289943 1.1548595 1.9869798 21
-1.1982723 1.0357714 1.6362704 37
-0.9359082 0.80898821 1.0795321 8
-2.2410161 1.9378014 2.0270035 10
-2.8361371 2.4524062 2.0483663 36
-3.7242022 3.2214525 2.077812 27
-5.1806226 4.4828458 2.1023736 15
-8.2278948 7.1196833 2.1572256 13
-9.5600042 8.2752924 1.2258582 13
-1.5997897 1.3867521 1.9661596 96
-2.0174639 1.7494247 2.0279264 11
-2.5093949 2.176003 2.0366411 30
-3.2200937 2.7932661 2.0580471 35
-4.3305035 3.7578156 2.0835612 15
nan nan nan 0
-9.5684261 8.3089094 1.8574392 18
-9.5684214 8.3118343 0.60494936 44
-0.023330525 0.020941626 1.9991974 32
-0.23760349 0.20864046 2.0107021 97
-0.31161427 0.27236581 2.0131991 91
-0.46341538 0.40451717 2.0125027 86
-0.4983353 0.43485481 1.6177055 40
-0.57076859 0.49789602 1.4547548 39
-0.99716073 0.86986494 2.0160913 56
-1.2093697 1.0549898 1.9973947 64
-0.093620159 0.08377625 2.0060561 89
-0.16379823 0.14809634 2.0132346 95
-0.38759011 0.33963048 2.0202737 95
-0.49663034 0.43489271 1.8493646 39
-0.5043751 0.44137096 1.449021 43
-0.90408456 0.79117036 2.03527 22
-1.0907018 0.9544872 1.9932711 72
-1.3326086 1.1661894 1.9980052 21
-1.2000294 1.044631 1.6432794 38
-0.92133379 0.80202621 1.066981 7
-2.2342381 1.9456122 2.0270035 10
-2.827559 2.4622912 2.0483663 37
-3.712934 3.2344327 2.077812 30
-5.1613264 4.4977503 2.1009643 17
-8.221509 7.1644974 2.1618888 8
-9.5535851 8.3282471 1.2285355 10
-1.6118187 1.4070631 1.9861088 89
-2.0113449 1.7564564 2.0279264 14
-2.5050311 2.1875851 2.0391736 28
-3.2103238 2.8044891 2.0580471 39
-4.3173599 3.7729089 2.0835612 17
-1.0064595 0.87984478 0.41314036 4
-9.5654593 8.3650789 1.8622679 42
-9.5769501 8.3780785 0.60696465 57
-0.023260951 0.021018878 1.9991974 31
-0.23691028 0.20942724 2.0107021 97
-0.31070936 0.27339765 2.0131991 93
-0.46207142 0.4060517 2.0125027 86
-0.49835825 0.43779436 1.622308 40
-0.56911433 0.49978599 1.4547548 39
-0.99215627 0.87130994 2.0119584 38
-1.2058644 1.0589945 1.9973947 64
-0.093356512 0.084069952 2.0060561 89
-0.16333216 0.1486102 2.0132346 95
-0.38652122 0.34084645 2.0202737 96
-0.49655628 0.43759176 1.8540574 39
-0.50290871 0.44304109 1.449021 45
-0.901456 0.794164 2.03527 25
-1.0830075 0.95411402 1.9852921 59
-1.3314824 1.1726108 2.0016804 20
-1.2367896 1.0838612 1.6958475 60
nan nan nan 0
-2.2246299 1.9502541 2.0242622 16
-2.8227098 2.474575 2.0506845 37
-3.7027543 3.2460816 2.077812 29
-5.1435637 4.5107799 2.0995553 8
-8.219862 7.2111583 2.1674845 7
-9.5745745 8.402586 1.2343361 14
-1.607144 1.4124004 1.9861088 87
-2.0055094 1.7631165 2.0279264 18
-2.501385 2.1982901 2.0417061 20
-3.2049067 2.8175578 2.0601451 34
-4.3054857 3.7864535 2.0835612 24
-1.0073398 0.88621283 0.41431266 4
-9.5688725 8.4212608 1.8677864 27
-9.5880804 8.4411354 0.60897994 49
-0.02318744 0.021099946 1.9991974 29
-0.2361778 0.21025296 2.0107021 97
-0.30975315 0.27448058 2.0131991 93
-0.46065116 0.40766212 2.0125027 84
-0.49829021 0.44082585 1.6269106 40
-0.56557178 0.50018239 1.4503663 39
-0.98700094 0.8729037 2.0078254 36
-1.2021605 1.0631973 1.9973947 64
-0.092833623 0.084216639 2.0010643 89
-0.16278639 0.14920785 2.0132346 95
-0.38526937 0.34226084 2.0202737 95
-0.49623954 0.44055453 1.8587501 39
-0.50135911 0.44479388 1.449021 49
-0.8986783 0.79730582 2.03527 34
-1.0661433 0.94588703 1.9613551 48
-1.3271757 1.1774831 2.0016804 21
-1.315888 1.1613261 1.8044887 89
-1.7710407 1.5630242 1.9863497 54
-2.2115395 1.9524729 2.0187793 23
-2.814055 2.4844129 2.0506845 35
-3.6908321 3.2596312 2.077812 22
-5.126996 4.5296021 2.0995553 8
-8.2020025 7.2463126 2.1693499 7
-9.5787697 8.4656372 1.2383521 28
-1.1296067 0.99973607 1.4242094 89
-1.9993427 1.7701063 2.0279264 20
-2.4965389 2.2103012 2.0442383 12
-3.1945579 2.8292854 2.0601451 37
-4.2951136 3.8053403 2.0852039 14
-6.358604 5.6355128 2.1399639 2
-9.5527649 8.4694185 1.8705457 23
-9.5944548 8.5093718 0.61099529 49
-0.023113647 0.021180756 1.9991974 28
-0.23544246 0.21107607 2.0107021 97
-0.30879316 0.27556014 2.0131991 93
-0.45811042 0.40827385 2.007731 84
-0.49966574 0.44516176 1.6361156 40
-0.56382239 0.50215358 1.4503663 39
-0.98184645 0.87447196 2.0036924 36
-1.1960479 1.0652548 1.9935577 61
-0.092539087 0.084540181 2.0010643 89
-0.16187268 0.14941253 2.0082631 95
-0.38407233 0.34360358 2.0202737 95
-0.49598518 0.44343424 1.8634429 39
-0.49980345 0.44654125 1.449021 55
-0.89588976 0.80043799 2.03527 39
-1.0268747 0.91747314 1.8975232 33
-1.3205295 1.1798497 1.9980052 14
-1.4264469 1.2677846 1.9551841 75
-1.7859421 1.5872995 2.0083144 54
-2.2015858 1.9574023 2.0160377 31
-2.8053656 2.4942207 2.0506845 36
-3.6794317 3.2724946 2.077812 24
-5.1075692 4.544282 2.098146 7
-8.1876678 7.2846937 2.1721475 4
-9.5900812 8.5354433 1.2432604 28
-1.1177468 0.99621898 1.4142349 96
-1.9961687 1.7797645 2.0308697 24
-2.4920261 2.2218714 2.0467708 11
-3.1880498 2.8434403 2.0622432 48
-4.2818046 3.8203099 2.0852039 14
-6.2699943 5.596179 2.1176901 3
-9.5785542 8.5521851 1.8808929 30
-9.6019535 8.5760908 0.61301059 68
-0.023067506 0.021295369 2.0041974 25
-0.23466723 0.21193759 2.0107021 98
-0.30778113 0.27669007 2.0131991 93
-0.45661092 0.40995017 2.007731 84
-0.49948475 0.44829512 1.6407181 40
-0.56197804 0.50421673 1.4503663 39
-0.97654033 0.87618554 1.9995594 37
-1.1945218 1.0717726 1.9973947 61
-0.092228606 0.08487878 2.0010643 89
-0.16132398 0.15000482 2.0082631 93
-0.38281038 0.34500897 2.0202737 95
-0.49692097 0.44755897 1.8728285 39
-0.49970353 0.44991425 1.4535218 57
-0.89280969 0.80387205 2.03527 56
-0.99198699 0.89317513 1.8416703 29
-1.3109505 1.1803745 1.9906548 14
-1.4324182 1.2825198 1.9692022 85
-1.7830125 1.5964314 2.011452 54
-2.1819379 1.9542992 2.0050719 30
-2.7995048 2.507442 2.0530026 25
-3.6674125 3.2859583 2.077812 24
-5.0980244 4.5693755 2.1009643 10
-8.1523218 7.3095198 2.1702826 4
-9.5906029 8.602129 1.2472763 28
-1.1139134 1.0005035 1.4142349 97
-1.9923266 1.7901175 2.0338128 24
-2.4834764 2.2314236 2.0467708 11
-3.177108 2.8556607 2.0622432 36
-4.2706161 3.8398802 2.0868468 11
-0.91441619 0.82247382 0.38734937 6
-9.5839634 8.6203518 1.887791 25
-9.6038818 8.6413012 0.61482435 55
-0.022993032 0.02137576 2.0041974 25
-0.233926 0.21275544 2.0107021 98
-0.30681339 0.27776271 2.0131991 93
-0.45517716 0.41154158 2.007731 84
-0.49936616 0.45134598 1.6453207 40
-0.56021458 0.50617528 1.4503663 39
-0.97347587 0.8795889 1.9995594 35
-1.1907732 1.0759357 1.9973947 68
-0.09193176 0.085200205 2.0010643 89
-0.16079938 0.15056704 2.0082631 93
-0.38160372 0.34634313 2.0202737 95
-0.49663386 0.45045018 1.8775212 39
-0.49820879 0.45156884 1.4535218 54
-0.89207143 0.8085798 2.039536 67
-0.96668851 0.8762182 1.8017752 30
-1.3020054 1.1801618 1.9833045 15
-1.4226356 1.2827357 1.9621931 73
-1.7832112 1.607859 2.0177276 54
-2.1813126 1.9675051 2.0105548 32
-2.7907352 2.5171988 2.0530026 9
-3.6559198 3.2987399 2.077812 13
-5.0891657 4.5935717 2.1037827 8
-8.1243906 7.3332229 2.1693499 6
-9.5989857 8.6672602 1.2517383 20
-1.6036363 1.4500065 2.006058 83
-1.9893774 1.7994261 2.036756 28
-2.4792602 2.2425387 2.0493033 19
-3.1709857 2.8692253 2.0643413 38
-4.2648606 3.8603587 2.090132 10
nan nan nan 0
-9.5978584 8.6936483 1.8960688 44
-9.6069794 8.7049627 0.61663812 49
-0.022949709 0.021486152 2.009197 21
-0.23318192 0.21357071 2.0107021 98
-0.30584195 0.27883202 2.0131991 93
-0.45484215 0.41413349 2.0125027 86
-0.49923235 0.45440137 1.6499232 40
-0.55844432 0.50812769 1.4503663 39
-0.96831828 0.88108772 1.9954264 35
-1.1893815 1.0822432 2.0012317 69
-0.091845155 0.085718513 2.0060561 89
-0.16027282 0.15112741 2.0082631 93
-0.38039246 0.34767309 2.0202737 95
-0.49633259 0.45334488 1.882214 39
-0.49823791 0.45477331 1.4580227 42
-0.89116973 0.813447 2.0438018 66
-0.96362406 0.87958723 1.8017752 35
-1.3028857 1.1892705 1.9906548 15
-1.3495034 1.2253622 1.8710748 75
-1.7660599 1.6036061 2.0051763 50
-2.1806219 1.9807302 2.0160377 34
-2.7819314 2.5269248 2.0530026 10
-3.6443827 3.3114812 2.077812 13
-5.0801997 4.6177616 2.1066012 8
-8.1278238 7.38797 2.1768107 7
-9.6018333 8.7308674 1.2557542 15
-1.6123705 1.4681662 2.022682 87
-1.983084 1.8063593 2.036756 28
-2.4714172 2.2511795 2.0493033 35
-3.1609511 2.8802769 2.0643413 40
-4.2548494 3.8784039 2.0917747 13
-6.195693 5.6495137 2.1130006 8
-9.6076984 8.7638092 1.9036568 31
-9.6060581 8.7653837 0.61825037 43
-0.022874568 0.02156613 2.009197 20
-0.232435 0.21438335 2.0107021 98
-0.30486676 0.27989793 2.0131991 91
-0.45339382 0.41571867 2.0125027 86
-0.49908334 0.45746136 1.6545256 39
-0.55666721 0.51007396 1.4503663 39
-0.9673115 0.88636357 1.9995594 38
-1.1879601 1.0885543 2.0050688 68
-0.091545381 0.086038589 2.0060561 89
-0.16013102 0.15205407 2.0132346 93
-0.37917653 0.34899876 2.0202737 95
-0.49601716 0.45624295 1.8869067 39
-0.49825066 0.45798349 1.4625236 39
-0.89216501 0.82008284 2.0523338 46
-0.96054786 0.88294554 1.8017752 38
-1.2562964 1.1548084 1.928177 14
-1.0951933 1.0014412 1.538143 54
-1.7547058 1.604507 1.9989008 48
-2.1798654 1.9939743 2.0215206 35
-2.7730942 2.5366204 2.0530026 10
-3.6328015 3.3241825 2.077812 13
-5.0782046 4.6484241 2.1122379 9
-8.0585041 7.3764954 2.1656194 9
-9.6043558 8.7945995 1.2597702 37
-1.6017312 1.468738 2.0160325 79
-1.9797453 1.8160028 2.0396991 29
-2.4603672 2.2568784 2.0467708 38
-3.1475341 2.8882248 2.0622432 33
-4.2412858 3.8932323 2.0917747 9
-6.186676 5.6809697 2.1165175 11
-9.5989313 8.8173933 1.9077957 26
-9.6121893 8.8326664 0.62026566 64
-0.022830371 0.021676324 2.0141969 17
-0.23168524 0.21519341 2.0107021 98
-0.3038879 0.28096038 2.0131991 91
-0.45193994 0.41729873 2.0125027 86
-0.49891898 0.46052584 1.6591282 39
-0.5548833 0.51201397 1.4503663 39
-0.96421164 0.88973475 1.9995594 39
-1.1841532 1.0926944 2.0050688 66
-0.091244496 0.086357616 2.0060561 89
-0.15959929 0.15261212 2.0132346 93
-0.37795597 0.35032022 2.0202737 95
-0.49568754 0.45914429 1.8915994 39
-0.49824715 0.46119931 1.4670243 36
-0.89312476 0.82673544 2.0608659 39
-0.95967185 0.88834065 1.8057648 40
-1.2746484 1.1799135 1.9612535 14
-1.0129883 0.93278581 1.4330066 28
-1.734776 1.5974376 1.983212 46
-2.1790426 2.0072372 2.0270035 39
-2.7609642 2.5432832 2.0506845 15
-3.6245849 3.3399847 2.0796847 23
-5.0619478 4.6661215 2.1122379 9
-8.018259 7.3912621 2.1618888 5
-9.6065483 8.8584557 1.2637861 34
-1.5856204 1.4641862 2.002733 95
-1.9733942 1.8229024 2.0396991 29
-2.4524744 2.2654531 2.0467708 38
-3.1507666 2.9115148 2.0706356 17
-4.2276697 3.9080136 2.0917747 9
-6.1596704 5.69593 2.1141729 10
-9.600812 8.8811111 1.914004 23
-9.6106348 8.8933105 0.62187797 55
-0.022754569 0.021755885 2.0141969 16
-0.23093267 0.21600083 2.0107021 98
-0.30365047 0.28271332 2.0180943 93
-0.45048049 0.41887376 2.0125027 86
-0.4987393 0.46359476 1.6637307 39
-0.55309266 0.51394778 1.4503663 39
-0.96316129 0.89501053 2.0036924 40
-1.1826801 1.0990034 2.0089054 66
-0.090942487 0.086675599 2.0060561 89
-0.15906559 0.15316829 2.0132346 95
-0.37673083 0.35163739 2.0202737 95
-0.49534369 0.46204889 1.8962922 39
-0.49822715 0.46442062 1.4715252 32
-0.89404887 0.83340466 2.0693977 37
-0.95656508 0.89168507 1.8057648 47
-1.2878808 1.2005372 1.9869798 14
-0.87636232 0.81264699 1.2542748 11
-1.7320436 1.6061302 1.9863497 46
-2.1781538 2.020519 2.0324864 40
-2.7520697 2.5529053 2.0506845 28
-3.6129043 3.3526163 2.0796847 12
-5.0245333 4.6641793 2.1037827 21
-7.9708085 7.3991532 2.1562932 5
-9.6084108 8.9224329 1.2678019 15
-1.5750303 1.4646262 1.9960833 97
-1.9670188 1.8297796 2.0396991 28
-2.4445515 2.2739997 2.0467708 40
-3.140584 2.9224951 2.0706356 14
-4.2140021 3.9227471 2.0917747 11
-6.1504221 5.7273345 2.1176901 10
-9.5769997 8.9213219 1.9153837 18
-9.630702 8.9744864 0.62469935 30
-0.022647478 0.021804485 2.009197 14
-0.23017728 0.21680562 2.0107021 98
-0.30266175 0.28377154 2.0180943 93
-0.44901562 0.42044371 2.0125027 84
-0.49854428 0.46666798 1.6683333 39
-0.55129528 0.51587534 1.4503663 39
-0.96003127 0.89836717 2.0036924 42
-1.1788367 1.1031252 2.0089054 61
-0.090430811 0.086791657 2.0010643 89
-0.15852995 0.1537226 2.0132346 93
-0.3755011 0.3529503 2.0202737 95
-0.49498555 0.4649567 1.900985 39
-0.49819073 0.46764743 1.4760261 27
-0.89493728 0.84009039 2.0779295 34
-0.95564401 0.89708143 1.8097541 40
-1.3083993 1.2282284 2.0237315 13
-0.86570096 0.8083992 1.2437612 11
-1.743498 1.6281079 2.0051763 52
-2.1771989 2.0338185 2.0379696 45
-2.7431417 2.5624962 2.0506845 39
-3.6011794 3.3652074 2.0796847 13
-5.0012126 4.675138 2.1009643 24
-7.9269896 7.4101591 2.1516299 6
-9.606307 8.9831305 1.2713716 7
-1.5671827 1.4675627 1.9927584 98
-1.9606198 1.8366346 2.0396991 27
-2.4365988 2.2825191 2.0467708 39
-3.1303635 2.9334402 2.0706356 14
-4.1968384 3.9342029 2.090132 19
-6.1303926 5.7487688 2.1176901 13
-9.5963659 9.0021305 1.9250411 26
-9.5993166 9.008049 0.62469935 22
-0.022571228 0.021883406 2.009197 14
-0.22941908 0.21760775 2.0107021 97
-0.30166939 0.28482631 2.0180943 95
-0.44754529 0.42200851 2.0125027 84
-0.49833384 0.46974546 1.6729357 40
-0.55123472 0.51943958 1.4547548 38
-0.95893764 0.90364289 2.0078254 55
-1.1726458 1.1050347 2.0050688 61
-0.090127304 0.087106787 2.0010643 89
-0.15799241 0.15427504 2.0132346 91
-0.37426677 0.35425889 2.0202737 95
-0.49586678 0.46905351 1.9103705 39
-0.49972036 0.4723756 1.4850277 27
-0.89389455 0.84500074 2.0821953 34
-0.95250684 0.90041178 1.8097541 40
-1.3041042 1.2327881 2.0237315 13
nan nan nan 0
-1.7491477 1.6448512 2.0177276 58
-2.1700861 2.0414059 2.0379696 46
-2.7341802 2.5720558 2.0506845 38
-3.5894108 3.3777573 2.0796847 18
-4.9743834 4.6827025 2.0967369 26
-7.8796144 7.4175825 2.1460345 7
-9.611146 9.0507488 1.2758337 32
-1.5756346 1.4858344 2.0093827 96
-1.9541968 1.8434674 2.0396991 25
-2.4286165 2.2910104 2.0467708 40
nan nan nan 0
-4.179646 3.9455872 2.0884893 17
-6.1138215 5.7734694 2.1188624 12
-9.6044836 9.0729818 1.9326291 23
-9.6295433 9.0998363 0.62812537 48
-0.02246391 0.021931149 2.0041974 12
-0.22865808 0.21840726 2.0107021 97
-0.30067331 0.28587759 2.0180943 93
-0.44606948 0.42356819 2.0125027 86
-0.498108 0.4728272 1.6775383 40
-0.54941821 0.52136058 1.4547548 38
-0.95577753 0.90698463 2.0078254 62
-1.1687814 1.1091212 2.0050688 66
-0.089822695 0.087420866 2.0010643 89
-0.15745294 0.1548256 2.0132346 89
-0.37302789 0.35556316 2.0202737 95
-0.49547592 0.47197181 1.9150633 39
-0.49964574 0.47561857 1.4895285 28
-0.89093953 0.84811586 2.0821953 35
-0.94935799 0.90373111 1.8097541 42
-1.267872 1.2069454 1.9759542 13
nan nan nan 0
-1.7490489 1.6563005 2.0240033 58
-2.1629472 2.0489686 2.0379696 40
-2.7219689 2.5785375 2.0483663 45
-3.5708683 3.3838885 2.0759389 20
-4.9614887 4.7033381 2.098146 27
-7.8572392 7.448422 2.1469669 8
-9.6047897 9.1082306 1.2789571 54
-1.5758542 1.4964683 2.0160325 77
-1.94775 1.8502777 2.0396991 25
-2.4206045 2.299474 2.0467708 44
nan nan nan 0
-4.1624255 3.9568992 2.0868468 13
-6.0936313 5.7947755 2.1188624 11
-9.608634 9.1405849 1.9395273 29
-9.594101 9.1299496 0.62792385 45
-0.022387218 0.022009429 2.0041974 12
-0.22789432 0.21920408 2.0107021 98
-0.29967356 0.28692541 2.0180943 87
-0.44458818 0.42512265 2.0125027 86
-0.4992789 0.47726303 1.6867434 40
-0.54759496 0.52327526 1.4547548 37
-0.95464009 0.91225946 2.0119584 62
-1.1649027 1.1131943 2.0050688 66
-0.08951699 0.087733872 2.0010643 89
-0.15691154 0.15537426 2.0132346 91
-0.37178445 0.35686311 2.0202737 93
-0.49631605 0.47608772 1.9244488 39
-0.49955454 0.47886676 1.4940293 32
-0.88420826 0.84761107 2.0736635 35
-0.94619763 0.90703952 1.8097541 42
-1.2636511 1.2113638 1.9759542 13
-1.4301394 1.3637977 2.0217705 14
-1.7348047 1.654336 2.0145898 54
-2.1527562 2.0536199 2.035228 39
-2.7129514 2.5880229 2.0483663 41
-3.5556805 3.393132 2.0740657 13
-4.9485111 4.7239408 2.0995553 29
-7.8276381 7.4724112 2.1460345 7
-9.6161575 9.1829748 1.2843118 31
-1.5841156 1.5148647 2.0326567 75
-1.9412794 1.8570652 2.0396991 25
-2.4125633 2.3079095 2.0467708 39
-3.2109599 3.0727475 2.1419692 1
-4.1451764 3.9681389 2.0852039 12
-6.0768766 5.8193722 2.1200345 9
-9.6195812 9.2151785 1.9478049 20
-9.4828176 9.0873384 0.62349021 22
-0.022310253 0.02208744 2.0041974 10
-0.22712776 0.21999824 2.0107021 98
-0.29867017 0.28796971 2.0180943 89
-0.44310156 0.42667195 2.0125027 86
-0.49901736 0.48035786 1.6913459 40
-0.54403883 0.52352232 1.4503663 37
-0.95144987 0.91558623 2.0119584 66
-1.1563898 1.1128079 1.9973947 69
-0.08921019 0.088045813 2.0010643 88
-0.15636821 0.15592103 2.0132346 93
-0.37053654 0.35815871 2.0202737 93
-0.49589232 0.47901627 1.9291415 39
-0.49944675 0.48212016 1.4985301 36
-0.86998582 0.8398242 2.0480678 34
-0.94302571 0.91033685 1.8097541 42
nan nan nan 0
-1.4356592 1.378662 2.0357888 16
-1.7262117 1.6576849 2.011452 54
-2.1425591 2.0582249 2.0324864 36
-2.7007065 2.5944083 2.0460486 35
-3.5371294 3.3990986 2.0703199 12
-4.9389086 4.7478352 2.1023736 21
-7.801507 7.4996891 2.1460345 7
-9.5840445 9.216486 1.2843118 25
-1.576128 1.5177946 2.0293317 71
-1.9376963 1.8666345 2.0426424 25
-2.4044924 2.3163166 2.0467708 37
-3.1413896 3.0272496 2.1042042 2
-4.1279001 3.9793065 2.0835612 13
-6.046031 5.8304272 2.1165175 8
-9.6336899 9.2933979 1.9567727 7
-9.4222794 9.0926304 0.62187797 10
-0.022233021 0.022165183 2.0041974 10
-0.22635844 0.22078973 2.0107021 99
-0.29766318 0.28901052 2.0180943 93
-0.4416095 0.42821607 2.0125027 80
-0.49874032 0.48345667 1.6959485 40
-0.54220802 0.52541816 1.4503663 37
-0.94824809 0.91890186 2.0119584 48
-1.1617074 1.1257617 2.0127425 55
-0.08890231 0.088356674 2.0010643 89
-0.15582301 0.15646592 2.0132346 95
-0.36928406 0.35944992 2.0202737 95
-0.49669114 0.48315093 1.9385271 39
-0.49932227 0.48537856 1.503031 38
-0.85956889 0.83558434 2.0310042 30
-0.9376812 0.91152233 1.8057648 37
-0.90025908 0.87514716 1.4393802 11
-1.4205836 1.3737485 2.0217705 16
-1.714818 1.6582881 2.0051763 48
-2.1353617 2.0656917 2.0324864 36
-2.6916337 2.6038198 2.0460486 33
-3.5252428 3.4114246 2.0703199 12
-4.9154119 4.7583723 2.0995553 18
-7.7788105 7.5302925 2.1469669 11
-9.5983219 9.2949209 1.2901124 52
-1.5627781 1.515488 2.0193572 73
-1.9253664 1.8677582 2.036756 23
-2.3963921 2.3246958 2.0467708 37
-3.1666305 3.072964 2.1272829 3
-4.1207619 4.0002704 2.0868468 15
-6.029129 5.8548832 2.1176901 14
-9.6260567 9.3511229 1.9616014 4
-9.3976479 9.1324272 0.62228096 6
-0.022155512 0.022242658 2.0041974 8
-0.22558637 0.22157854 2.0107021 99
-0.29665253 0.29004776 2.0180943 93
-0.44011202 0.42975497 2.0125027 80
-0.49984562 0.48792407 1.7051535 40
-0.54037076 0.52730763 1.4503663 37
-0.94704872 0.92417163 2.0160913 42
-1.1531817 1.1253319 2.0050688 47
-0.088593349 0.088666469 2.0010643 89
-0.15527588 0.15700889 2.0132346 95
-0.36802709 0.36073679 2.0202737 96
-0.49623433 0.48608938 1.9432199 39
-0.49918112 0.48864201 1.5075319 39
-0.84546477 0.8276332 2.0054085 17
-0.93233985 0.91268146 1.8017752 35
-0.8971988 0.87828434 1.4393802 9
nan nan nan 0
-1.714597 1.6696959 2.011452 39
-2.1161573 2.0614617 2.0215206 35
-2.6857014 2.6162906 2.0483663 29
-3.5133133 3.4237092 2.0703199 14
-4.8987718 4.7755013 2.0995553 16
-7.7454424 7.5505414 2.1451018 10
-9.5515575 9.3144627 1.2883276 52
-1.5494632 1.5131066 2.0093827 73
-1.9390745 1.8942392 2.0573583 16
-2.385179 2.330034 2.0442383 27
-3.1753607 3.1030316 2.1398711 2
-4.1067729 4.0146298 2.0868468 17
-6.0051799 5.8724947 2.1165175 10
nan nan nan 0
-9.3871365 9.186142 0.62349021 6
-0.022077737 0.022319857 2.0041974 8
-0.22481152 0.22236463 2.0107021 98
-0.29563823 0.29108155 2.0180943 95
-0.43860921 0.4312886 2.0125027 84
-0.49953264 0.49103543 1.709756 40
-0.53681803 0.52751148 1.4459776 37
-0.94180989 0.92549938 2.0119584 31
-1.1561064 1.1360915 2.0165794 36
-0.088283308 0.088975176 2.0010643 89
-0.15472686 0.15754995 2.0132346 95
