# .PCD v0.7 - Point Cloud Data file format
VERSION 0.7
FIELDS x y z intensity
SIZE 4 4 4 4
TYPE F F F F
COUNT 1 1 1 1
WIDTH 1412
HEIGHT 1
VIEWPOINT 0 0 0 1 0 0 0
POINTS 1412
DATA ascii
0.048022214 1.0701822 2.0296695 85
0.059828799 1.3331658 2.0326231 79
0.073535226 1.6384765 2.0396011 78
0.0071841376 0.12484553 1.9960728 88
0.013751041 0.21932359 2.0032918 93
0.024188267 0.51351243 2.0154345 95
0.033669744 0.71974272 2.0136113 93
0.04392447 0.94577754 2.020627 93
0.055621054 1.1974833 2.0310042 87
0.068792164 1.4809273 2.0371556 84
0.084220104 1.8129481 2.0457823 86
0.087629184 1.9992127 2.0463023 67
0.10702103 2.4415298 2.052243 56
0.1385294 3.1477561 2.1503696 7
0.17381114 3.9493628 2.1549957 3
0.22206867 5.0258908 2.1208916 8
0.1177934 2.6554356 0.87073666 32
0.119294 2.6892629 0.60254794 101
0.43271014 9.7161961 0.96437925 77
0.10005415 2.2120013 2.0526056 73
0.12387896 2.7281463 2.0720739 16
0.15966436 3.5161474 2.1531327 5
0.20279311 4.4487839 2.1461654 5
0.26403329 5.7700877 2.0983455 52
0.12200399 2.6561093 0.73201072 19
0.45185596 9.7997437 1.4587256 4
0.15936536 3.4432528 0.23272175 63
0.001958339 0.031289455 1.9991974 75
0.016228598 0.31423324 2.0008237 97
0.020448066 0.41438183 2.0180943 95
0.029918671 0.61440444 2.0125027 86
0.040493239 0.83428323 2.0273302 95
0.051757555 1.0700079 2.0296695 83
0.064618044 1.3357595 2.0367558 79
0.07940907 1.641412 2.0434382 76
0.0076198862 0.12481969 1.9960728 88
0.01451654 0.21927424 2.0032918 91
0.025980612 0.51342487 2.0154345 95
0.036181912 0.71962076 2.0136113 93
0.047334243 0.94779348 2.0251279 92
0.059800707 1.197282 2.0310042 83
0.073961146 1.4806783 2.0371556 84
0.090547957 1.8126431 2.0457823 85
0.094607204 1.9988948 2.0463023 67
0.11572696 2.4450297 2.0553811 39
0.14951628 3.1472535 2.1503696 7
0.18759593 3.9487319 2.1549957 4
0.23563641 4.9417329 2.087177 8
0.1272912 2.6598001 0.87214589 8
0.12868053 2.6888299 0.60254794 95
0.46662334 9.7146263 0.96437925 74
0.10795665 2.2153687 2.0559306 69
0.13557318 2.7721062 2.1044486 11
0.17193705 3.5155687 2.1531327 6
0.21743104 4.4299164 2.137773 8
0.28440538 5.7738476 2.0999882 50
0.13103482 2.6508124 0.73083836 25
0.48409778 9.7585382 1.453207 6
0.17361923 3.4875829 0.23453552 41
0.0020675475 0.031282429 1.9991974 75
0.017325377 0.31417468 2.0008237 97
0.021894405 0.41430792 2.0180943 95
0.03206316 0.61429626 2.0125027 86
0.043405186 0.83413684 2.0273302 95
0.055492267 1.0698209 2.0296695 85
0.069280319 1.3355259 2.0367558 79
0.085138187 1.641125 2.0434382 76
0.0080555417 0.12479234 1.9960728 88
0.015319663 0.21975482 2.0082631 89
0.027772641 0.51333106 2.0154345 96
0.038693637 0.71949011 2.0136113 93
0.050642375 0.94762254 2.0251279 93
0.063979641 1.1970658 2.0310042 85
0.079129234 1.4804111 2.0371556 84
0.096874714 1.8123159 2.0457823 83
0.10176513 2.0021143 2.0498068 67
0.12445863 2.4484987 2.0585186 17
0.16028833 3.1425366 2.1476281 7
0.20115277 3.9436288 2.1526778 5
0.25098911 4.903842 2.0721927 37
nan nan nan 0
0.13806553 2.6883645 0.60254794 93
0.50078714 9.7179117 0.96482545 68
0.11568907 2.2149782 2.0559306 60
0.14842193 2.8321633 2.148596 8
0.18398198 3.5106418 2.1506002 7
0.23384629 4.4472599 2.1461654 12
0.30406052 5.7633877 2.0967026 40
0.13977323 2.6406312 0.72849375 27
0.51920903 9.7765694 1.4559664 6
0.18818447 3.5318553 0.23634928 35
0.002173095 0.031231539 1.9941976 75
0.018421946 0.31411228 2.0008237 97
0.023340477 0.41422898 2.0180943 95
0.034207258 0.61418062 2.0125027 86
0.046316601 0.83398014 2.0273302 95
0.059226297 1.0696206 2.0296695 83
0.073941752 1.3352759 2.0367558 81
0.09086626 1.6408178 2.0434382 76
0.0084910998 0.12476345 1.9960728 89
0.016086657 0.21969999 2.0082631 89
0.029564334 0.51323098 2.0154345 97
0.041204888 0.71935064 2.0136113 93
0.053949881 0.94743997 2.0251279 93
0.068157785 1.1968352 2.0310042 85
0.084296338 1.4801258 2.0371556 87
0.10320028 1.8119669 2.0457823 85
0.10875319 2.0017467 2.0498068 67
0.13342711 2.4558234 2.0647943 16
0.17148446 3.1461332 2.1503696 6
0.21443513 3.9340553 2.1480415 7
0.26785207 4.8983068 2.0703199 40
0.37499788 6.8358188 2.1009643 28
0.14771789 2.692771 0.60348058 105
0.534706 9.7161045 0.96482545 38
0.12362788 2.2182896 2.0592554 40
0.15830714 2.8316278 2.148596 8
0.1962353 3.5099778 2.1506002 8
0.24047388 4.2878175 2.0727334 6
0.32417664 5.7622914 2.0967026 39
nan nan nan 0
0.55333245 9.7746973 1.4559664 6
0.20051181 3.531177 0.23634928 35
0.0022821003 0.031223763 1.9941976 75
0.019518292 0.31404606 2.0008237 96
0.024786264 0.41414496 2.0180943 95
0.036350939 0.61405748 2.0125027 88
0.049227454 0.83381343 2.0273302 95
0.062818788 1.0670159 2.025281 83
0.078602284 1.3350096 2.0367558 75
0.096593231 1.6404905 2.0434382 76
0.0089265527 0.12473305 1.9960728 89
0.016853455 0.21964251 2.0082631 89
0.031432454 0.51438016 2.0202737 97
0.043715641 0.7192024 2.0136113 93
0.057256736 0.94724584 2.0251279 92
0.072335109 1.1965899 2.0310042 85
0.089462429 1.4798225 2.0371556 85
0.10952459 1.8115956 2.0457823 83
0.11573992 2.0013549 2.0498068 64
0.14447115 2.4980929 2.0993097 14
0.18222331 3.141341 2.1476281 6
0.22816624 3.9332829 2.1480415 7
0.28494874 4.8973417 2.0703199 40
0.39885709 6.8344684 2.1009643 27
0.1571165 2.6922388 0.60348058 99
0.56890929 9.7191505 0.96527165 39
0.13137038 2.2178442 2.0592554 18
0.16795067 2.8270233 2.1456528 9
0.20848621 3.5092716 2.1506002 7
0.2554397 4.2869515 2.0727334 5
0.34400713 5.7564101 2.0950599 38
nan nan nan 0
0.58685482 9.7628212 1.4545867 6
0.21103284 3.5005343 0.23514012 37
0.0023910776 0.031215608 1.9941976 75
0.020614397 0.31397602 2.0008237 95
0.026231747 0.41405591 2.0180943 95
0.038494177 0.61392683 2.0125027 88
0.052137706 0.83363652 2.0273302 95
0.066542983 1.06679 2.025281 83
0.083261862 1.334727 2.0367558 77
0.10231902 1.6401433 2.0434382 76
0.0093618985 0.12470113 1.9960728 89
0.017620048 0.21958235 2.0082631 91
0.033227783 0.51426733 2.0202737 96
0.046225861 0.71904546 2.0136113 93
0.060423873 0.94486696 2.020627 93
0.076678023 1.1989329 2.03527 87
0.094627433 1.4795014 2.0371556 84
0.11584757 1.8112022 2.0457823 83
0.12272526 2.0009387 2.0498068 56
0.15628856 2.5480857 2.140101 9
0.19318751 3.1406858 2.1476281 7
0.24216656 3.9368844 2.1503596 7
0.30204189 4.896318 2.0703199 39
0.4227114 6.833034 2.1009643 27
0.16681653 2.6965768 0.60441321 67
0.60314029 9.7220755 0.96571779 89
0.14004664 2.2322803 2.0725548 18
0.17756402 2.8223858 2.1427097 9
0.22073458 3.5085225 2.1506002 7
0.27011669 4.2815046 2.0706356 36
0.36409861 5.7551746 2.0950599 37
nan nan nan 0
nan nan nan 0
0.22325069 3.4997761 0.23514012 34
0.002500026 0.03120707 1.9941976 75
0.021710252 0.31390214 2.0008237 95
0.027676914 0.41396183 2.0180943 95
0.040636949 0.61378872 2.0125027 86
0.055047326 0.83344948 2.0273302 95
0.070266373 1.0665513 2.025281 83
0.08792042 1.3344283 2.0367558 79
0.10804357 1.6397762 2.0434382 73
0.0097971288 0.1246677 1.9960728 89
0.018386425 0.2195195 2.0082631 93
0.03502271 0.51414824 2.0202737 96
0.048735514 0.7188797 2.0136113 93
0.063721709 0.94465017 2.020627 92
0.080862612 1.1986579 2.03527 87
0.099791281 1.479162 2.0371556 84
0.12216915 1.8107867 2.0457823 78
0.12947832 1.9969392 2.0463023 39
0.16518208 2.5475245 2.140101 9
0.20387807 3.1358197 2.1448867 7
0.2501587 3.8475976 2.1039991 14
0.3188298 4.8906074 2.0684466 9
0.44656059 6.8315172 2.1009643 27
0.17622831 2.6959779 0.60441321 67
0.63707298 9.7199106 0.96571779 88
0.14981261 2.2615874 2.0991535 17
0.18741488 2.8217487 2.1427097 9
0.23326598 3.5120325 2.1531327 7
0.28566337 4.2895927 2.0748315 66
0.3841857 5.7538686 2.0950599 37
nan nan nan 0
0.65665561 9.7831917 1.4580358 5
0.23647219 3.5139296 0.23574471 30
0.0026089437 0.031198155 1.9941976 75
0.022805842 0.31382447 2.0008237 97
0.02912174 0.41386274 2.0180943 95
0.042779226 0.61364311 2.0125027 86
0.05782067 0.8313033 2.0227277 95
0.0739889 1.0662994 2.025281 85
0.092577912 1.3341134 2.0367558 79
0.1137668 1.639389 2.0434382 73
0.010232242 0.12463274 1.9960728 89
0.019105488 0.21892214 2.0032918 93
0.036817208 0.51402283 2.0202737 96
0.051244576 0.71870518 2.0136113 93
0.067018762 0.94442201 2.020627 92
0.085046209 1.1983683 2.03527 87
0.10495391 1.4788046 2.0371556 87
0.12848923 1.8103493 2.0457823 68
0.13620499 1.9929172 2.0427978 28
0.17354272 2.539165 2.1338253 9
0.21482289 3.1350889 2.1448867 7
0.25783336 3.7627234 2.0599566 10
0.33589929 4.8894649 2.0684466 9
0.47040427 6.8299165 2.1009643 27
0.1846254 2.680645 0.60161537 89
0.67099798 9.7176275 0.96571779 61
0.15926519 2.2834024 2.1191025 11
0.19698152 2.817045 2.1397665 9
0.2452231 3.506896 2.1506002 8
0.30000037 4.2795148 2.0706356 58
0.40426812 5.752492 2.0950599 38
nan nan nan 0
0.68975461 9.7660189 1.4559664 2
0.24414964 3.448298 0.23312479 17
0.0027178298 0.031188857 1.9941976 71
0.023901155 0.31374294 2.0008237 97
0.030566212 0.41375855 2.0180943 95
0.044920973 0.61349005 2.0125027 88
0.060722109 0.83109641 2.0227277 95
0.077710532 1.0660348 2.025281 83
0.097234264 1.333782 2.0367558 77
0.11948863 1.6389821 2.0434382 76
0.010667228 0.12459626 1.9960728 88
0.019869553 0.2188541 2.0032918 93
0.038611256 0.51389116 2.0202737 96
0.053753011 0.71852201 2.0136113 93
0.070315003 0.9441824 2.020627 93
0.089035064 1.1954634 2.0310042 87
0.11011527 1.4784292 2.0371556 87
0.13455592 1.806509 2.0421071 49
0.14367193 1.9995438 2.0498068 26
0.18268399 2.5424263 2.1369631 10
0.22546467 3.1301491 2.1421452 7
0.27096614 3.7618008 2.0599566 10
0.35296464 4.8882623 2.0684466 9
0.49424228 6.8282332 2.1009643 28
nan nan nan 0
0.70455438 9.7102594 0.96527165 61
0.16914472 2.3089035 2.1423767 10
0.20681365 2.8163404 2.1397665 9
0.25714719 3.501719 2.1480677 9
0.31493682 4.2784414 2.0706356 58
0.42434561 5.7510467 2.0950599 38
nan nan nan 0
nan nan nan 0
0.2572957 3.4623716 0.23372939 14
0.0028266823 0.031179182 1.9941976 71
0.024996176 0.31365758 2.0008237 97
0.032010313 0.41364932 2.0180943 95
0.047062185 0.61332953 2.0125027 88
0.06362281 0.83087945 2.0227277 95
0.081613757 1.0681456 2.0296695 81
0.10188945 1.3334345 2.0367558 79
0.12520903 1.6385548 2.0434382 74
0.011102085 0.12455827 1.9960728 88
0.020633373 0.21878342 2.0032918 93
0.040404838 0.51375329 2.0202737 97
0.056260794 0.71832997 2.0136113 91
0.07361038 0.9439311 2.020627 92
0.093207464 1.1951452 2.0310042 83
0.11527527 1.4780358 2.0371556 89
0.14191552 1.8195478 2.0568078 17
0.1519908 2.0168109 2.0673294 19
0.19155759 2.5417733 2.1369631 10
0.23638953 3.1293428 2.1421452 7
0.28409562 3.7608318 2.0599566 40
0.37002572 4.8870006 2.0684466 9
0.51807421 6.8264666 2.1009643 32
nan nan nan 0
0.73844522 9.7077408 0.96527165 78
0.17748912 2.3120222 2.1457014 10
0.21664324 2.8156013 2.1397665 9
0.26374611 3.4277251 2.1050165 9
0.32952046 4.2727904 2.0685375 55
0.44441789 5.7495298 2.0950599 38
0.19899173 2.5685825 0.71208131 3
0.21812712 2.8092122 0.48470572 29
0.26395321 3.3917198 0.23090795 11
0.0029355008 0.031169124 1.9941976 75
0.026090892 0.31356844 2.0008237 96
0.033454023 0.41353509 2.0180943 95
0.049202815 0.6131615 2.0125027 86
0.06652274 0.83065224 2.0227277 95
0.085341789 1.0678543 2.0296695 81
0.10654338 1.3330706 2.0367558 81
0.13092789 1.6381078 2.0434382 62
0.011536808 0.12451876 1.9960728 89
0.021396946 0.21871006 2.0032918 93
0.042197924 0.51360911 2.0202737 96
0.058767889 0.71812916 2.0136113 93
0.0770818 0.94583905 2.0251279 92
0.097378731 1.1948127 2.0310042 85
0.12043387 1.4776245 2.0371556 87
0.14909233 1.8291782 2.0678334 16
0.1615537 2.048265 2.0988703 16
0.20042887 2.5410891 2.1369631 10
0.24731155 3.1284988 2.1421452 7
0.29757079 3.7642338 2.0622747 60
0.38708225 4.8856792 2.0684466 9
0.54189986 6.8246169 2.1009643 30
nan nan nan 0
0.77193195 9.700141 0.96482545 78
0.1855585 2.3113887 2.1457014 10
0.22614606 2.8107991 2.1368234 9
0.2719062 3.3795125 2.0771599 9
0.34443328 4.2716146 2.0685375 56
0.46448481 5.7479434 2.0950599 38
0.20795654 2.5678723 0.71208131 7
0.22873299 2.8183053 0.48608536 37
0.26364052 3.2413931 0.22486204 9
0.0030442835 0.031158689 1.9941976 75
0.027185295 0.31347543 2.0008237 96
0.034897327 0.41341579 2.0180943 95
0.051342849 0.61298597 2.0125027 86
0.06958463 0.83236182 2.0273302 95
0.089068763 1.0675498 2.0296695 83
0.11119601 1.3326906 2.0367558 79
0.13637854 1.634446 2.0396011 49
0.011971389 0.12447773 1.9960728 89
0.022160258 0.21863404 2.0032918 93
0.0439905 0.51345867 2.0202737 96
0.061274271 0.71791971 2.0136113 93
0.080382921 0.94556421 2.0251279 93
0.10154881 1.1944655 2.0310042 87
0.12559101 1.477195 2.0371556 87
0.15748696 1.8522924 2.0935595 16
0.17192368 2.0867851 2.1374204 10
0.2092977 2.5403738 2.1369631 9
0.2575424 3.119282 2.1366622 7
0.31070861 3.7631721 2.0622747 60
0.40413415 4.8842983 2.0684466 40
0.56532252 6.8179021 2.0995553 26
0.81792533 9.8643284 1.9707017 3
0.80537468 9.6924238 0.96437925 78
0.19362561 2.3107269 2.1457014 10
0.23595621 2.8099923 2.1368234 8
0.27973291 3.3312852 2.0493033 10
0.35896131 4.2658634 2.0664394 54
0.48454607 5.7462869 2.0950599 37
0.2193744 2.5961912 0.7191152 13
0.23564447 2.7829483 0.48125663 29
0.27199674 3.2056067 0.22345132 9
0.0031530294 0.031147871 1.9941976 75
0.02827936 0.31337863 2.0008237 97
0.036340207 0.41329145 2.0180943 93
0.053482257 0.61280304 2.0125027 86
0.072489694 0.83211386 2.0273302 95
0.092794672 1.0672325 2.0296695 83
0.1158473 1.3322943 2.0367558 79
0.142083 1.6339599 2.0396011 35
0.012405824 0.12443518 1.9960728 89
0.022923296 0.21855536 2.0032918 93
0.045782536 0.51330197 2.0202737 96
0.063779905 0.71770144 2.0136113 93
0.083683074 0.94527781 2.0251279 93
0.10571766 1.1941037 2.0310042 85
0.13074662 1.4767476 2.0371556 82
0.16544674 1.868616 2.1119354 15
0.17920688 2.0861721 2.1374204 10
0.218164 2.5396278 2.1369631 9
0.26914638 3.1266959 2.1421452 8
0.32384264 3.7620647 2.0622747 59
0.42118105 4.8828578 2.0684466 42
0.589118 6.8158875 2.0995553 7
0.84473914 9.7733202 1.9539145 3
0.84006208 9.6994762 0.96527165 80
0.20136556 2.3063169 2.1423767 11
0.24576345 2.8091516 2.1368234 8
0.29211104 3.3388782 2.054368 38
0.37384978 4.2645845 2.0664394 54
0.50460142 5.7445607 2.0950599 37
0.22715695 2.5808835 0.71559823 12
0.24013668 2.7229121 0.47297886 4
nan nan nan 0
0.0032617361 0.031136675 1.9941976 75
0.029373085 0.31327802 2.0008237 97
0.037782639 0.41316208 2.0180943 93
0.055621009 0.61261266 2.0125027 88
0.075393878 0.83185577 2.0273302 95
0.09651944 1.066902 2.0296695 81
0.12049716 1.3318819 2.0367558 81
0.14720795 1.6270683 2.0319271 11
0.012840108 0.12439112 1.9960728 89
0.023686057 0.218474 2.0032918 93
0.047574013 0.51313907 2.0202737 96
0.066284768 0.7174744 2.0136113 93
0.086982198 0.94497997 2.0251279 93
0.10988521 1.1937275 2.0310042 87
0.13617696 1.4792837 2.0411453 75
0.174144 1.8916584 2.1376615 14
0.18648787 2.0855339 2.1374204 10
0.22702761 2.5388508 2.1369631 10
0.2744616 3.0632665 2.1010232 9
0.33657733 3.7564991 2.0599566 59
0.43822283 4.8813581 2.0684466 42
0.61290628 6.8137894 2.0995553 7
0.88721091 9.8632708 1.9716343 5
0.87480849 9.7064047 0.96616405 84
0.20941487 2.3055999 2.1423767 12
0.25556773 2.8082767 2.1368234 7
0.30454564 3.3464255 2.059433 66
0.38873366 4.2632532 2.0664394 56
0.52465057 5.742764 2.0950599 38
0.23660761 2.5849154 0.71677059 12
0.24963996 2.7220571 0.47297886 2
nan nan nan 0
0.0033704038 0.031125098 1.9941976 75
0.030466449 0.31317359 2.0008237 97
0.039224613 0.41302767 2.0180943 95
0.057759091 0.61241478 2.0125027 84
0.078297138 0.83158749 2.0273302 93
0.10001884 1.0641735 2.025281 81
0.12514557 1.3314532 2.0367558 79
0.15498681 1.6488875 2.0587859 11
0.013274236 0.12434554 1.9960728 89
0.024448531 0.21839 2.0032918 93
0.049364913 0.51296985 2.0202737 97
0.068788812 0.71723866 2.0136113 93
0.090073034 0.94250274 2.020627 92
0.11405142 1.1933366 2.0310042 87
0.14133979 1.4787993 2.0411453 64
0.18171376 1.9011633 2.1486869 15
0.19409662 2.0884211 2.1409249 12
0.23588848 2.538043 2.1369631 9
0.28011271 3.0081656 2.0653841 10
0.34968793 3.7553012 2.0599566 59
0.45568991 4.8844142 2.0703199 43
0.6362406 6.8068318 2.098146 31
0.92849219 9.9334784 1.9856236 7
0.90868485 9.7032919 0.96616405 85
0.21746165 2.3048549 2.1423767 13
0.26536891 2.8073676 2.1368234 7
0.31581926 3.3410497 2.0569005 68
0.40318495 4.2573524 2.0643413 55
0.54469341 5.7408977 2.0950599 38
0.24470928 2.5743961 0.71442592 14
0.25914016 2.7211692 0.47297886 2
0.37909755 3.9734523 0.25468862 16
0.00347903 0.031113144 1.9941976 75
0.031559445 0.31306532 2.0008237 97
0.040666111 0.41288826 2.0180943 95
0.059896465 0.61220944 2.0125027 84
0.081009485 0.82936484 2.0227277 95
0.10373288 1.0638179 2.025281 83
0.12979244 1.3310082 2.0367558 81
0.16167507 1.6579087 2.0702968 11
0.013708203 0.12429844 1.9960728 89
0.025210705 0.21830332 2.0032918 93
0.051030286 0.5115428 2.0154345 97
0.071292028 0.71699417 2.0136113 93
0.093362443 0.9421826 2.020627 92
0.11821625 1.1929312 2.0310042 85
0.14650089 1.4782969 2.0411453 39
0.18768024 1.8937701 2.1413364 15
0.20138538 2.0877306 2.1409249 13
0.24474646 2.537204 2.1369631 8
0.28940475 2.9946833 2.0571599 17
0.36236811 3.7496483 2.0576386 50
0.47229019 4.8781796 2.0684466 41
0.65999705 6.8045692 2.098146 30
0.97549093 10.057299 2.0098717 18
0.94495839 9.7248449 0.96839511 22
0.22550577 2.3040814 2.1423767 14
0.27477238 2.8024011 2.1338801 8
0.32747975 3.3399267 2.0569005 68
0.4180434 4.255919 2.0643413 55
0.56472951 5.7389617 2.0950599 38
0.25369415 2.5735264 0.71442592 14
0.2681506 2.7153201 0.47228906 5
0.39690006 4.011878 0.25630087 48
0.0035821856 0.031101439 1.9941976 75
0.032597434 0.31295896 2.0008237 97
0.042035073 0.41275111 2.0180943 95
0.061926294 0.61200744 2.0125027 86
0.083759308 0.82909155 2.0227277 95
0.10726006 1.063468 2.025281 81
0.13420551 1.3305705 2.0367558 79
0.16878074 1.6733121 2.0894814 11
0.014098629 0.12425476 1.9960728 89
0.0258964 0.21822305 2.0032918 93
0.052637089 0.51137996 2.0154345 97
0.073544174 0.71676666 2.0136113 93
0.09648633 0.94186783 2.020627 90
0.12217151 1.1925327 2.0310042 85
0.15109509 1.4748045 2.0371556 23
0.19397372 1.8965437 2.1450119 14
0.20866166 2.0906 2.1444294 15
0.25315881 2.5363784 2.1369631 8
0.2976698 2.9770641 2.0461938 31
0.37480038 3.748426 2.0576386 50
0.48761305 4.8766713 2.0684466 42
0.68089283 6.7976894 2.0967369 30
1.006875 10.034458 2.0061414 19
nan nan nan 0
0.23314513 2.3033211 2.1423767 14
0.28243291 2.7853892 2.1221075 9
0.33797079 3.3388817 2.0569005 68
0.43141168 4.2545843 2.0643413 54
0.58132446 5.7230644 2.090132 37
0.26079375 2.5630455 0.71208131 14
0.28019485 2.7489507 0.47711775 13
0.41305402 4.0454021 0.25771156 8
0.0036964763 0.031131998 1.9991974 77
0.033689663 0.31284326 2.0008237 96
0.043475591 0.41260186 2.0180943 95
0.064062223 0.61178756 2.0125027 86
0.08665286 0.82879412 2.0227277 93
0.11097161 1.0630871 2.025281 83
0.13884926 1.3300939 2.0367558 71
0.17761663 1.7014101 2.1240139 11
0.014553951 0.12420226 1.9960728 89
0.026696052 0.21812667 2.0032918 93
0.054511037 0.51118362 2.0154345 96
0.076170757 0.7164923 2.0136113 93
0.099773467 0.94152522 2.020627 92
0.12633349 1.1920989 2.0310042 85
0.15655987 1.4772655 2.0411453 22
0.20056629 1.8924488 2.1413364 14
0.21595792 2.089859 2.1444294 15
0.26161072 2.5316072 2.1338253 8
0.30892095 2.9843254 2.0516768 46
0.38788256 3.7470949 2.0576386 60
0.50548369 4.8748517 2.0684466 39
0.70580304 6.7951479 2.0967369 30
nan nan nan 0
0.41639432 4.0020666 0.45346895 34
0.24118379 2.3024933 2.1423767 13
0.28709236 2.7361472 2.0867896 12
0.35020614 3.3376205 2.0569005 68
0.44700259 4.2529745 2.0643413 54
0.60130781 5.7115035 2.0868468 30
0.26967627 2.5572386 0.71090895 13
nan nan nan 0
nan nan nan 0
0.0038051247 0.031118903 1.9991974 77
0.034781486 0.31272376 2.0008237 96
0.044915572 0.4124476 2.0180943 95
0.066197373 0.61156017 2.0125027 86
0.089545377 0.82848662 2.0227277 91
0.1146818 1.0626934 2.025281 83
0.1434913 1.3296012 2.0367558 60
0.18355457 1.7007798 2.1240139 11
0.014987408 0.12415069 1.9960728 89
0.027457293 0.21803215 2.0032918 93
0.056432877 0.51224047 2.0202737 96
0.078671321 0.71622211 2.0136113 93
0.10305939 0.94117123 2.020627 93
0.13077784 1.1942431 2.03527 85
0.163028 1.4886941 2.0571032 21
0.20717095 1.8917371 2.1413364 14
0.22363056 2.0926385 2.147934 16
0.27003241 2.526808 2.1306875 8
0.3193363 2.9832287 2.0516768 64
0.40096003 3.745718 2.0576386 60
0.52249706 4.8730578 2.0684466 39
0.72900599 6.7878733 2.0953276 30
0.98982793 9.2164125 1.8513263 99
0.42716566 3.9708798 0.45079166 57
0.24921954 2.3016372 2.1423767 11
0.29184738 2.6909254 2.054415 15
0.36185449 3.3363779 2.0569005 67
0.46184558 4.2513885 2.0643413 54
0.62021935 5.6999793 2.0835612 4
0.27754778 2.5466175 0.70856434 10
0.34446362 3.1554794 0.53437245 81
nan nan nan 0
0.0039137267 0.031105433 1.9991974 77
0.03587288 0.31260043 2.0008237 96
0.046355009 0.41228828 2.0180943 95
0.068331718 0.61132538 2.0125027 86
0.092436776 0.82816899 2.0227277 93
0.11839058 1.0622866 2.025281 83
0.14813159 1.3290921 2.0367558 39
0.19055566 1.709687 2.1355245 11
0.015420685 0.12409763 1.9960728 89
0.0282182 0.217935 2.0032918 93
0.058220588 0.51204038 2.0202737 96
0.081365377 0.71765774 2.0183041 93
0.10658871 0.94296974 2.0251279 93
0.13494572 1.1937793 2.03527 83
0.16991641 1.5030903 2.0770507 20
0.21377307 1.8910024 2.1413364 14
0.23093386 2.0918453 2.147934 16
0.27885097 2.5258498 2.1306875 10
0.32974777 2.9820957 2.0516768 63
0.41403258 3.7442956 2.0576386 59
0.53950399 4.8712039 2.0684466 43
0.75269562 6.7852874 2.0953276 29
1.0236179 9.2275486 1.8541242 93
0.44102404 3.9693642 0.45079166 63
0.25725222 2.3007534 2.1423767 10
0.29943928 2.6738226 2.0426424 29
0.37349844 3.3350942 2.0569005 68
0.47668281 4.2497506 2.0643413 54
0.63853049 5.6837015 2.0786333 4
0.28589195 2.540803 0.70739204 8
0.35658541 3.1640999 0.53575212 76
0.44657314 3.9563801 0.25428554 2
0.0040222807 0.031091582 1.9991974 77
0.036963843 0.31247333 2.0008237 95
0.047793884 0.41212398 2.0180943 95
0.070465222 0.61108315 2.0125027 86
0.095327072 0.82784128 2.0227277 93
0.12209793 1.0618668 2.025281 83
0.15309158 1.3313626 2.040889 21
0.19615617 1.7058266 2.1316879 11
0.015853772 0.12404304 1.9960728 89
0.028978765 0.21783516 2.0032918 91
0.060007583 0.51183403 2.0202737 96
0.083869971 0.71736938 2.0183041 93
0.11004415 0.94257271 2.0251279 93
0.13932022 1.1932768 2.03527 83
0.17717211 1.5174254 2.0969982 19
0.22070251 1.8902062 2.1413364 14
0.23823437 2.0910263 2.147934 16
0.28678477 2.5171254 2.1244118 10
0.34015524 2.9809268 2.0516768 63
0.42659777 3.7384257 2.0553207 59
0.55650443 4.8692913 2.0684466 43
0.77583051 6.7778521 2.0939183 29
1.0557532 9.209094 1.8513263 21
0.45670566 3.9776165 0.45168412 40
0.26568317 2.2997949 2.1423767 10
0.31063104 2.6847529 2.0514717 39
0.38571966 3.333703 2.0569005 68
0.49225575 4.2479749 2.0643413 54
0.65935802 5.6813231 2.0786333 5
0.29520252 2.5397379 0.70739204 6
0.36476919 3.1382406 0.53230304 13
0.46095845 3.9597595 0.25448707 2
0.0041298512 0.031033462 1.9941976 75
0.038108867 0.31233573 2.0008237 95
0.049304072 0.41194603 2.0180943 95
0.072704472 0.61082077 2.0125027 86
0.09836062 0.82748634 2.0227277 93
0.12598905 1.0614121 2.025281 85
0.15797025 1.3307925 2.040889 21
0.20278494 1.7082796 2.1355245 12
0.016346553 0.12427112 2.0010643 89
0.029776976 0.21772748 2.0032918 91
0.061883148 0.51161069 2.0202737 96
0.086498708 0.71705717 2.0183041 93
0.11349811 0.94216311 2.0251279 93
0.14369287 1.1927581 2.03527 75
0.18417466 1.5287352 2.112956 19
0.22803451 1.8927505 2.1450119 14
0.24548006 2.0865972 2.1444294 16
0.29191485 2.4812615 2.0961719 13
0.3510786 2.9796598 2.0516768 64
0.44029695 3.7368371 2.0553207 58
0.57434744 4.867219 2.0684466 43
0.80066741 6.7749629 2.0939183 30
nan nan nan 0
0.47303993 3.9907525 0.45302272 3
0.27366841 2.2950978 2.1390519 10
0.31951049 2.6755693 2.0455854 62
0.39793569 3.3322666 2.0569005 67
0.5078221 4.2461424 2.0643413 54
0.67961508 5.6741786 2.0769906 4
0.30393028 2.533813 0.70621967 4
nan nan nan 0
nan nan nan 0
0.0042381533 0.031018857 1.9941976 75
0.03919889 0.31220081 2.0008237 95
0.050741728 0.41177142 2.0180943 95
0.074836202 0.61056328 2.0125027 88
0.10124848 0.82713795 2.0227277 93
0.1296933 1.0609659 2.025281 85
0.16295609 1.3330263 2.0450218 23
0.20874672 1.7075614 2.1355245 13
0.01678024 0.12421332 2.0010643 89
0.030536804 0.21762221 2.0032918 89
0.063668624 0.51139152 2.0202737 96
0.089001171 0.7167508 2.0183041 93
0.11662181 0.94178146 2.0251279 93
0.14764743 1.192275 2.03527 66
0.19146575 1.5460626 2.136893 25
0.23430984 1.8919839 2.1450119 15
0.25276214 2.0857277 2.1444294 15
0.29776418 2.4570401 2.0773454 15
0.3614774 2.9784164 2.0516768 63
0.45333827 3.7352774 2.0553207 58
0.59077436 4.8605819 2.0665736 44
0.82431155 6.7721267 2.0939183 32
0.31516969 2.5892882 0.58669341 2
0.4832581 3.9644439 0.45079166 2
0.28127772 2.2941778 2.1390519 11
0.32838121 2.674495 2.0455854 71
0.40898368 3.3309288 2.0569005 67
0.5219 4.2444348 2.0643413 54
0.69842756 5.6718941 2.0769906 5
0.3129259 2.5376153 0.70739204 3
nan nan nan 0
1.199342 9.6979141 0.48785985 78
0.0043464033 0.031003874 1.9941976 75
0.040288433 0.31206208 2.0008237 96
0.052178774 0.4115918 2.0180943 95
0.076967001 0.61029828 2.0125027 86
0.10413512 0.82677948 2.0227277 93
0.13339597 1.0605067 2.025281 83
0.16795945 1.3352414 2.0491548 23
0.2151061 1.7100033 2.1393616 13
0.017213725 0.12415398 2.0010643 89
0.031296261 0.21751429 2.0032918 89
0.065453328 0.51116616 2.0202737 96
0.091502555 0.71643585 2.0183041 93
0.11963332 0.93920839 2.020627 92
0.15180834 1.1917523 2.03527 50
0.19648044 1.5423949 2.1329036 29
0.24091266 1.8911545 2.1450119 15
0.26004118 2.0848324 2.1444294 14
0.30248436 2.4250822 2.052243 17
0.37187183 2.9771364 2.0516768 63
0.46637404 3.7336724 2.0553207 59
0.60773736 4.85849 2.0665736 46
0.84794569 6.7692084 2.0939183 32
nan nan nan 0
0.4952341 3.9479094 0.44945306 2
0.28975156 2.2968869 2.1423767 11
0.33720839 2.6693225 2.0426424 71
0.42060831 3.3294809 2.0569005 67
0.53671265 4.2425871 2.0643413 54
0.7182219 5.6694212 2.0769906 6
0.31872332 2.5123975 0.70153046 2
nan nan nan 0
1.2338172 9.6986246 0.4880614 83
0.0044491924 0.030989291 1.9941976 75
0.041323047 0.31192672 2.0008237 96
0.053543374 0.41141647 2.0180943 95
0.0789904 0.61003971 2.0125027 88
0.10687624 0.82642961 2.0227277 93
0.136912 1.0600586 2.025281 83
0.17454925 1.3514221 2.0739524 23
0.22077549 1.7092805 2.1393616 14
0.017603679 0.12409929 2.0010643 89
0.031979449 0.2174149 2.0032918 91
0.066895135 0.50971085 2.0154345 96
0.0935288 0.71443373 2.0136113 93
0.12274718 0.93880653 2.020627 90
0.15575948 1.1912425 2.03527 34
0.20159411 1.5417349 2.1329036 31
0.2468527 1.8903883 2.1450119 15
0.26650012 2.0804214 2.1409249 13
0.30805132 2.4047594 2.0365543 30
0.3817423 2.9758868 2.0516768 63
0.47875276 3.732105 2.0553207 60
0.6229977 4.8565569 2.0665736 46
0.8692075 6.766511 2.0939183 32
1.1907719 9.256999 1.8634504 10
0.50832313 3.9462452 0.44945306 2
0.29544804 2.2810996 2.1290772 12
0.34605831 2.6681895 2.0426424 69
0.43106607 3.3281434 2.0569005 68
0.55003846 4.24088 2.0643413 54
0.73602933 5.6671367 2.0769906 8
0.33351022 2.5644045 0.71442592 2
1.2700948 9.7525616 1.4621748 2
1.2642802 9.6947002 0.4880614 91
0.0045573381 0.030973572 1.9941976 75
0.042411625 0.3117806 2.0008237 96
0.05497916 0.41122711 2.0180943 95
0.081119359 0.60976028 2.0125027 88
0.10976037 0.82605153 2.0227277 93
0.14061147 1.0595741 2.025281 83
0.18074644 1.3619627 2.0904844 23
0.22716242 1.7116774 2.1431985 14
0.018058406 0.12403394 2.0010643 89
0.032776099 0.21729621 2.0032918 93
0.068762861 0.5094623 2.0154345 96
0.096146695 0.71408612 2.0136113 91
0.1260235 0.93837231 2.020627 90
0.16026394 1.1932763 2.039536 34
0.20697457 1.5410218 2.1329036 29
0.25377968 1.8894708 2.1450119 16
0.27376053 2.0794785 2.1409249 13
0.31796795 2.4152479 2.0459676 38
0.39212778 2.9745362 2.0516768 64
0.49177736 3.7304113 2.0553207 58
0.64079368 4.8542409 2.0665736 5
0.89400226 6.7632799 2.0939183 32
1.2237215 9.2576561 1.864383 7
nan nan nan 0
0.29897535 2.2467387 2.0991535 13
0.35483602 2.6629586 2.0396991 67
0.44269201 3.3222673 2.054368 68
0.5655784 4.2388353 2.0643413 54
0.75617009 5.6597204 2.0753479 10
0.34484056 2.5776176 0.71794283 2
1.3084612 9.7674732 1.4649339 3
1.304454 9.7246628 0.48947209 98
0.0046654283 0.030957475 1.9941976 77
0.043499686 0.31163067 2.0008237 95
0.056414273 0.41103265 2.0180943 95
0.083247319 0.60947341 2.0125027 88
0.11264315 0.82566339 2.0227277 95
0.14430922 1.0590768 2.025281 79
0.18815921 1.3808414 2.119415 27
0.23313591 1.7108741 2.1431985 15
0.018491257 0.12397014 2.0010643 89
0.033534404 0.21718049 2.0032918 91
0.070540793 0.50921917 2.0154345 97
0.098638736 0.71374619 2.0136113 93
0.1295957 0.94008404 2.0251279 92
0.16442828 1.1927096 2.039536 35
0.21235248 1.5402899 2.1329036 24
0.26037359 1.8885734 2.1450119 15
0.28053978 2.0749762 2.1374204 13
0.32587525 2.4102657 2.0428298 54
0.40250844 2.9731491 2.0516768 63
0.50479591 3.728672 2.0553207 58
0.65773427 4.8519745 2.0665736 5
0.91760504 6.760118 2.0939183 35
0.31516099 2.3218453 0.53633195 2
1.321924 9.7260437 0.97241104 15
0.30327746 2.2197819 2.0758798 13
0.3641293 2.6617038 2.0396991 67
0.45428616 3.3207018 2.054368 67
0.5803712 4.2368355 2.0643413 54
0.77592158 5.6570458 2.0753479 11
1.148109 8.3597212 2.1258962 3
1.3459213 9.7873774 1.4683831 4
1.33771 9.7151012 0.4892706 101
0.0047734613 0.030941002 1.9941976 75
0.044697497 0.31224605 2.0057628 95
0.057848699 0.41083324 2.0180943 96
0.085374273 0.60917914 2.0125027 88
0.11579545 0.82719988 2.0273302 95
0.14833696 1.0609393 2.0296695 69
0.19375746 1.3857501 2.1276808 28
0.23910655 1.71005 2.1431985 15
0.018923881 0.12390484 2.0010643 89
0.034376286 0.21758938 2.0082631 91
0.072494887 0.5102151 2.0202737 97
0.10112958 0.71339744 2.0136113 93
0.13287643 0.93962598 2.0251279 93
0.16895582 1.1947106 2.0438018 35
0.2177278 1.5395393 2.1329036 24
0.26696438 1.8876531 2.1450119 15
0.28729093 2.0704517 2.1339159 13
0.33428666 2.4091136 2.0428298 67
0.41288424 2.9717262 2.0516768 63
0.51780832 3.7268872 2.0553207 58
0.67466682 4.849649 2.0665736 26
0.94119668 6.7568736 2.0939183 38
0.32123077 2.3061357 0.53353411 39
1.3579297 9.736167 0.97374958 77
0.30791354 2.1965206 2.0559306 15
0.37341821 2.6604164 2.0396991 69
0.46587482 3.3190958 2.054368 67
0.59515697 4.2347836 2.0643413 55
0.79500568 5.6496272 2.0737052 12
1.1772827 8.3556633 2.1258962 2
1.3800775 9.7826195 1.4683831 3
1.3723125 9.7153187 0.48947209 86
0.004888841 0.03096715 1.9991974 75
0.045787167 0.31208813 2.0057628 97
0.059282426 0.41062883 2.0180943 95
0.087500185 0.60887736 2.0125027 86
0.11868221 0.82679063 2.0273302 95
0.15203941 1.0604149 2.0296695 62
0.19819403 1.3822795 2.1235478 29
0.24507429 1.7092048 2.1431985 15
0.019356273 0.12383803 2.0010643 89
0.035135604 0.21746807 2.0082631 93
0.074275434 0.50995898 2.0202737 96
0.10361919 0.71304017 2.0136113 95
0.13615552 0.93915635 2.0251279 93
0.17462206 1.2044379 2.0608659 34
0.22310047 1.53877 2.1329036 24
0.27355188 1.8867097 2.1450119 15
0.29401392 2.0659058 2.1304114 14
0.34214547 2.4040778 2.0396919 67
0.42325497 2.9702666 2.0516768 63
0.53081447 3.7250569 2.0553207 58
0.69159114 4.8472643 2.0665736 53
0.96477681 6.7535472 2.0939183 35
0.32997337 2.3098631 0.53446668 66
1.3933173 9.7412271 0.97464204 77
0.3129223 2.1769507 2.0393064 25
0.38270247 2.6590967 2.0396991 69
0.47745776 3.3174496 2.054368 67
0.60993558 4.2326808 2.0643413 56
0.8147217 5.6468177 2.0737052 13
1.1987978 8.298584 2.1130006 10
1.4170523 9.7973461 1.4711423 3
1.4069331 9.7154131 0.48967364 84
0.0049969065 0.030949896 1.9991974 75
0.046876278 0.31192639 2.0057628 97
0.060715422 0.41041937 2.0180943 95
0.089625023 0.60856819 2.0125027 88
0.12156752 0.82637131 2.0273302 95
0.15574004 1.0598779 2.0296695 39
0.20301788 1.3815794 2.1235478 23
0.25103903 1.708339 2.1431985 15
0.019788433 0.12376971 2.0010643 89
0.035894498 0.21734411 2.0082631 91
0.076055065 0.5096966 2.0202737 96
0.10610753 0.71267414 2.0136113 93
0.13943294 0.93867546 2.0251279 93
0.18112469 1.2192993 2.0864613 28
0.2284704 1.5379817 2.1329036 24
0.28013605 1.8857433 2.1450119 15
0.30122349 2.064867 2.1304114 14
0.35053515 2.4028687 2.0396919 69
0.43362054 2.9687712 2.0516768 59
0.543814 3.7231812 2.0553207 58
0.708507 4.844821 2.0665736 53
0.98765016 6.7453918 2.0925093 35
0.33732265 2.3038368 0.53353411 84
1.427312 9.7363043 0.97464204 76
0.32106355 2.1795392 2.0426311 37
0.39198214 2.6577446 2.0396991 69
0.48903495 3.3157623 2.054368 67
0.62470663 4.2305255 2.0643413 55
0.83442777 5.6439395 2.0737052 14
1.2270461 8.2895403 2.1118283 8
1.4534209 9.8070364 1.4732118 3
1.4408377 9.7104445 0.48967364 83
0.0051103104 0.030931372 1.9991974 75
0.048019238 0.3117525 2.0057628 96
0.062219273 0.4101941 2.0180943 95
0.091854945 0.60823566 2.0125027 84
0.12459551 0.82592022 2.0273302 95
0.15962364 1.0592999 2.0296695 35
0.20808026 1.380826 2.1235478 23
0.25729871 1.7074074 2.1431985 14
0.020241939 0.12369636 2.0010643 88
0.036601268 0.21668473 2.0032918 91
0.077922694 0.50941443 2.0202737 97
0.10871889 0.71228045 2.0136113 93
0.14303616 0.93813306 2.0251279 92
0.18973653 1.2443769 2.1291206 22
0.23437412 1.5370932 2.1329036 25
0.28788573 1.8880051 2.1486869 15
0.30351216 2.0284791 2.095366 21
0.35933974 2.4015679 2.0396919 69
0.44449875 2.9671619 2.0516768 59
0.55680025 3.7167819 2.0530026 58
0.72625941 4.8421912 2.0665736 52
1.0123667 6.7417264 2.0925093 36
0.34616622 2.3025246 0.53353411 95
1.4654274 9.7356768 0.97508824 79
0.32943001 2.1782906 2.0426311 48
0.40218425 2.6562202 2.0396991 69
0.50111753 3.3095977 2.0518358 67
0.64094603 4.228096 2.0643413 54
0.85609275 5.6406937 2.0737052 15
1.2588665 8.2847681 2.1118283 7
1.4930753 9.8261232 1.4766608 3
1.4764184 9.7050972 0.48967364 78
0.0052182497 0.030913349 1.9991974 77
0.04910716 0.31158298 2.0057628 96
0.06365075 0.4099744 2.0180943 95
0.093977518 0.60791129 2.0125027 84
0.12717955 0.82354951 2.0227277 93
0.16332032 1.0587362 2.0296695 33
0.212899 1.3800913 2.1235478 24
0.26276836 1.7033304 2.1393616 14
0.020673595 0.12362494 2.0010643 88
0.037357412 0.21655564 2.0032918 89
0.079700403 0.5091393 2.0202737 97
0.11120456 0.71189654 2.0136113 91
0.14581092 0.93550181 2.020627 90
0.1934603 1.241164 2.1248546 22
0.23947003 1.5363075 2.1329036 25
0.29518932 1.8937395 2.1560371 16
0.30789074 2.0097816 2.0778432 26
0.3677206 2.4002991 2.0396919 69
0.45485336 2.9655924 2.0516768 64
0.56977075 3.7148156 2.0530026 53
0.74315739 4.8396268 2.0665736 50
1.0358934 6.7381511 2.0925093 38
0.35230693 2.2916534 0.53166884 96
1.4984616 9.7356853 0.9755345 76
0.33665162 2.177186 2.0426311 75
0.41099036 2.6548717 2.0396991 69
0.51208973 3.3079176 2.0518358 67
0.65496337 4.2259469 2.0643413 24
0.87479323 5.6378241 2.0737052 15
1.2893176 8.2997608 2.1165175 3
1.5273657 9.8208504 1.4766608 3
1.5110552 9.7048206 0.48987517 78
0.0053261258 0.030894943 1.9991974 77
0.050194487 0.31140968 2.0057628 96
0.065081432 0.40974969 2.0180943 95
0.096098952 0.60757959 2.0125027 88
0.13005351 0.82310057 2.0227277 93
0.16701499 1.0581597 2.0296695 29
0.21771511 1.3793397 2.1235478 25
0.26871243 1.7024028 2.1393616 14
0.021105001 0.12355202 2.0010643 88
0.03811311 0.21642391 2.0032918 89
0.081477143 0.50885803 2.0202737 96
0.11368886 0.71150404 2.0136113 91
0.14907552 0.93498713 2.020627 86
0.19779159 1.2404811 2.1248546 22
0.24483128 1.5354621 2.1329036 25
0.3007302 1.8860018 2.1486869 16
0.30993319 1.9769856 2.0463023 31
0.37609699 2.3990006 2.0396919 69
0.46520245 2.9639864 2.0516768 63
0.58273447 3.7128041 2.0530026 53
0.75932676 4.8324232 2.0647006 49
1.0594077 6.7344947 2.0925093 39
0.36106747 2.2952623 0.53260148 91
1.5332112 9.7353153 0.9759807 76
0.3442494 2.1759977 2.0426311 75
0.42025509 2.6534209 2.0396991 69
0.52363348 3.3061101 2.0518358 66
0.66971064 4.2236352 2.0643413 11
0.89446759 5.6347361 2.0737052 16
0.47071904 2.9619832 0.81407291 9
1.5624157 9.8203516 1.4773506 3
1.5457081 9.704421 0.49007672 80
0.0054339366 0.030876163 1.9991974 73
0.051281206 0.31123257 2.0057628 97
0.066511333 0.40952006 2.0180943 95
0.098219216 0.60724044 2.0125027 88
0.13292588 0.82264161 2.0227277 89
0.17108946 1.0599355 2.0340583 29
0.22252856 1.3785714 2.1235478 25
0.27465332 1.7014544 2.1393616 14
0.021536149 0.12347761 2.0010643 88
0.038868338 0.21628956 2.0032918 89
0.083049633 0.50732917 2.0154345 97
0.11617178 0.71110284 2.0136113 93
0.15233836 0.93446112 2.020627 78
0.20212048 1.2397832 2.1248546 24
0.25018957 1.5345984 2.1329036 25
0.3078573 1.8882866 2.1523621 17
0.31570294 1.9688492 2.0392931 34
0.38446876 2.3976734 2.0396919 69
0.47488308 2.958216 2.0489354 63
0.59569103 3.7107475 2.0530026 59
0.7761904 4.8297439 2.0647006 41
1.0829091 6.7307558 2.0925093 39
nan nan nan 0
1.5687681 9.7397356 0.97687304 77
0.35184294 2.1747828 2.0426311 75
0.42951471 2.651938 2.0396991 69
0.53517079 3.3042624 2.0518358 66
0.68444985 4.221272 2.0643413 11
0.91337436 5.6269178 2.0720625 16
0.48963144 3.0130968 0.82696843 6
1.5911194 9.7806225 1.4725219 5
1.5803765 9.7038984 0.49027824 83
0.0055416813 0.030857008 1.9991974 73
0.052367296 0.31105167 2.0057628 97
0.067773588 0.40828097 2.0131991 93
0.10033829 0.6068939 2.0125027 88
0.13579662 0.82217258 2.0227277 91
0.17751864 1.0758783 2.0647788 28
0.22733933 1.3777862 2.1235478 26
0.28059083 1.7004853 2.1393616 14
0.021967035 0.12340168 2.0010643 88
0.039623093 0.21615256 2.0032918 91
0.084820025 0.50703621 2.0154345 97
0.11865328 0.710693 2.0136113 93
0.1555993 0.93392366 2.020627 68
0.20644689 1.2390701 2.1248546 27
0.25554478 1.5337156 2.1329036 24
0.31110355 1.8671361 2.1303113 17
0.3225736 1.9677352 2.0392931 37
0.39283589 2.3963165 2.0396919 69
0.48520628 2.9565403 2.0489354 63
0.60864025 3.7086451 2.0530026 59
0.79229301 4.8224301 2.0628276 42
1.1063972 6.726934 2.0925093 34
1.5290687 9.2967863 1.8802376 23
1.6035658 9.7391157 0.9773193 77
0.35943225 2.1735413 2.0426311 73
0.4387691 2.6504226 2.0396991 67
0.54670155 3.3023741 2.0518358 66
0.69992268 4.2233343 2.0664394 52
0.93301046 5.6236949 2.0720625 17
1.3785491 8.3001881 2.1200345 5
1.6252506 9.7750092 1.4725219 88
1.6150601 9.7032499 0.49047977 84
0.0056408988 0.030794669 1.9941976 75
0.053452749 0.31086698 2.0057628 97
0.069198348 0.40804189 2.0131991 95
0.10245612 0.60653991 2.0125027 88
0.13866571 0.82169354 2.0227277 93
0.18246795 1.0823393 2.0779448 27
0.23214731 1.3769842 2.1235478 26
0.28652489 1.6994956 2.1393616 13
0.022397654 0.12332425 2.0010643 88
0.04037736 0.21601294 2.0032918 91
0.086589403 0.50673699 2.0154345 97
0.12113333 0.71027458 2.0136113 93
0.15885834 0.93337482 2.020627 40
0.2107708 1.2383419 2.1248546 27
0.26089689 1.5328143 2.1329036 24
0.31306824 1.8393022 2.1009099 17
0.33002958 1.9701146 2.0427978 40
0.40119821 2.3949308 2.0396919 67
0.4955236 2.9548287 2.0489354 63
0.62158215 3.7064981 2.0530026 58
0.80912167 4.8196354 2.0628276 46
1.130667 6.7277627 2.0939183 33
1.5615113 9.2913923 1.8802376 22
1.6392044 9.7432814 0.9782117 77
0.36701709 2.1722734 2.0426311 73
0.4480181 2.6488745 2.0396991 67
0.55822563 3.3004456 2.0518358 67
0.71466058 4.2208652 2.0664394 63
0.95263517 5.6204042 2.0720625 20
1.4058877 8.2857428 2.1176901 30
1.6585324 9.7643929 1.4718322 99
1.6497582 9.7024784 0.49068132 82
0.0057483576 0.030774791 1.9941976 75
0.054537553 0.31067851 2.0057628 96
0.070622265 0.40779784 2.0131991 95
0.10457273 0.60617858 2.0125027 86
0.14153311 0.82120448 2.0227277 93
0.18949729 1.1005839 2.113054 26
0.23695247 1.3761655 2.1235478 25
0.29245552 1.698485 2.1393616 13
0.022828 0.12324531 2.0010643 88
0.041131139 0.21587069 2.0032918 91
0.088357717 0.5064317 2.0154345 97
0.12361193 0.70984733 2.0136113 93
0.16248839 0.93496019 2.0251279 40
0.21509212 1.2375985 2.1248546 29
0.26624581 1.5318942 2.1329036 23
0.3148424 1.8114775 2.0715086 17
0.33690456 1.9689506 2.0427978 60
0.40955561 2.3935158 2.0396919 69
0.50583482 2.9530811 2.0489354 63
0.63451648 3.7043059 2.0530026 58
0.82594043 4.816782 2.0628276 45
1.1541443 6.7237749 2.0939183 33
1.5889485 9.2568359 1.8746419 23
1.6740482 9.7424078 0.97865796 76
0.37459752 2.170979 2.0426311 73
0.45726168 2.6472945 2.0396991 67
0.56974292 3.2984767 2.0518358 66
0.72938991 4.2183447 2.0664394 64
0.97305363 5.6216979 2.0737052 21
1.4348019 8.2807846 2.1176901 32
1.6926064 9.7585449 1.4718322 30
1.6853255 9.7065048 0.49108434 78
0.0058557466 0.03075454 1.9941976 73
0.055621691 0.31048623 2.0057628 96
0.072045304 0.40754884 2.0131991 95
0.10668804 0.60580987 2.0125027 86
0.14439878 0.82070547 2.0227277 91
0.19333789 1.0999157 2.113054 25
0.24175474 1.37533 2.1235478 25
0.29838255 1.6974539 2.1393616 13
0.023258068 0.12316487 2.0010643 88
0.041884422 0.21572579 2.0032918 93
0.090124957 0.50612015 2.0154345 97
0.12608899 0.70941156 2.0136113 93
0.16575101 0.93438733 2.0251279 40
0.21941085 1.2368402 2.1248546 28
0.27159151 1.5309554 2.1329036 23
0.31642619 1.7836632 2.0421071 21
0.34377542 1.9677626 2.0427978 69
0.41723815 2.388237 2.0365543 67
0.51613992 2.9512973 2.0489354 64
0.64744306 3.7020683 2.0530026 59
0.8419497 4.8093028 2.0609546 45
1.1784358 6.7244301 2.0953276 23
1.6237949 9.265748 1.8774396 18
1.7097663 9.746316 0.97955036 78
0.38217339 2.1696582 2.0426311 73
0.46579781 2.6417019 2.036756 67
0.58125329 3.296468 2.0518358 66
0.74411011 4.2157736 2.0664394 63
0.99267113 5.6182675 2.0737052 23
1.4636984 8.2757254 2.1176901 31
nan nan nan 0
1.7200691 9.7054825 0.49128589 78
0.0059630643 0.030733913 1.9941976 73
0.056705151 0.31029019 2.0057628 97
0.073467486 0.40729487 2.0131991 95
0.10880207 0.60543376 2.0125027 86
0.14726271 0.82019645 2.0227277 91
0.19759914 1.1015923 2.1174428 25
0.24655406 1.3744777 2.1235478 27
0.30487204 1.6995574 2.1431985 14
0.023687851 0.12308294 2.0010643 88
0.042637188 0.21557827 2.0032918 93
0.091891095 0.50580245 2.0154345 96
0.12856455 0.70896709 2.0136113 93
0.16901164 0.93380302 2.0251279 40
0.2237269 1.2360669 2.1248546 28
0.27693391 1.5299982 2.1329036 23
0.3226504 1.7825477 2.0421071 26
0.35064209 1.9665506 2.0427978 71
0.4255721 2.386766 2.0365543 69
0.52643871 2.9494779 2.0489354 64
0.65958333 3.6954246 2.0506845 41
0.85873216 4.8063345 2.0609546 45
1.2027457 6.724998 2.0967369 14
1.6569934 9.2648602 1.8783723 11
1.745532 9.7500916 0.98044276 76
0.38974458 2.1683109 2.0426311 75
0.47501624 2.6400597 2.036756 67
0.59275657 3.2944191 2.0518358 66
0.75882143 4.21315 2.0664394 63
1.0131143 5.6194153 2.0753479 26
1.4934404 8.2753487 2.1188624 31
nan nan nan 0
1.755715 9.7092524 0.49168897 79
0.0060703093 0.03071291 1.9941976 77
0.057787921 0.31009036 2.0057628 96
0.074888758 0.40703595 2.0131991 95
0.11091477 0.60505033 2.0125027 88
0.15012482 0.81967741 2.0227277 91
0.20144323 1.1008958 2.1174428 26
0.25135037 1.3736087 2.1235478 27
0.31022567 1.6953294 2.1393616 14
0.024061151 0.12271544 1.9960728 88
0.043389436 0.21542813 2.0032918 93
0.09388534 0.50671542 2.0202737 96
0.13103853 0.70851403 2.0136113 93
0.17227019 0.93320739 2.0251279 39
0.2280402 1.2352784 2.1248546 28
0.28227288 1.5290221 2.1329036 22
0.32887068 1.7814107 2.0421071 37
0.35750446 1.9653146 2.0427978 71
0.43390083 2.3852658 2.0365543 71
0.53673112 2.9476221 2.0489354 63
0.67247874 3.6930997 2.0506845 16
0.87550414 4.8033075 2.0609546 44
1.226213 6.7207584 2.0967369 14
1.691087 9.2686844 1.8802376 11
1.781345 9.7537374 0.98133516 76
0.397311 2.1669374 2.0426311 73
0.48422888 2.6383855 2.036756 67
0.60425264 3.2923298 2.0518358 66
0.77352345 4.2104759 2.0664394 65
1.0335777 5.6204891 2.0769906 29
1.5231974 8.2748652 2.1200345 30
nan nan nan 0
1.7905021 9.7079773 0.49189049 74
0.0061774803 0.030691534 1.9941976 71
0.058869988 0.30988675 2.0057628 96
0.076309122 0.40677205 2.0131991 95
0.1130261 0.60465944 2.0125027 88
0.15298513 0.8191483 2.0227277 84
0.20528483 1.100186 2.1174428 26
0.25614366 1.372723 2.1235478 27
0.31555346 1.6910845 2.1355245 15
0.024489362 0.1226307 1.9960728 88
0.044141158 0.21527535 2.0032918 93
0.095653519 0.50638461 2.0202737 96
0.13351089 0.70805228 2.0136113 93
0.17633231 0.93688071 2.0341294 39
0.23235074 1.2344749 2.1248546 28
0.28816602 1.5309896 2.136893 22
0.33508697 1.7802519 2.0421071 50
0.36436251 1.9640547 2.0427978 69
0.44222432 2.3837368 2.0365543 69
0.54625356 2.9416196 2.0461938 63
0.68536592 3.6907299 2.0506845 12
0.89226544 4.8002224 2.0609546 44
1.2496653 6.7164373 2.0967369 42
1.724329 9.2675543 1.8811703 20
1.8172047 9.7572517 0.98222762 76
0.40487263 2.1655371 2.0426311 73
0.49343559 2.6366794 2.036756 67
0.61574131 3.2902005 2.0518358 67
0.78821611 4.2077498 2.0664394 65
1.0540609 5.621489 2.0786333 32
1.5529695 8.2742748 2.1212068 24
1.8350924 9.7680292 1.4766608 2
1.8262249 9.7114878 0.49229357 74
0.0062845764 0.030669782 1.9941976 71
0.059951331 0.30967936 2.0057628 96
0.077728562 0.4065032 2.0131991 95
0.11513608 0.60426122 2.0125027 88
0.15584354 0.81860936 2.0227277 75
0.20912394 1.0994627 2.1174428 27
0.26093376 1.3718206 2.1235478 26
0.31546375 1.6584785 2.0971551 14
0.024917273 0.12254447 1.9960728 88
0.044892341 0.21511996 2.0032918 91
0.097420558 0.50604767 2.0202737 96
0.13630737 0.70927656 2.0183041 93
0.1824737 0.95123059 2.0656354 36
0.23665844 1.2336563 2.1248546 29
0.29350838 1.5299743 2.136893 21
0.34066042 1.7757419 2.0384321 71
0.37121612 1.9627709 2.0427978 67
0.45054242 2.3821788 2.0365543 67
0.55651838 2.9396949 2.0461938 63
0.69824487 3.6883149 2.0506845 12
0.90901589 4.7970786 2.0609546 44
1.2731025 6.7120342 2.0967369 44
1.7584993 9.2711315 1.8830355 17
1.8521818 9.7557421 0.98267382 48
0.41242927 2.1641107 2.0426311 73
0.50263631 2.6349409 2.036756 67
0.62722248 3.2880311 2.0518358 66
0.80375022 4.2094312 2.0685375 64
1.0745637 5.6224136 2.080276 34
1.582756 8.2735777 2.1223791 20
nan nan nan 0
1.8601131 9.7050543 0.49229357 75
0.006391596 0.030647658 1.9941976 73
0.061031953 0.30946821 2.0057628 96
0.079147041 0.40622941 2.0131991 95
0.11724464 0.60385567 2.0125027 88
0.15870008 0.8180604 2.0227277 55
0.21296051 1.098726 2.1174428 28
0.26572073 1.3709013 2.1235478 25
0.31820068 1.6416308 2.0779707 14
0.025344882 0.12245675 1.9960728 89
0.045642976 0.21496196 2.0032918 91
0.099186398 0.50570446 2.0202737 96
0.13878237 0.7087965 2.0183041 93
0.18746407 0.9591369 2.0836387 31
0.24096328 1.2328227 2.1248546 29
0.29884723 1.5289406 2.136893 22
0.34685686 1.774542 2.0384321 86
0.37806523 1.9614631 2.0427978 67
0.45885503 2.3805916 2.0365543 69
0.56677645 2.9377341 2.0461938 63
0.71111518 3.6858549 2.0506845 15
0.92575538 4.7938762 2.0609546 44
1.2965242 6.7075496 2.0967369 44
1.791783 9.2697592 1.883968 16
1.8881164 9.758997 0.98356628 48
0.41998094 2.1626577 2.0426311 73
0.51183093 2.6331704 2.036756 67
0.63869607 3.2858217 2.0518358 64
0.81843901 4.2065997 2.0685375 66
1.0950856 5.6232634 2.0819185 35
1.6134864 8.277545 2.1247239 16
1.9041893 9.759841 1.4773506 2
1.8968513 9.7132111 0.49289814 76
0.006498537 0.030625161 1.9941976 75
0.062111825 0.30925331 2.0057628 96
0.080564566 0.40595064 2.0131991 95
0.11935177 0.60344267 2.0125027 86
0.16155466 0.81750137 2.0227277 38
0.21679449 1.097976 2.1174428 28
0.27050447 1.3699654 2.1235478 25
0.31833965 1.6122032 2.0434382 15
0.02577218 0.12236754 1.9960728 89
0.046393055 0.21480131 2.0032918 93
0.10095104 0.50535518 2.0202737 96
0.14125569 0.70830774 2.0183041 93
0.19463797 0.97769892 2.124146 29
0.24526514 1.231974 2.1248546 29
0.30359387 1.524932 2.1329036 23
0.35304904 1.7733203 2.0384321 86
0.38490972 1.9601314 2.0427978 71
0.4671621 2.3789752 2.0365543 66
0.57702762 2.9357378 2.0461938 63
0.72483134 3.6876974 2.0530026 8
0.94248337 4.7906156 2.0609546 44
1.319003 6.698276 2.0953276 45
1.8260276 9.2730875 1.8858333 17
1.92217 9.752346 0.98356628 64
0.42752746 2.1611786 2.0426311 75
0.52180433 2.6353326 2.0396991 67
0.64932436 3.2793431 2.0493033 64
0.83311778 4.2037172 2.0685375 67
1.1156268 5.6240392 2.0835612 37
1.6433175 8.2766294 2.1258962 34
1.9469335 9.7968502 1.483559 2
1.934644 9.7261305 0.49370426 29
0.0066053988 0.030602291 1.9941976 75
0.063190937 0.30903459 2.0057628 96
0.0819811 0.40566695 2.0131991 93
0.12145746 0.6030224 2.0125027 86
0.16440728 0.8169325 2.0227277 38
0.22062583 1.0972124 2.1174428 29
0.27528489 1.3690128 2.1235478 24
0.32206926 1.6016532 2.0319271 18
0.026260309 0.12255987 2.0010643 89
