# .PCD v0.7 - Point Cloud Data file format
VERSION 0.7
FIELDS x y z intensity
SIZE 4 4 4 4
TYPE F F F F
COUNT 1 1 1 1
WIDTH 1381
HEIGHT 1
VIEWPOINT 0 0 0 1 0 0 0
POINTS 1381
DATA ascii
2.1662722 -1.7718074 0.3437013 42
1.6696649 -1.3675717 2.002733 38
2.0123732 -1.648862 1.9778926 13
2.4657958 -2.0203838 1.9581357 58
3.1107965 -2.549783 1.9468503 65
3.7618051 -3.0844843 1.7813072 64
3.6755581 -3.0148392 1.2372795 14
3.6521652 -2.9967179 0.75028485 39
2.1584563 -1.7717111 0.20632118 66
0.023909692 -0.020277863 1.9991974 80
0.25293821 -0.20982188 2.0897303 97
0.33249053 -0.27452505 2.0964177 63
0.46768403 -0.38563606 1.9838723 67
0.6324628 -0.52133876 1.99051 93
0.8082481 -0.66601473 1.9857829 73
1.006005 -0.82897836 1.9871606 82
1.2385333 -1.020595 1.9973947 49
0.095509455 -0.080721505 1.9960728 89
0.16710837 -0.142712 2.0032918 91
0.39219162 -0.32452771 1.9960775 91
0.54729199 -0.45257169 1.9854547 91
0.71631241 -0.59214419 1.9846202 93
0.89982516 -0.74385452 1.979813 87
1.1077964 -0.91578448 1.9773132 82
1.3650447 -1.1280499 1.9980052 47
1.5208907 -1.2505978 2.0147614 39
1.8184968 -1.4953187 1.9800742 37
2.2105176 -1.818319 1.9612085 69
2.7416608 -2.2552292 1.9440553 65
3.6739991 -3.0221512 2.0103827 12
3.7009408 -3.0453963 1.4978287 74
3.6446803 -3.0001681 0.98772013 87
2.1526959 -1.7726501 0.34280887 37
1.6651207 -1.3731011 2.002733 39
2.0100124 -1.6580982 1.9808358 10
2.4594364 -2.0281203 1.9581357 39
3.102771 -2.5595431 1.9468503 62
3.7047453 -3.0572124 1.7599523 67
3.6510751 -3.0139942 1.2325903 89
3.6389143 -3.0050235 0.74959499 93
2.1605828 -1.7848469 0.20672426 36
0.023838764 -0.0203612 1.9991974 80
0.25220424 -0.21070352 2.0897303 95
0.33153021 -0.27568397 2.0964177 63
0.46633503 -0.38726622 1.9838723 69
0.6306392 -0.5235433 1.99051 93
0.80591834 -0.66883194 1.9857829 64
1.0031052 -0.83248484 1.9871606 82
1.2349631 -1.024912 1.9973947 47
0.095212951 -0.081071019 1.9960728 89
0.16658419 -0.14332353 2.0032918 91
0.39099953 -0.32596299 1.9960775 91
0.5456295 -0.45457456 1.9854547 91
0.71424115 -0.59464091 1.9846202 93
0.89722317 -0.74699092 1.979813 87
1.1045932 -0.91964579 1.9773132 84
1.360901 -1.1330453 1.9980052 47
1.5165161 -1.2558992 2.0147614 39
1.813266 -1.5016572 1.9800742 37
2.2041571 -1.8260241 1.9612085 69
2.7337716 -2.2647858 1.9440553 65
3.6628973 -3.0355971 2.0103827 13
3.6417427 -3.0191371 1.4795091 80
3.6228404 -3.0034666 0.98492229 81
2.1426618 -1.7769743 0.34236267 29
1.6603175 -1.3789049 2.002733 38
2.0104303 -1.6702704 1.9867221 9
2.4519863 -2.0371213 1.9581357 37
3.0933688 -2.5708981 1.9468503 56
3.6426766 -3.0285034 1.7369548 81
3.6287925 -3.0180314 1.2290733 83
3.6202621 -3.0120058 0.74821532 88
2.1194668 -1.7639904 0.20491047 6
0.023767544 -0.020444289 1.9991974 80
0.25146723 -0.2115826 2.0897303 95
0.33134645 -0.27749336 2.1013131 63
0.46498039 -0.3888917 1.9838723 69
0.62880784 -0.52574152 1.99051 93
0.80541688 -0.67317742 1.9901714 48
0.99803406 -0.8341766 1.9830275 80
1.231378 -1.0292165 1.9973947 49
0.09492939 -0.081402883 1.9960728 89
0.16608287 -0.14390413 2.0032918 91
0.38985929 -0.32732585 1.9960775 91
0.54403943 -0.45647639 1.9854547 91
0.71216112 -0.59713048 1.9846202 92
0.89461017 -0.75011826 1.979813 87
1.1013763 -0.92349595 1.9773132 84
1.3569376 -1.1377888 1.9980052 47
1.5093842 -1.258901 2.0112567 38
1.811003 -1.5104712 1.983212 37
2.1977696 -1.833707 1.9612085 69
2.7258494 -2.2743146 1.9440553 67
3.6166885 -3.0186586 1.9916524 16
3.6238167 -3.0256815 1.4766908 75
3.601022 -3.0066493 0.98212433 75
2.1326239 -1.7812504 0.34191647 22
1.6526299 -1.3822964 1.9994081 38
2.0076878 -1.6798718 1.9896654 8
2.4448605 -2.0456676 1.9581357 37
3.0843756 -2.5816805 1.9468503 41
3.6212201 -3.032105 1.7320266 77
3.6107831 -3.0244379 1.2267287 79
3.5907469 -3.0087214 0.74476624 84
2.0826662 -1.7457035 0.20329823 6
0.023696035 -0.020527128 1.9991974 82
0.25072712 -0.21245909 2.0897303 97
0.33037582 -0.27864829 2.1013131 63
0.46362007 -0.39051241 1.9838723 69
0.6269688 -0.52793318 1.99051 93
0.80306214 -0.67598474 1.9901714 38
0.99511611 -0.83765531 1.9830275 82
1.2277778 -1.0335087 1.9973947 49
0.094644666 -0.081733756 1.9960728 89
0.16557954 -0.14448299 2.0032918 89
0.38871434 -0.32868469 1.9960775 91
0.54244268 -0.45837268 1.9854547 93
0.71007234 -0.59961271 1.9846202 92
0.89198631 -0.75323647 1.979813 87
1.0981458 -0.92733485 1.9773132 84
1.3529577 -1.1425185 1.9980052 45
1.5049807 -1.2641621 2.0112567 38
1.8057194 -1.5167836 1.983212 38
2.1913555 -1.8413674 1.9612085 71
2.7178938 -2.2838159 1.9440553 67
3.5990314 -3.0252988 1.9879062 24
3.5985463 -3.0259626 1.471054 72
3.5792258 -3.0097163 0.97932649 71
2.0959048 -1.7630376 0.33834678 7
1.6477946 -1.3880568 1.9994081 39
2.0079935 -1.6920791 1.9955517 8
2.437705 -2.0541894 1.9581357 39
3.0753455 -2.5924311 1.9468503 39
3.603394 -3.0386381 1.7287413 75
3.5853431 -3.024487 1.2220395 74
3.5688689 -3.0116563 0.74269682 83
2.0269315 -1.7110682 0.20067832 5
0.023624238 -0.020609718 1.9991974 80
0.24998398 -0.21333301 2.0897303 97
0.32940117 -0.27979982 2.1013131 63
0.46225411 -0.39212838 1.9838723 67
0.62512213 -0.53011858 1.99051 95
0.80069757 -0.67878383 1.9901714 36
0.99218601 -0.84112382 1.9830275 82
1.2241627 -1.037788 1.9973947 49
0.094358779 -0.08206363 1.9960728 89
0.1650742 -0.14506009 2.0032918 91
0.38756466 -0.33003959 1.9960775 89
0.54083937 -0.46026337 1.9854547 93
0.70797503 -0.60208774 1.9846202 92
0.88935161 -0.75634551 1.979813 87
1.0949023 -0.93116254 1.9773132 84
1.3489615 -1.1472342 1.9980052 47
1.497836 -1.2671043 2.0077524 38
1.8004138 -1.5230775 1.983212 37
2.1849146 -1.8490052 1.9612085 64
2.7099054 -2.2932889 1.9440553 65
3.5424516 -2.9989033 1.9635568 26
3.5769789 -3.0292046 1.4668264 68
3.5574522 -3.0126681 0.97652864 71
2.0669389 -1.7510284 0.33566952 6
1.6429393 -1.3938003 1.9994081 38
2.0082383 -1.7043086 2.0014381 8
2.4305196 -2.062686 1.9581357 58
3.0662773 -2.6031501 1.9468503 39
3.578367 -3.03897 1.7221706 76
3.5636508 -3.0275428 1.2185224 73
3.547014 -3.0144746 0.74062741 81
2.0209463 -1.718133 0.20067832 5
0.023552153 -0.020692056 1.9991974 80
0.24923779 -0.2142043 2.0897303 96
0.32842246 -0.28094792 2.1013131 63
0.46088251 -0.39373952 1.9838723 66
0.62326789 -0.53229737 1.99051 95
0.79832333 -0.68157464 1.9901714 36
0.98924398 -0.84458202 1.9830275 82
1.2205328 -1.0420549 1.9973947 49
0.094071746 -0.082392499 1.9960728 89
0.16456684 -0.14563541 2.0032918 91
0.38545552 -0.33057153 1.9912384 91
0.53922951 -0.46214843 1.9854547 89
0.70586902 -0.60455537 1.9846202 92
0.88670605 -0.75944531 1.979813 87
1.0916451 -0.93497872 1.9773132 84
1.3449485 -1.1519359 1.9980052 47
1.4934039 -1.272325 2.0077524 38
1.792123 -1.5268282 1.9800742 37
2.1784468 -1.8566208 1.9612085 64
2.7018836 -2.3027344 1.9440553 65
3.4861004 -2.9721503 1.9392073 35
3.555433 -3.0323329 1.4625988 68
3.5357018 -3.0155048 0.97373074 69
2.0418715 -1.7420715 0.33343849 6
1.638064 -1.3995266 1.9994081 38
2.0084221 -1.7165607 2.0073245 9
2.4233046 -2.0711575 1.9581357 69
3.0571716 -2.6138377 1.9468503 43
3.5533819 -3.0391645 1.7155999 76
3.5382879 -3.027324 1.2138332 73
3.525183 -3.0171776 0.73855793 77
1.9997568 -1.7121799 0.1998722 7
0.023479782 -0.020774143 1.9991974 80
0.24848855 -0.215073 2.0897303 96
0.32743979 -0.28209263 2.1013131 63
0.45950532 -0.39534593 1.9838723 66
0.62140602 -0.53446978 1.99051 93
0.79593933 -0.68435717 1.9901714 37
0.9862898 -0.84802997 1.9830275 82
1.2144568 -1.0442188 1.9935577 49
0.093783572 -0.082720369 1.9960728 89
0.16405748 -0.14620899 2.0032918 91
0.38429925 -0.33191499 1.9912384 93
0.53761297 -0.46402788 1.9854547 89
0.70375443 -0.60701561 1.9846202 92
0.88404971 -0.76253593 1.979813 87
1.0883749 -0.93878365 1.9773132 84
1.3409194 -1.1566238 1.9980052 47
1.4889535 -1.2775302 2.0077524 38
1.7867823 -1.5330745 1.9800742 38
2.1687796 -1.8614902 1.9584669 69
2.6938293 -2.3121519 1.9440553 60
3.4686699 -2.978261 1.9354613 46
3.5302696 -3.032222 1.4569621 68
3.5139749 -3.0182264 0.9709329 67
2.0093374 -1.7264699 0.33031502 10
1.6331688 -1.405236 1.9994081 39
2.0085452 -1.7288346 2.0132108 9
2.4160602 -2.0796039 1.9581357 72
3.0480294 -2.6244931 1.9468503 59
3.5284395 -3.0392218 1.7090291 76
3.5166523 -3.0301378 1.2103162 71
3.4996257 -3.0165312 0.73579872 78
1.9899844 -1.7158875 0.19967067 5
0.023407122 -0.020855974 1.9991974 80
0.2477363 -0.21593909 2.0897303 97
0.32568404 -0.28256655 2.0964177 63
0.45812249 -0.39694747 1.9838723 69
0.61953658 -0.53663564 1.99051 93
0.7935456 -0.68713135 1.9901714 38
0.98332357 -0.85146761 1.9830275 80
1.2108045 -1.0484517 1.9935577 49
0.093494251 -0.083047226 1.9960728 89
0.16314919 -0.14642364 1.9983203 91
0.38313833 -0.33325443 1.9912384 91
0.53598994 -0.46590167 1.9854547 91
0.70163125 -0.6094684 1.9846202 92
0.88138252 -0.76561713 1.979813 87
1.0850912 -0.94257694 1.9773132 84
1.3368739 -1.1612973 1.9980052 47
1.484485 -1.2827199 2.0077524 38
1.78142 -1.5393022 1.9800742 37
2.1622689 -1.8690493 1.9584669 69
2.6857421 -2.3215408 1.9440553 60
3.4617596 -2.9933827 1.9373344 55
3.508779 -3.0351112 1.4527344 68
3.4922726 -3.020833 0.96813506 69
1.995767 -1.7269559 0.32942259 4
1.6254314 -1.4084826 1.9960833 38
2.0086067 -1.7411305 2.0190971 9
2.4055288 -2.085201 1.9556034 72
3.0388496 -2.6351168 1.9468503 62
3.5035396 -3.0391417 1.7024584 73
3.4913688 -3.0296521 1.205627 72
3.4778552 -3.0189896 0.73372918 82
1.9764383 -1.7162721 0.19926761 5
0.023334179 -0.020937555 1.9991974 80
0.24698102 -0.21680252 2.0897303 97
0.32469574 -0.28370169 2.0964177 63
0.45673409 -0.39854422 1.9838723 71
0.61765963 -0.53879488 1.99051 95
0.78933674 -0.68832266 1.9857829 39
0.98034549 -0.85489488 1.9830275 80
1.2071373 -1.0526718 1.9935577 49
0.09320379 -0.083373085 1.9960728 91
0.1626371 -0.14699224 1.9983203 91
0.3819727 -0.33458981 1.9912384 91
0.53436041 -0.4677698 1.9854547 91
0.69949955 -0.61191386 1.9846202 92
0.87870467 -0.7686891 1.979813 87
1.0817944 -0.94635892 1.9773132 84
1.3302605 -1.1637248 1.99433 47
1.4799985 -1.2878939 2.0077524 38
1.776036 -1.5455111 1.9800742 37
2.1557314 -1.8765857 1.9584669 69
2.6776221 -2.3309016 1.9440553 65
3.4477935 -3.002404 1.9354613 48
3.4836941 -3.0347359 1.4470977 67
3.4668911 -3.0200984 0.96440458 73
1.9784631 -1.7240964 0.32808396 4
1.620505 -1.4141479 1.9960833 38
2.0086064 -1.7534473 2.0249834 10
2.3982353 -2.0935853 1.9556034 72
3.0296328 -2.6457081 1.9468503 63
3.4786835 -3.0389249 1.6958877 70
3.4697924 -3.0322258 1.2021101 76
3.4561105 -3.0213332 0.73165977 86
1.9629138 -1.7165831 0.19886455 5
0.023260951 -0.021018878 1.9991974 80
0.24622272 -0.21766332 2.0897303 97
0.32370341 -0.28483334 2.0964177 64
0.45646203 -0.40112206 1.9886441 77
0.61577511 -0.54094768 1.99051 95
0.78692919 -0.69107378 1.9857829 40
0.9773553 -0.85831171 1.9830275 80
1.2034554 -1.056879 1.9935577 49
0.092912197 -0.083697915 1.9960728 89
0.16212301 -0.14755905 1.9983203 91
0.38080242 -0.33592111 1.9912384 88
0.53272432 -0.46963224 1.9854547 93
0.69735932 -0.61435187 1.9846202 90
0.87601614 -0.77175158 1.979813 87
1.0784844 -0.95012933 1.9773132 82
1.3261902 -1.1683612 1.99433 47
1.4728119 -1.2907016 2.0042477 38
1.7677028 -1.5491356 1.9769365 37
2.149168 -1.8840991 1.9584669 69
2.6694694 -2.3402343 1.9440553 65
3.4338064 -3.011364 1.9335883 40
3.4586544 -3.0342231 1.4414608 68
3.4452498 -3.0224633 0.96160674 74
1.9649465 -1.7244222 0.32719153 4
1.6155589 -1.4197958 1.9960833 39
2.0115807 -1.7684543 2.0338128 11
2.3909128 -2.1019437 1.9556034 72
3.0203788 -2.6562674 1.9468503 63
3.453872 -3.0385723 1.6893169 71
3.4445915 -3.0314741 1.1974207 78
3.430675 -3.0202894 0.72890049 87
1.9494114 -1.7168207 0.19846149 6
0.02318744 -0.021099947 1.9991974 80
0.24546145 -0.21852149 2.0897303 97
0.32270718 -0.28596157 2.0964177 62
0.45505905 -0.40271294 1.9886441 82
0.61388308 -0.5430938 1.99051 95
0.78451216 -0.69381642 1.9857829 44
0.97435325 -0.86171812 1.9830275 80
1.1997589 -1.0610734 1.9935577 47
0.092619471 -0.084021732 1.9960728 89
0.16160694 -0.14812407 1.9983203 91
0.37962753 -0.3372483 1.9912384 86
0.53108174 -0.47148892 1.9854547 93
0.69521058 -0.61678237 1.9846202 90
0.87331688 -0.77480477 1.979813 87
1.0751613 -0.95388812 1.9773132 82
1.3221039 -1.1729833 1.99433 47
1.4682975 -1.2958349 2.0042477 38
1.7622846 -1.5552967 1.9769365 34
2.1425779 -1.8915898 1.9584669 69
2.6612842 -2.3495381 1.9440553 65
3.426749 -3.026401 1.9354613 31
3.4336615 -3.0335727 1.435824 72
3.4199531 -3.0214615 0.95787627 75
1.9514521 -1.7246748 0.32629913 4
1.610593 -1.4254265 1.9960833 39
2.0144744 -1.7835035 2.0426424 13
2.3835611 -2.1102769 1.9556034 73
3.0110886 -2.6667943 1.9468503 66
3.4326406 -3.0412149 1.6843888 77
3.4230759 -3.033808 1.1939038 80
3.4089949 -3.0223904 0.72683108 88
1.9359313 -1.716985 0.19805843 5
0.023113646 -0.021180756 1.9991974 80
0.24469717 -0.21937697 2.0897303 97
0.32170704 -0.28708628 2.0964177 61
0.45365056 -0.40429893 1.9886441 86
0.6119836 -0.54523337 1.99051 95
0.78208548 -0.69655073 1.9857829 48
0.9713394 -0.86511397 1.9830275 76
1.1960478 -1.0652549 1.9935577 49
0.092325613 -0.084344521 1.9960728 89
0.16108891 -0.14868727 1.9983203 91
0.37844804 -0.3385714 1.9912384 84
0.52943271 -0.47333986 1.9854547 93
0.69305336 -0.61920542 1.9846202 92
0.87060696 -0.77784854 1.979813 87
1.071825 -0.9576354 1.9773132 80
1.3180013 -1.1775912 1.99433 47
1.4610996 -1.2985834 2.0007432 38
1.7568448 -1.5614387 1.9769365 34
2.135962 -1.8990571 1.9584669 69
2.6530664 -2.3588133 1.9440553 65
3.3919156 -3.0167773 1.9223502 12
3.408715 -3.0327845 1.4301872 73
3.3983755 -3.0235851 0.95507836 75
1.9379799 -1.7248544 0.3254067 4
1.6083953 -1.4335247 1.9994081 39
2.0172875 -1.7985942 2.0514717 16
2.3761804 -2.1185842 1.9556034 70
3.0017614 -2.6772888 1.9468503 64
3.4079084 -3.0406027 1.6778181 78
3.3979599 -3.0327919 1.1892146 81
3.3836479 -3.0210791 0.7240718 86
1.9224741 -1.7170762 0.19765536 5
0.02303957 -0.02126131 1.9991974 82
0.24392991 -0.22022979 2.0897303 96
0.32070294 -0.28820747 2.0964177 60
0.45223653 -0.40588003 1.9886441 88
0.61007667 -0.54736632 1.99051 95
0.77964926 -0.69927645 1.9857829 56
0.96831363 -0.86849934 1.9830275 78
1.1923221 -1.0694234 1.9935577 49
0.092030644 -0.084666282 1.9960728 89
0.16056891 -0.14924869 1.9983203 93
0.37726387 -0.33989036 1.9912384 84
0.52777719 -0.47518507 1.9854547 93
0.69088769 -0.62162083 1.9846202 92
0.86788642 -0.78088284 1.979813 87
1.0684757 -0.96137094 1.9773132 78
1.3138826 -1.1821847 1.99433 49
1.4539005 -1.3012972 1.9972385 37
1.7513837 -1.5675616 1.9769365 36
2.1293201 -1.9065015 1.9584669 69
2.6481171 -2.3710151 1.9463733 67
3.3571913 -3.0069478 1.9092388 4
3.3873892 -3.0350609 1.4259597 74
3.3768249 -3.0255952 0.95228052 75
1.9245304 -1.7249608 0.32451427 5
1.6033818 -1.4391303 1.9994081 39
2.0170121 -1.8110257 2.0573583 19
2.3687706 -2.1268656 1.9556034 70
2.9923975 -2.6877508 1.9468503 63
3.3867359 -3.0430112 1.6728901 80
3.3765075 -3.0348864 1.1856976 80
3.3620341 -3.0229383 0.72200233 84
1.9090395 -1.7170942 0.1972523 6
0.022965215 -0.021341603 1.9991974 80
0.24315967 -0.22107993 2.0897303 96
0.319695 -0.28932518 2.0964177 61
0.45081699 -0.40745616 1.9886441 88
0.60816228 -0.54949248 1.99051 95
0.77720362 -0.70199364 1.9857829 66
0.96527618 -0.87187403 1.9830275 80
1.1885818 -1.073579 1.9935577 45
0.091734536 -0.084987015 1.9960728 89
0.16004696 -0.14980826 1.9983203 93
0.37607515 -0.34120521 1.9912384 84
0.52611524 -0.47702444 1.9854547 93
0.68871361 -0.62402862 1.9846202 92
0.8651554 -0.78390747 1.979813 87
1.0651134 -0.96509469 1.9773132 78
1.3097481 -1.1867638 1.99433 47
1.4467003 -1.3039767 1.9937341 35
1.7459012 -1.5736656 1.9769365 37
2.1226523 -1.9139227 1.9584669 69
2.6398244 -2.3802443 1.9463733 67
3.3294623 -3.003123 1.8998736 3
3.3660891 -3.0372252 1.4217322 74
3.3516548 -3.0242012 0.94855005 73
1.9111038 -1.7249947 0.32362187 6
1.5983484 -1.4447184 1.9994081 38
2.0136762 -1.8207663 2.0603013 19
2.3613319 -2.1351213 1.9556034 70
2.9829972 -2.6981795 1.9468503 62
3.3655879 -3.0453091 1.667962 82
3.3550828 -3.0368688 1.1821806 79
3.3367782 -3.0213597 0.71924305 82
1.8956286 -1.7170397 0.19684923 8
0.022890579 -0.021421637 1.9991974 82
0.24238648 -0.22192737 2.0897303 96
0.31868312 -0.29043937 2.0964177 61
0.44939196 -0.40902731 1.9886441 88
0.60624051 -0.55161202 1.99051 95
0.77474844 -0.70470232 1.9857829 75
0.96222681 -0.87523818 1.9830275 80
1.1848271 -1.0777212 1.9935577 43
0.091437317 -0.085306711 1.9960728 89
0.15952304 -0.15036602 1.9983203 91
0.37488183 -0.34251589 1.9912384 82
0.52444696 -0.47885805 1.9854547 91
0.68653119 -0.62642884 1.9846202 92
0.86241376 -0.78692269 1.979813 87
1.0617381 -0.96880674 1.9773132 76
1.3055974 -1.1913284 1.99433 47
1.439499 -1.3066217 1.9902295 35
1.7375147 -1.5771339 1.9737986 42
2.1159585 -1.9213203 1.9584669 69
2.6314998 -2.3894444 1.9463733 67
3.288075 -2.9866734 1.8830165 2
3.341265 -3.036052 1.4160954 74
3.3301711 -3.0259717 0.9457522 74
1.8977005 -1.7249556 0.32272944 5
1.5932956 -1.4502889 1.9994081 39
2.0073082 -1.8277842 2.0603013 16
2.3538647 -2.1433508 1.9556034 73
2.9735606 -2.708576 1.9468503 57
3.3444653 -3.0474963 1.663034 83
3.3336852 -3.0387387 1.1786636 79
3.3152335 -3.022979 0.71717364 82
1.8822414 -1.7169125 0.19644618 9
0.022815663 -0.021501411 1.9991974 78
0.24161033 -0.22277209 2.0897303 96
0.31766731 -0.29155001 2.0964177 61
0.44796145 -0.41059348 1.9886441 86
0.60431129 -0.55372488 1.99051 95
0.77228385 -0.70740247 1.9857829 77
0.95916581 -0.87859166 1.9830275 82
1.1810578 -1.0818505 1.9935577 49
0.091138989 -0.085625365 1.9960728 89
0.15899722 -0.15092193 1.9983203 91
0.37368393 -0.34382236 1.9912384 84
0.52277225 -0.48068574 1.9854547 93
0.68434036 -0.62882155 1.9846202 92
0.85966164 -0.78992832 1.979813 87
1.0583498 -0.97250706 1.9773132 76
1.3014311 -1.1958785 1.99433 47
1.4322971 -1.3092325 1.986725 36
1.7319992 -1.5831894 1.9737986 50
2.1092389 -1.9286946 1.9584669 69
2.6231432 -2.3986156 1.9463733 68
3.2776296 -2.9981329 1.8830165 2
3.3200285 -3.037981 1.4118677 73
3.3087158 -3.0276291 0.9429543 74
1.8879942 -1.7282066 0.32228324 5
1.5882236 -1.4558417 1.9994081 38
2.000916 -1.83478 2.0603013 12
2.3463686 -2.1515543 1.9556034 72
2.964088 -2.7189391 1.9468503 45
3.3233683 -3.0495732 1.6581059 79
3.312315 -3.0404959 1.1751467 78
3.2937181 -3.0244846 0.71510422 84
1.8725575 -1.7200927 0.19624464 9
0.02274047 -0.02158092 1.9991974 78
0.24083124 -0.22361413 2.0897303 97
0.31664771 -0.29265711 2.0964177 61
0.44652545 -0.41215467 1.9886441 86
0.60237479 -0.55583096 1.99051 95
0.7698099 -0.71009386 1.9857829 79
0.95609313 -0.88193446 1.9830275 82
1.1772745 -1.0859666 1.9935577 47
0.090839542 -0.085942984 1.9960728 88
0.15846942 -0.15147603 1.9983203 93
0.3724815 -0.34512466 1.9912384 84
0.52109116 -0.48250765 1.9854547 93
0.68214124 -0.63120651 1.9846202 92
0.85689902 -0.79292428 1.979813 87
1.0549488 -0.97619545 1.9773132 76
1.2972487 -1.2004141 1.99433 47
1.4277183 -1.3142241 1.986725 34
1.7264622 -1.5892255 1.9737986 71
2.1024935 -1.9360455 1.9584669 69
2.6147544 -2.4077575 1.9463733 68
3.2535052 -2.9969923 1.8755243 3
3.2988203 -3.0397987 1.4076402 74
3.2872901 -3.0291739 0.94015646 76
1.8746269 -1.7280358 0.32139081 10
1.583132 -1.4613768 1.9994081 38
1.9915296 -1.8390111 2.0573583 10
2.3388441 -2.1597316 1.9556034 72
2.9545789 -2.729269 1.9468503 37
3.3022983 -3.0515409 1.6531779 79
3.2909737 -3.0421412 1.1716297 79
3.2722332 -3.025877 0.71303481 86
1.859207 -1.7198336 0.19584158 9
0.022665001 -0.021660168 1.9991974 82
0.24004921 -0.2244534 2.0897303 96
0.31562421 -0.29376063 2.0964177 63
0.44508407 -0.41371083 1.9886441 88
0.60043091 -0.55793023 1.99051 93
0.76732647 -0.71277672 1.9857829 79
0.95300883 -0.88526642 1.9830275 80
1.1734766 -1.0900695 1.9935577 47
0.090538993 -0.086259544 1.9960728 88
0.15793972 -0.15202826 1.9983203 93
0.3712745 -0.34642276 1.9912384 84
0.5194037 -0.48432365 1.9854547 91
0.67993367 -0.63358378 1.9846202 92
0.85412598 -0.79591054 1.979813 85
1.0515347 -0.97987199 1.9773132 78
1.2930506 -1.2049351 1.99433 49
1.4205067 -1.3167753 1.9832203 34
1.7209042 -1.5952421 1.9737986 71
2.0957229 -1.9433727 1.9584669 69
2.6063337 -2.4168699 1.9463733 65
3.2430241 -3.0083308 1.8755243 3
3.2776399 -3.0415058 1.4034126 75
3.2658944 -3.0306065 0.93735862 77
1.8649337 -1.731181 0.32094461 8
1.5780212 -1.466894 1.9994081 39
1.985098 -1.8459517 2.0573583 8
2.331291 -2.1678824 1.9556034 72
2.9417109 -2.7364745 1.9447522 37
3.281255 -3.0533981 1.6482499 80
3.2661042 -3.0403633 1.1669405 77
3.2507782 -3.0271561 0.71096528 86
1.8495368 -1.7229075 0.19564006 10
0.022589255 -0.021739151 1.9991974 80
0.23926426 -0.22528997 2.0897303 96
0.31459686 -0.29486054 2.0964177 65
0.44363722 -0.41526189 1.9886441 88
0.59847969 -0.56002271 1.99051 93
0.76483381 -0.71545076 1.9857829 81
0.94991285 -0.88858765 1.9830275 82
1.1696643 -1.094159 1.9935577 47
0.090237334 -0.086575061 1.9960728 89
0.15740806 -0.15257864 1.9983203 91
0.37006304 -0.34771666 1.9912384 84
0.51770991 -0.48613375 1.9854547 91
0.67613 -0.63446313 1.9801195 90
0.85134256 -0.79888719 1.979813 85
1.048108 -0.98353654 1.9773132 78
1.2888367 -1.2094413 1.99433 49
1.4159017 -1.3217258 1.9832203 36
1.7153254 -1.6012397 1.9737986 69
2.0889263 -1.9506764 1.9584669 69
2.5978813 -2.4259529 1.9463733 65
3.2325032 -3.0196328 1.8755243 6
3.2564881 -3.0431027 1.3991851 72
3.2445283 -3.0319266 0.93456078 77
1.8552413 -1.7342794 0.32049838 8
1.5728911 -1.4723933 1.9994081 38
1.975692 -1.8501067 2.054415 8
2.3237095 -2.176007 1.9556034 72
2.9321411 -2.7467265 1.9447522 37
3.2602384 -3.0551457 1.6433216 80
3.2448325 -3.0417726 1.1634235 76
3.2293544 -3.028322 0.70889586 88
1.8398678 -1.7259353 0.19543852 10
0.022513233 -0.02181787 1.9991974 80
0.2384764 -0.22612379 2.0897303 97
0.3135657 -0.29595691 2.0964177 59
0.44218501 -0.41680798 1.9886441 88
0.5965212 -0.56210834 1.99051 93
0.76233172 -0.71811622 1.9857829 83
0.9468053 -0.89189804 1.9830275 82
1.1658379 -1.0982352 1.9935577 47
0.08993458 -0.08688952 1.9960728 89
0.15725611 -0.15350062 2.0032918 93
0.36884698 -0.3490063 1.9912384 82
0.51600981 -0.48793793 1.9854547 93
0.67391115 -0.63681942 1.9801195 90
0.84854871 -0.80185407 1.979813 85
1.0446683 -0.98718917 1.9773132 80
1.2846072 -1.2139329 1.99433 47
1.4086809 -1.3242177 1.9797159 38
1.7068892 -1.6045512 1.9706609 69
2.0821042 -1.9579563 1.9584669 71
2.5893972 -2.4350064 1.9463733 65
3.2219431 -3.0308979 1.8755243 21
3.2318711 -3.0413005 1.3935483 70
3.2231929 -3.0331337 0.93176287 77
1.8455502 -1.7373314 0.32005218 9
1.567742 -1.4778749 1.9994081 38
1.9692219 -1.856992 2.054415 8
2.3160996 -2.1841052 1.9556034 72
2.9225354 -2.7569449 1.9447522 48
3.2358158 -3.0535429 1.6367509 78
3.2235916 -3.043071 1.1599066 76
3.2079625 -3.0293763 0.70682645 87
1.8302001 -1.7289163 0.19523698 8
0.022436935 -0.021896323 1.9991974 82
0.23768562 -0.22695485 2.0897303 96
0.3125307 -0.29704964 2.0964177 59
0.44072738 -0.41834897 1.9886441 86
0.59455544 -0.56418723 1.99051 91
0.7598204 -0.72077286 1.9857829 81
0.94368619 -0.89519757 1.9830275 82
1.1619972 -1.102298 1.9935577 47
0.089630738 -0.087202914 1.9960728 91
0.15671933 -0.15404861 2.0032918 93
0.36762652 -0.35029167 1.9912384 82
0.51430351 -0.4897362 1.9854547 91
0.67168415 -0.63916796 1.9801195 90
0.84574461 -0.80481112 1.979813 85
1.0433996 -0.99290746 1.9813027 80
1.2803619 -1.2184095 1.99433 49
1.4040501 -1.3291266 1.9797159 50
1.7012777 -1.6104994 1.9706609 71
2.0752571 -1.9652123 1.9584669 63
2.5808818 -2.4440303 1.9463733 68
3.2113438 -3.0421262 1.8755243 30
3.2107885 -3.0426636 1.3893206 68
3.201889 -3.0342302 0.92896503 77
1.8358603 -1.7403367 0.31960598 11
1.5625737 -1.4833382 1.9994081 39
1.9510039 -1.8527212 2.0426424 8
2.3084617 -2.1921766 1.9556034 70
2.9128938 -2.7671297 1.9447522 59
3.2148674 -3.0550597 1.6318229 79
3.2023809 -3.0442579 1.1563896 77
3.1866024 -3.0303175 0.70475692 88
1.8169144 -1.7284076 0.19483393 7
0.02236037 -0.021974508 1.9991974 80
0.23689196 -0.22778314 2.0897303 96
0.31149188 -0.2981388 2.0964177 59
0.43926439 -0.41988483 1.9886441 80
0.5925824 -0.56625915 1.99051 95
0.75729978 -0.72342074 1.9857829 81
0.94055569 -0.89848626 1.9830275 80
1.1581423 -1.1063474 1.9935577 47
0.0891193 -0.087312266 1.9910811 91
0.15618066 -0.15459472 2.0032918 93
0.36640149 -0.35157278 1.9912384 84
0.51259083 -0.49152845 1.9854547 91
0.67102122 -0.64301538 1.9846202 92
0.84293008 -0.80775845 1.979813 87
1.0399272 -0.99654359 1.9813027 74
1.276101 -1.2228714 1.99433 49
1.4019831 -1.3364803 1.9832203 67
1.6956457 -1.6164283 1.9706609 73
2.0683846 -1.9724443 1.9584669 63
2.5755413 -2.4560819 1.9486914 68
3.1939962 -3.0469172 1.8717781 44
3.1862655 -3.0406051 1.3836838 69
3.1806171 -3.0352147 0.92616719 76
1.8297741 -1.7467345 0.31960598 9
1.5573864 -1.4887837 1.9994081 38
1.9269971 -1.8427585 2.0249834 9
2.3007951 -2.2002211 1.9556034 70
2.9032171 -2.7772808 1.9447522 63
3.1905363 -3.0532033 1.6252521 80
3.1812017 -3.0453343 1.1528727 78
3.1652753 -3.0311472 0.7026875 88
1.8072625 -1.7312833 0.1946324 5
0.022283524 -0.022052428 1.9991974 80
0.23609541 -0.22860867 2.0897303 96
0.3104493 -0.29922429 2.0964177 59
0.437796 -0.4214156 1.9886441 80
0.59060222 -0.56832421 1.99051 93
0.75476992 -0.72605985 1.9857829 81
0.93741363 -0.90176392 1.9830275 80
1.1542734 -1.1103834 1.9935577 47
0.088813983 -0.087622821 1.9910811 91
0.15564008 -0.15513894 2.0032918 93
0.36607653 -0.3537237 1.9960775 84
0.51087201 -0.49331471 1.9854547 93
0.66877264 -0.64535373 1.9846202 90
0.84010535 -0.81069589 1.979813 85
1.0386111 -1.0022603 1.9852921 70
1.2718247 -1.2273183 1.99433 49
1.3973095 -1.3413659 1.9832203 64
1.689993 -1.6223373 1.9706609 73
2.061487 -1.9796522 1.9584669 69
2.566952 -2.4650571 1.9486914 60
3.1766543 -3.0516243 1.868032 61
3.165256 -3.0417368 1.3794563 73
3.1593771 -3.0360873 0.92336929 77
1.8236656 -1.7531109 0.31960598 9
1.5494894 -1.4916209 1.9960833 38
1.9001724 -1.8298476 2.0043812 14
2.2931011 -2.2082391 1.9556034 72
2.8935049 -2.7873976 1.9447522 63
3.1662571 -3.0512142 1.6186814 81
3.160054 -3.0463002 1.1493558 79
3.1439817 -3.0318651 0.70061809 87
1.7976127 -1.7341127 0.19443086 5
0.022210276 -0.022126202 1.9991974 80
0.23533601 -0.22939032 2.0897303 96
0.30945534 -0.30025211 2.0964177 59
0.43639615 -0.42286506 1.9886441 86
0.5887143 -0.5702796 1.99051 91
0.75235808 -0.72855878 1.9857829 81
0.93441808 -0.90486753 1.9830275 80
1.1505849 -1.114205 1.9935577 45
0.088538267 -0.087901406 1.9910811 89
0.15515192 -0.15562712 2.0032918 93
0.36496347 -0.35487202 1.9960775 82
0.50931966 -0.49491724 1.9854547 93
0.66662884 -0.64756793 1.9846202 92
0.83741236 -0.81347734 1.979813 85
1.0374436 -1.0077991 1.9892817 63
1.2679627 -1.2313077 1.99433 49
1.3954183 -1.3484704 1.986725 52
1.6846039 -1.6279325 1.9706609 71
2.0579176 -1.9893839 1.9612085 67
2.5587635 -2.473556 1.9486914 58
3.1570523 -3.0519226 1.8624129 70
3.1453385 -3.041661 1.3752288 75
3.1386995 -3.0363011 0.92057145 78
1.8214209 -1.7626119 0.32005218 7
1.5445346 -1.496751 1.9960833 38
1.8679745 -1.8108183 1.9778926 25
2.2861524 -2.2154319 1.9556034 72
2.8847337 -2.7964745 1.9447522 63
3.1464856 -3.0512834 1.6137534 81
3.140002 -3.0460596 1.1458389 80
3.1273329 -3.0348291 0.69923842 89
1.7849866 -1.7327918 0.19402781 5
0.022132907 -0.022203594 1.9991974 80
0.23453385 -0.23021039 2.0897303 96
0.30913362 -0.30204216 2.1013131 63
0.43491745 -0.42438579 1.9886441 89
0.58672011 -0.57233113 1.99051 93
0.7498104 -0.73118049 1.9857829 81
0.93125385 -0.90812373 1.9830275 80
1.1466886 -1.1182146 1.9935577 47
0.0882155 -0.08822532 1.9910811 89
0.15458047 -0.15619475 2.0032918 93
0.36366037 -0.35620731 1.9960775 80
0.50750226 -0.49678069 1.9854547 91
0.66436434 -0.64989096 1.9846202 92
0.83456773 -0.81639546 1.979813 87
1.0339195 -1.0114143 1.9892817 63
1.2634412 -1.2359469 1.99433 49
1.3932585 -1.3558203 1.9902295 39
1.678911 -1.6338031 1.9706609 73
2.0509605 -1.9965552 1.9612085 51
2.5501134 -2.4824727 1.9486914 68
3.1392031 -3.0570047 1.858667 69
3.1238599 -3.0431259 1.371001 74
3.1175261 -3.0369556 0.9177736 77
1.8152571 -1.7689592 0.32005218 7
1.5393006 -1.5021333 1.9960833 38
1.8500729 -1.8060336 1.96612 34
2.278017 -2.2237964 1.9556034 72
2.8744648 -2.8070285 1.9447522 64
3.1217685 -3.0495951 1.6071827 79
3.1183875 -3.0473564 1.1423218 81
3.1055653 -3.0358858 0.69716901 90
1.7750518 -1.7358295 0.19382627 5
0.022055265 -0.022280719 1.9991974 82
0.23372884 -0.23102766 2.0897303 96
0.30807742 -0.30311936 2.1013131 65
0.43343341 -0.42590135 1.9886441 88
0.5847187 -0.57437563 1.99051 93
0.74725354 -0.73379338 1.9857829 81
0.92807823 -0.91136891 1.9830275 80
1.1427783 -1.1222104 1.9935577 47
0.087906994 -0.088532709 1.9910811 89
0.15403432 -0.15673338 2.0032918 93
0.36241475 -0.35747454 1.9960775 69
0.50576514 -0.49854916 1.9854547 93
0.66209173 -0.65220606 1.9846202 92
0.83171284 -0.81930369 1.979813 87
1.0325297 -1.0171323 1.9932711 63
1.256704 -1.2379704 1.9906548 49
1.388517 -1.3606753 1.9902295 38
1.6731976 -1.6396536 1.9706609 71
2.0439789 -2.0037022 1.9612085 33
2.5414329 -2.491359 1.9486914 68
3.1185827 -3.0582061 1.8530477 68
3.1029444 -3.0439332 1.3667735 75
3.096386 -3.0374994 0.91497576 78
1.8126259 -1.7787728 0.32049838 7
1.5340477 -1.5074973 1.9960833 38
1.8466398 -1.8153143 1.9690632 37
2.2702405 -2.2317345 1.9556034 73
2.8646491 -2.817045 1.9447522 63
3.1010041 -3.0505381 1.6022545 77
3.097338 -3.0479951 1.1388049 82
3.084362 -3.0362856 0.69509953 91
1.7583026 -1.7314986 0.19322169 6
0.021977358 -0.022357568 1.9991974 82
0.23292099 -0.23184215 2.0897303 96
0.30701745 -0.30419293 2.1013131 63
0.4319441 -0.42741174 1.9886441 88
0.58271021 -0.57641315 1.99051 95
0.74298394 -0.73471266 1.9813942 81
0.92489129 -0.91460294 1.9830275 80
1.138854 -1.1261926 1.9935577 47
0.087597422 -0.088839032 1.9910811 89
0.15348627 -0.15727012 2.0032918 91
0.36116469 -0.35873744 1.9960775 62
0.50402176 -0.50031155 1.9854547 93
0.65981108 -0.65451318 1.9846202 90
0.82884789 -0.82220191 1.979813 87
1.028973 -1.0207303 1.9932711 63
1.252375 -1.2423495 1.9906548 47
1.3862975 -1.368019 1.9937341 38
1.6674641 -1.6454841 1.9706609 71
2.0339963 -2.0078871 1.9584669 17
2.5358734 -2.5033276 1.9510094 68
3.0979931 -3.0593014 1.8474287 69
3.0820618 -3.0446315 1.362546 75
3.0752802 -3.0379324 0.91217786 77
1.8099478 -1.7885898 0.32094461 5
1.5287763 -1.512843 1.9960833 38
1.8374194 -1.8189055 1.96612 39
2.2624366 -2.2396455 1.9556034 73
2.8515732 -2.8238342 1.9426541 63
3.0802722 -3.0513735 1.5973265 78
3.0763218 -3.0485239 1.1352879 83
3.0631933 -3.0365744 0.69303006 89
1.7451528 -1.73059 0.19281861 7
0.021899179 -0.022434147 1.9991974 80
0.23211029 -0.23265378 2.0897303 96
0.305233 -0.30454352 2.0964177 63
0.43044952 -0.4289169 1.9886441 88
0.58069456 -0.57844371 1.99051 95
0.74041486 -0.73730171 1.9813942 81
0.92169309 -0.91782582 1.9830275 74
1.1371878 -1.1324234 1.9973947 45
0.087286785 -0.089144252 1.9910811 89
0.15293635 -0.15780491 2.0032918 91
0.35991031 -0.35999593 1.9960775 49
0.50227231 -0.50206786 1.9854547 91
0.65752238 -0.65681237 1.9846202 90
0.8259728 -0.82509017 1.979813 87
1.0254037 -1.024316 1.9932711 61
1.2480308 -1.2467136 1.9906548 47
1.3815138 -1.3728497 1.9937341 38
1.6589488 -1.6485507 1.9675231 71
2.0269749 -2.0149748 1.9584669 13
2.5271199 -2.5121641 1.9510094 68
3.0774333 -3.0602899 1.8418096 70
3.0646131 -3.048605 1.3597275 76
3.0542095 -3.0382555 0.90938002 77
1.8107535 -1.8019223 0.32183704 5
1.5234861 -1.5181701 1.9960833 38
1.8310591 -1.8253082 1.96612 56
2.2546051 -2.2475293 1.9556034 72
2.8416989 -2.8337708 1.9426541 64
3.0595722 -3.0521016 1.5923985 79
3.0553396 -3.0489435 1.1317708 83
3.0420606 -3.0367522 0.69096065 88
1.7249609 -1.7225504 0.19201249 8
0.021820737 -0.022510454 1.9991974 80
0.23184347 -0.23401466 2.0946693 96
0.30416808 -0.30560711 2.0964177 61
0.42894968 -0.43041679 1.9886441 88
0.57867193 -0.58046722 1.99051 93
0.73783672 -0.73988175 1.9813942 81
0.91848367 -0.92103755 1.9830275 74
1.1332279 -1.1363859 1.9973947 45
0.086975083 -0.089448407 1.9910811 89
0.15238458 -0.1583378 2.0032918 93
0.35865149 -0.36125004 1.9960775 40
0.50051665 -0.50381809 1.9854547 93
0.65522569 -0.65910357 1.9846202 93
0.82308769 -0.8279683 1.979813 87
1.021822 -1.027889 1.9932711 61
1.2436713 -1.2510624 1.9906548 47
1.3767133 -1.3776637 1.9937341 38
1.6531842 -1.6543313 1.9675231 71
2.0228844 -2.0249965 1.9612085 9
2.5183351 -2.5209703 1.9510094 66
3.0536289 -3.0578916 1.8343176 71
3.0437851 -3.0490985 1.3555 79
3.033174 -3.0384688 0.90658218 76
1.8114882 -1.8152823 0.32272944 5
1.5181774 -1.5234787 1.9960833 38
1.8246764 -1.8316886 1.96612 71
2.2467458 -2.2553856 1.9556034 72
2.83179 -2.8436728 1.9426541 64
3.0389049 -3.0527225 1.5874705 82
3.0343928 -3.0492542 1.1282539 83
3.0209644 -3.0368197 0.68889123 88
1.7224603 -1.7321036 0.19221401 6
0.021742027 -0.022586485 1.9991974 82
0.2310252 -0.23482251 2.0946693 96
0.30309945 -0.30666703 2.0964177 61
0.42744464 -0.43191153 1.9886441 86
0.57664216 -0.58248359 1.99051 93
0.73524946 -0.74245274 1.9813942 81
0.91526306 -0.92423809 1.9830275 82
1.1292543 -1.1403347 1.9973947 40
0.086662315 -0.089751452 1.9910811 89
0.15183096 -0.15886876 2.0032918 91
0.3609204 -0.36608276 2.0154345 38
0.49875495 -0.50556213 1.9854547 93
0.65292102 -0.66138673 1.9846202 93
0.82019252 -0.83083636 1.979813 87
1.0182277 -1.0314496 1.9932711 61
1.2416785 -1.2578088 1.99433 47
1.3744079 -1.3849922 1.9972385 38
1.6473994 -1.660092 1.9675231 71
2.0158036 -2.0320454 1.9612085 8
2.5095201 -2.5297456 1.9510094 66
3.0331438 -3.0586574 1.8286985 73
3.0229912 -3.0494838 1.3512723 80
3.0121741 -3.0385721 0.90378422 77
1.8156569 -1.8322067 0.3240681 5
1.5128503 -1.5287689 1.9960833 39
1.8182715 -1.8380468 1.96612 75
2.2388594 -2.2632146 1.9556034 72
2.8218465 -2.8535402 1.9426541 64
3.01827 -3.053236 1.5825423 82
3.0134809 -3.0494556 1.124737 83
2.9999049 -3.0367775 0.68682176 87
1.7234247 -1.7452153 0.19261709 6
0.021633346 -0.022630284 1.9941976 78
0.23020411 -0.2356275 2.0946693 96
0.30202714 -0.30772316 2.0964177 63
0.42593437 -0.43340096 1.9886441 88
0.57460546 -0.58449292 1.99051 93
0.73265338 -0.74501473 1.9813942 81
0.91203129 -0.92742729 1.9830275 82
1.1252669 -1.1442697 1.9973947 42
0.086348504 -0.090053424 1.9910811 89
0.15127547 -0.15939778 2.0032918 89
0.36227998 -0.3700369 2.029952 36
0.49698719 -0.50730002 1.9854547 91
0.65060836 -0.66366178 1.9846202 93
0.81728739 -0.83369428 1.979813 85
1.0146211 -1.0349976 1.9932711 61
1.2372804 -1.2621354 1.99433 47
1.3695649 -1.3897815 1.9972385 38
1.6415945 -1.6658324 1.9675231 71
2.0145669 -2.045027 1.9666914 7
2.5006742 -2.5384901 1.9510094 68
3.0126898 -3.0593166 1.8230792 74
3.0055969 -3.0531797 1.348454 80
2.9946573 -3.0420668 0.90191907 78
1.8197293 -1.8491821 0.3254067 5
1.5075046 -1.5340406 1.9960833 38
1.8118443 -1.8443825 1.96612 75
2.2309458 -2.2710159 1.9556034 72
2.8118684 -2.863373 1.9426541 63
2.9976692 -3.0536432 1.5776143 83
2.9926047 -3.0495486 1.1212201 83
2.9823503 -3.0401602 0.68544209 88
1.724318 -1.7583545 0.19302015 6
0.02155422 -0.022705661 1.9941976 78
0.22938021 -0.23642965 2.0946693 96
0.30095115 -0.30877557 2.0964177 64
0.42441893 -0.43488508 1.9886441 88
0.57256168 -0.5864951 1.99051 93
0.7300483 -0.74756759 1.9813942 83
0.90878838 -0.93060517 1.9830275 82
1.1212658 -1.1481906 1.9973947 45
0.086033635 -0.090354279 1.9910811 89
0.15071815 -0.15992485 2.0032918 89
0.36449307 -0.37490678 2.049309 35
0.49521339 -0.50903177 1.9854547 91
0.64828777 -0.66592878 1.9846202 92
0.8143723 -0.83654207 1.979813 85
1.0110022 -1.038533 1.9932711 61
1.2328671 -1.2664466 1.99433 49
1.3647053 -1.3945537 1.9972385 38
1.6357696 -1.6715524 1.9675231 71
2.0132642 -2.0580249 1.9721743 6
2.4917982 -2.5472035 1.9510094 68
2.9922686 -3.0598705 1.8174602 74
2.9848607 -3.0533612 1.3442264 79
2.9737186 -3.0419636 0.89912122 79
1.8237052 -1.8662082 0.32674533 4
1.5021406 -1.5392933 1.9960833 38
1.8053951 -1.8506958 1.96612 75
2.2199943 -2.2757032 1.9530709 72
2.8018563 -2.8731709 1.9426541 63
2.9803991 -3.0573254 1.574329 82
2.9751565 -3.0530138 1.1188755 84
2.9613531 -3.0399101 0.68337268 88
1.7251408 -1.7715212 0.19342321 6
0.021474833 -0.022780761 1.9941976 78
0.22801457 -0.23666923 2.0897303 95
0.29987147 -0.3098242 2.0964177 65
0.42289835 -0.43636394 1.9886441 88
0.57051086 -0.58849013 1.99051 93
0.72743428 -0.7501114 1.9813942 81
0.90553445 -0.93377185 1.9830275 80
1.1172509 -1.1520976 1.9973947 45
0.085916296 -0.090864785 1.9960728 89
0.15015899 -0.16044998 2.0032918 91
0.36580297 -0.37889168 2.0638263 35
0.49343351 -0.51075727 1.9854547 91
0.64595932 -0.66818768 1.9846202 92
0.81325984 -0.84125471 1.9840788 79
1.0073707 -1.0420557 1.9932711 61
1.2260826 -1.2683048 1.9906548 49
1.3598292 -1.3993088 1.9972385 38
1.6326381 -1.6800439 1.9706609 73
2.0148089 -2.0740378 1.9803987 5
2.4828916 -2.555886 1.9510094 57
2.9718807 -3.0603199 1.8118411 74
2.9675012 -3.0568774 1.3414079 79
2.9562387 -3.0452757 0.8972559 79
1.8310525 -1.8868583 0.32853019 4
1.4967585 -1.5445274 1.9960833 38
1.7989241 -1.8569865 1.96612 75
2.2120371 -2.2834384 1.9530709 72
2.7918098 -2.8829336 1.9426541 64
2.9598546 -3.0575306 1.5694009 81
2.9543412 -3.0529017 1.1153585 82
2.9438374 -3.0431099 0.68199301 88
1.7224193 -1.7811236 0.19362473 7
0.021424551 -0.022887852 1.9991974 80
0.22718704 -0.2374637 2.0897303 92
0.29878819 -0.31086907 2.0964177 63
0.42137253 -0.43783748 1.9886441 88
0.56845325 -0.590478 1.99051 93
0.72647351 -0.75437182 1.9857829 81
0.90422148 -0.938954 1.9871606 80
1.1132227 -1.1559905 1.9973947 45
0.085598603 -0.091164127 1.9960728 89
0.149598 -0.16097316 2.0032918 91
0.36708948 -0.38289025 2.0783441 36
0.4916476 -0.51247662 1.9854547 91
0.64362293 -0.67043847 1.9846202 92
0.81031829 -0.84408838 1.9840788 73
1.0037272 -1.0455657 1.9932711 61
1.2216477 -1.2725769 1.9906548 45
1.3524599 -1.4014809 1.9937341 38
1.6267636 -1.6857327 1.9706609 73
2.0133629 -2.0870769 1.9858816 5
2.4708788 -2.5613487 1.9486914 40
2.9515252 -3.0606635 1.806222 70
2.9468243 -3.0568559 1.3371804 78
2.9353633 -3.0449669 0.89445812 79
1.8348219 -1.9039962 0.32986879 9
1.4887686 -1.5470519 1.9927584 38
1.7924309 -1.8632547 1.96612 75
2.2040529 -2.2911463 1.9530709 72
2.7817297 -2.8926611 1.9426541 63
2.9426181 -3.0610354 1.5661156 81
2.9369309 -3.0561864 1.1130139 80
2.9229052 -3.0426538 0.67992359 87
1.7231125 -1.794332 0.19402781 7
0.021348536 -0.02295877 1.9991974 80
0.22639833 -0.23821577 2.0897303 92
0.29775566 -0.31185815 2.0964177 63
0.41991827 -0.43923241 1.9886441 88
0.56649202 -0.59235984 1.99051 93
0.72396785 -0.75677675 1.9857829 83
0.90110278 -0.94194734 1.9871606 80
1.1093831 -1.1596756 1.9973947 45
0.085311778 -0.091432594 1.9960728 89
0.1487298 -0.16104963 1.9983203 91
0.36588478 -0.38404158 2.0783441 38
0.49003521 -0.5140186 1.9854547 91
0.64139616 -0.6725691 1.9846202 92
0.80751473 -0.84677088 1.9840788 66
0.99817437 -1.0467073 1.9892817 59
1.2176439 -1.2764086 1.9906548 47
1.347805 -1.4059582 1.9937341 38
1.6211646 -1.6911181 1.9706609 73
2.0151103 -2.1027989 1.9941061 5
2.4623716 -2.5695283 1.9486914 39
2.9322729 -3.0598795 1.8006029 69
2.9272504 -3.055706 1.3329529 77
2.9150572 -3.0440407 0.89166027 78
1.8491606 -1.9316546 0.33254606 8
1.4836302 -1.5519805 1.9927584 38
1.7862425 -1.8691884 1.96612 75
2.1968441 -2.2980595 1.9530709 73
2.7726285 -2.901386 1.9426541 63
2.9232013 -3.0600204 1.5611874 82
2.9172444 -3.0548522 1.109497 80
2.9064927 -3.044657 0.67854398 85
1.7209162 -1.8033509 0.19422933 7
0.021264244 -0.023036864 1.9991974 82
0.22552371 -0.23904397 2.0897303 96
0.29661062 -0.31294739 2.0964177 65
0.41830564 -0.44076848 1.9886441 86
0.56297207 -0.59301525 1.9859076 93
0.72118932 -0.75942516 1.9857829 83
0.89764434 -0.94524372 1.9871606 80
1.1029176 -1.1614091 1.9935577 45
0.084960066 -0.091759495 1.9960728 88
0.14811032 -0.16161953 1.9983203 91
0.36527154 -0.38635772 2.0831835 39
0.48805788 -0.51589638 1.9854547 91
0.63880897 -0.67502689 1.9846202 92
0.80425745 -0.84986526 1.9840788 56
0.99414802 -1.0505322 1.9892817 59
1.2125102 -1.2812861 1.9906548 47
1.342643 -1.4108886 1.9937341 38
1.6122718 -1.6942284 1.9675231 71
2.0131533 -2.1162295 1.999589 5
2.4529374 -2.5785363 1.9486914 39
2.9109182 -3.0610378 1.7949839 69
2.90558 -3.0564926 1.3287253 77
2.8965795 -3.0480895 0.88979495 79
1.84173 -1.9387406 0.33254606 8
1.4750899 -1.5549563 1.9894335 38
1.779052 -1.8760332 1.96612 75
2.1876016 -2.3068595 1.9530709 73
2.7609591 -2.9124925 1.9426541 65
2.901149 -3.0614469 1.5562594 80
2.8949299 -3.0559523 1.10598 81
2.8879693 -3.0486045 0.67716432 87
1.7208494 -1.8172003 0.1946324 7
0.021183701 -0.023110949 1.9991974 80
0.22468792 -0.23982973 2.0897303 96
0.29551646 -0.31398082 2.0964177 65
0.4167645 -0.44222602 1.9886441 86
0.56089866 -0.59497678 1.9859076 93
0.71853399 -0.76193792 1.9857829 83
0.89433926 -0.94837135 1.9871606 80
1.0988568 -1.165252 1.9935577 45
0.084639251 -0.0920555 1.9960728 88
0.14754526 -0.16213556 1.9983203 93
0.36392066 -0.3876304 2.0831835 40
0.48625413 -0.5175969 1.9854547 93
0.63507545 -0.67555493 1.9801195 90
0.80143481 -0.85252762 1.9840788 48
0.99065888 -1.0538232 1.9892817 61
1.2082547 -1.2853 1.9906548 47
1.3377099 -1.4155667 1.9937341 38
1.6063479 -1.699846 1.9675231 71
2.0143685 -2.1323628 2.0078135 5
2.4439216 -2.5870829 1.9486914 44
2.890667 -3.0610688 1.7893648 69
2.8850138 -3.0561507 1.3244976 76
2.8763397 -3.046962 0.8869971 79
1.9036497 -2.0172768 0.34147027 26
1.4699254 -1.5598394 1.9894335 38
1.7728211 -1.8819226 1.96612 73
2.1799397 -2.314101 1.9530709 73
2.7512856 -2.9216323 1.9426541 64
2.8780332 -3.057296 1.5496887 78
2.8747869 -3.0549159 1.102463 80
2.8671308 -3.0478458 0.6750949 89
1.7213407 -1.8304753 0.19503546 7
0.0211029 -0.023184752 1.9991974 80
0.2238494 -0.24061258 2.0897303 96
0.29441863 -0.31501049 2.0964177 67
0.41521829 -0.44367808 1.9886441 86
0.55881834 -0.5969311 1.9859076 95
0.71586996 -0.76444143 1.9857829 83
0.8910234 -0.95148742 1.9871606 82
1.0947826 -1.1690806 1.9935577 45
0.084122531 -0.092136219 1.9910811 89
0.14697841 -0.16264959 1.9983203 91
0.36256537 -0.38889837 2.0831835 53
0.48444438 -0.5192911 1.9854547 91
0.63271344 -0.67776757 1.9801195 90
0.79845405 -0.85531992 1.9840788 44
0.9869743 -1.0572748 1.9892817 61
1.2037607 -1.2895098 1.9906548 49
1.3327605 -1.4202276 1.9937341 38
1.6004047 -1.7054428 1.9675231 71
2.0154955 -2.1485305 2.0160377 5
2.4348762 -2.595598 1.9486914 60
2.8704505 -3.0609951 1.7837455 71
2.8644855 -3.0557029 1.3202701 76
2.855608 -3.0462329 0.88419932 80
1.9544861 -2.085685 0.34905583 42
1.4619201 -1.5622343 1.9861088 38
1.7662412 -1.8880993 1.96612 73
2.1718488 -2.3216963 1.9530709 73
2.7410705 -2.9312181 1.9426541 64
2.8576686 -3.0569744 1.5447607 79
2.8541493 -3.0542779 1.0989461 80
2.8497128 -3.0505972 0.67371523 88
1.7251698 -1.847427 0.19564006 6
0.021021839 -0.023258274 1.9991974 80
0.22300814 -0.24139248 2.0897303 96
0.29331723 -0.31603628 2.0964177 67
0.41366702 -0.44512475 1.9886441 86
0.55673128 -0.59887809 1.9859076 95
0.71319723 -0.76693565 1.9857829 83
0.88769674 -0.95459187 1.9871606 82
1.0906951 -1.1728951 1.9935577 43
0.08380039 -0.092429303 1.9910811 88
0.14640976 -0.16316165 1.9983203 91
0.3603512 -0.38923851 2.0783441 62
0.48262879 -0.52097893 1.9854547 91
0.63034379 -0.67997205 1.9801195 90
0.79546356 -0.85810184 1.9840788 39
0.98327774 -1.0607135 1.9892817 59
1.1992524 -1.2937038 1.9906548 49
1.3277948 -1.4248711 1.9937341 38
1.5944418 -1.7110189 1.9675231 71
2.0165336 -2.1647313 2.0242622 5
2.425801 -2.6040814 1.9486914 59
2.8502703 -3.0608182 1.7781265 72
2.8439958 -3.0551488 1.3160425 77
2.8349161 -3.0453951 0.88140136 78
1.9709418 -2.1180146 0.35217929 39
1.4564579 -1.5673279 1.9861088 38
1.7596397 -1.894253 1.96612 75
2.1666653 -2.332422 1.9556034 74
2.7308221 -2.9407685 1.9426541 64
2.8373423 -3.0565476 1.5398326 80
2.8335521 -3.0535333 1.0954292 81
2.8289435 -3.0496345 0.67164582 88
1.7153138 -1.8497744 0.19543852 6
0.020940527 -0.023331512 1.9991974 78
0.22163902 -0.24159679 2.0847909 97
0.29221231 -0.31705824 2.0964177 64
0.41211072 -0.44656605 1.9886441 86
0.5559625 -0.60225332 1.99051 93
0.71051574 -0.76942044 1.9857829 81
0.8824501 -0.95561725 1.9830275 80
1.0865942 -1.1766951 1.9935577 43
0.083477244 -0.092721254 1.9910811 89
0.14583933 -0.16367172 1.9983203 93
0.35899031 -0.39049399 2.0783441 75
0.4808073 -0.52266049 1.9854547 93
0.62796634 -0.68216825 1.9801195 92
0.79246336 -0.86087334 1.9840788 38
0.97956908 -1.0641394 1.9892817 59
1.1947291 -1.2978821 1.9906548 47
1.3228129 -1.4294974 1.9937341 38
1.5884595 -1.7165742 1.9675231 71
2.0174832 -2.1809659 2.0324864 7
2.4197044 -2.6157854 1.9510094 59
2.8301265 -3.0605376 1.7725074 73
2.8235445 -3.0544891 1.3118148 78
2.8142653 -3.044451 0.87860352 79
1.9702961 -2.1321969 0.35307169 43
1.4484454 -1.5696577 1.9827838 38
1.7530167 -1.9003838 1.96612 75
2.1585104 -2.3399711 1.9556034 74
2.7205403 -2.9502828 1.9426541 64
2.8170528 -3.056016 1.5349045 82
2.8162882 -3.0562568 1.0930845 81
2.8082154 -3.048564 0.66957641 90
1.7426882 -1.892502 0.19745383 7
0.020858957 -0.023404464 1.9991974 78
0.22027121 -0.24179447 2.0798519 96
0.29110378 -0.31807631 2.0964177 67
0.41054943 -0.4480018 1.9886441 86
0.55385691 -0.60419029 1.99051 95
0.70782566 -0.771896 1.9857829 81
0.87910891 -0.95869178 1.9830275 80
1.0824802 -1.1804808 1.9935577 43
0.083153084 -0.09301208 1.9910811 89
0.14526711 -0.1641798 1.9983203 93
0.35677704 -0.39081573 2.0735047 80
0.47897992 -0.52433562 1.9854547 93
0.62558132 -0.68435603 1.9801195 92
0.78945351 -0.86363423 1.9840788 38
0.97584862 -1.0675522 1.9892817 59
1.1901913 -1.3020445 1.9906548 49
1.3178151 -1.4341061 1.9937341 38
1.5824579 -1.7221084 1.9675231 73
2.0183444 -2.1972332 2.0407109 14
2.4105592 -2.6242158 1.9510094 64
2.8131547 -3.0635688 1.7687613 72
2.8031325 -3.0537243 1.3075873 78
2.7936554 -3.0433998 0.87580568 80
1.9527403 -2.1280537 0.35173309 40
1.4429575 -1.5747042 1.9827838 40
1.7463726 -1.9064915 1.96612 75
2.1503294 -2.3474915 1.9556034 74
2.7102253 -2.9597616 1.9426541 63
2.7999914 -3.0588644 1.5316192 80
2.7957592 -3.0553114 1.0895675 80
2.7875295 -3.0473852 0.66750687 88
1.7360716 -1.8985735 0.19745383 7
0.020777132 -0.023477135 1.9991974 78
0.2189047 -0.24198554 2.0749123 90
0.28999174 -0.31909052 2.0964177 68
0.40898314 -0.44943216 1.9886441 86
0.55174452 -0.60611993 1.99051 95
0.70512688 -0.77436197 1.9857829 83
0.8757571 -0.96175456 1.9830275 78
1.0805115 -1.1866226 1.9973947 43
0.082827903 -0.093301773 1.9910811 89
0.14504506 -0.16508742 2.0032918 91
0.35541067 -0.39205873 2.0735047 95
0.47714674 -0.52600437 1.9854547 91
0.62318873 -0.6865356 1.9801195 92
0.78643411 -0.86638474 1.9840788 44
0.97211629 -1.0709521 1.9892817 57
1.185639 -1.3061912 1.9906548 49
1.3128011 -1.4386973 1.9937341 38
1.576437 -1.7276218 1.9675231 73
2.0162981 -2.2104437 2.0461938 12
2.4013844 -2.6326141 1.9510094 65
2.7930729 -3.0630929 1.7631422 72
2.7827611 -3.0528543 1.3033597 77
2.7763965 -3.0458717 0.87394041 80
1.9553627 -2.1459002 0.35307169 40
1.437452 -1.5797313 1.9827838 40
1.7397071 -1.9125758 1.96612 75
2.142122 -2.3549831 1.9556034 73
2.699877 -2.9692037 1.9426541 63
2.7797678 -3.058136 1.5266912 80
2.7785397 -3.057857 1.0872229 81
2.7668858 -3.0460997 0.66543746 87
1.8167536 -2.0007875 0.20269364 10
0.020695057 -0.023549516 1.9991974 80
0.21753961 -0.24217005 2.0699732 87
0.28887609 -0.32010081 2.0964177 67
0.40741181 -0.45085707 1.9886441 86
0.54962534 -0.60804218 1.99051 95
0.70241958 -0.77681869 1.9857829 83
0.87239462 -0.96480572 1.9830275 78
1.0763628 -1.1903871 1.9973947 45
0.082501717 -0.093590327 1.9910811 89
0.14446791 -0.16559272 2.0032918 91
0.35319853 -0.39236212 2.0686657 84
0.47530773 -0.52766675 1.9854547 91
0.6207884 -0.68870676 1.9801195 92
0.78340507 -0.86912459 1.9840788 56
0.96837199 -1.0743388 1.9892817 59
1.1810725 -1.3103218 1.9906548 47
1.3077712 -1.4432712 1.9937341 38
1.5703969 -1.7331141 1.9675231 71
2.0085697 -2.2174685 2.0461938 9
2.3892057 -2.6376972 1.9486914 64
2.7730286 -3.0625145 1.7575232 73
2.7656488 -3.0554357 1.3005413 78
2.7558579 -3.0446191 0.87114257 78
1.9512016 -2.1564054 0.35351792 45
1.4319289 -1.5847394 1.9827838 40
1.7330204 -1.9186369 1.96612 75
2.1338885 -2.3624461 1.9556034 73
2.689496 -2.97861 1.9426541 64
